ply
format ascii 1.0
element vertex 807
property float x
property float y
property float z
end_header
24.44666862487793 15.459155082702637 7.750281810760498
20.59152603149414 15.473529815673828 6.901656150817871
17.49315071105957 15.497597694396973 6.262135028839111
14.602622032165527 17.88497543334961 6.186715126037598
19.6448917388916 14.762177467346191 6.293366432189941
14.704928398132324 18.010282516479492 5.954714775085449
13.904935836791992 20.144771575927734 6.268909931182861
20.04124641418457 15.060014724731445 6.125144958496094
14.611705780029297 15.21240234375 5.153707027435303
14.26021957397461 20.65949249267578 6.133488178253174
-19.83306121826172 4.888417720794678 4.990866184234619
19.22209930419922 4.737832069396973 4.605259895324707
23.285112380981445 14.72463321685791 6.408705711364746
17.614999771118164 15.605541229248047 5.474330902099609
14.704934120178223 18.010282516479492 5.408619403839111
-19.85042381286621 4.8927001953125 4.755887508392334
23.95228385925293 15.146528244018555 6.262135028839111
17.614999771118164 15.605541229248047 5.200132846832275
14.512645721435547 15.109267234802246 4.629303932189941
14.285139083862305 20.69557762145996 5.55668830871582
14.16976261138916 24.54275894165039 6.2621355056762695
24.564281463623047 15.53353500366211 6.085150241851807
20.167020797729492 15.15453052520752 5.2817301750183105
17.614994049072266 15.605541229248047 4.9272685050964355
14.704934120178223 18.01028060913086 4.868124961853027
14.329679489135742 20.760116577148438 5.281535625457764
14.681196212768555 25.428585052490234 6.147705554962158
-13.019570350646973 3.20904278755188 2.8075342178344727
24.56429672241211 15.53353500366211 5.74973201751709
20.16702651977539 15.15453052520752 4.990592002868652
14.68858814239502 15.29244613647461 4.194879531860352
17.640995025634766 15.628579139709473 4.391739368438721
14.68858814239502 15.29244613647461 3.9512150287628174
-19.84832000732422 4.892177581787109 3.8092424869537354
24.564287185668945 15.53353500366211 5.083204746246338
17.719762802124023 15.6983642578125 4.140451431274414
14.34706974029541 20.785314559936523 4.4172587394714355
15.026537895202637 18.404178619384766 3.884671449661255
14.39083480834961 20.84870719909668 4.141942501068115
14.784008026123047 25.60666847229004 4.834379196166992
-19.8472843170166 4.891923904418945 3.342095375061035
20.273143768310547 15.234281539916992 3.858201742172241
18.17835807800293 16.104639053344727 3.69494366645813
14.68858814239502 15.29244613647461 3.2260472774505615
14.39083480834961 20.84870719909668 3.8542277812957764
-12.990317344665527 5.534663200378418 2.1482901573181152
-19.84676742553711 4.891796588897705 3.1099016666412354
14.390825271606445 20.84870719909668 3.567476749420166
-19.846254348754883 4.891669750213623 2.8783764839172363
24.79391098022461 15.67873477935791 3.8000707626342773
-19.845741271972656 4.891542911529541 2.6478075981140137
20.273143768310547 15.234281539916992 2.999687433242798
20.273143768310547 15.234281539916992 2.715092658996582
14.68858814239502 15.29244613647461 2.270216703414917
25.09421157836914 15.868637084960938 2.846430540084839
20.273143768310547 15.234281539916992 2.431161403656006
14.688593864440918 15.29244613647461 2.0328369140625
-19.844213485717773 4.891166687011719 1.9593926668167114
25.115028381347656 15.88180160522461 2.5168113708496094
20.273149490356445 15.234281539916992 2.1478641033172607
14.688583374023438 15.29244613647461 1.7959377765655518
24.829519271850586 15.70125961303711 2.1606154441833496
20.273149490356445 15.234281539916992 1.8650847673416138
18.897661209106445 16.741893768310547 1.856839895248413
14.390839576721191 20.84870719909668 1.8631725311279297
-19.84319305419922 4.890913009643555 1.503080129623413
18.898143768310547 16.742311477661133 1.5757933855056763
14.688593864440918 15.29244613647461 1.3234310150146484
14.933805465698242 25.866127014160156 1.8641570806503296
-19.842689514160156 4.890790939331055 1.2755258083343506
24.917823791503906 15.75710391998291 1.5123214721679688
20.27313995361328 15.234281539916992 1.3008431196212769
14.68858814239502 15.29244613647461 1.087697148323059
-19.842016220092773 4.890625 1.04828941822052
20.27315330505371 15.234281539916992 1.019242525100708
14.390830039978027 20.84870719909668 1.018190860748291
-19.840967178344727 4.890366077423096 0.8213106989860535
24.91895866394043 15.7578125 0.8578723073005676
24.91952133178711 15.75816822052002 0.5309823751449585
18.900102615356445 16.744049072265625 0.45473602414131165
14.390819549560547 20.84870719909668 0.45625028014183044
14.935129165649414 25.868398666381836 0.537935197353363
-12.913480758666992 6.777504920959473 0.2626461684703827
-19.838871002197266 4.889848709106445 0.3679760694503784
24.920080184936523 15.758529663085938 0.2042083740234375
20.273143768310547 15.234281539916992 0.17563049495220184
18.900585174560547 16.74448013305664 0.1748727411031723
14.39083480834961 20.84870719909668 0.17543883621692657
14.935468673706055 25.86900520324707 0.20688140392303467
-12.913480758666992 6.777509689331055 0.101007379591465
20.273143768310547 15.234281539916992 -0.10538375377655029
14.688583374023438 15.29244613647461 -0.08811721950769424
-19.836772918701172 4.889335632324219 -0.08490157872438431
24.921310424804688 15.759296417236328 -0.44931304454803467
18.90156364440918 16.74534797668457 -0.384813517332077
14.688583374023438 15.29244613647461 -0.32311078906059265
14.936174392700195 25.870229721069336 -0.4552001953125
-19.83572769165039 4.889062404632568 -0.31130537390708923
24.921918869018555 15.759687423706055 -0.7762212753295898
20.273143768310547 15.234281539916992 -0.6675655841827393
14.390830039978027 20.84870719909668 -0.6669004559516907
-19.83467674255371 4.888818264007568 -0.5377616882324219
24.92253303527832 15.760087966918945 -1.1033434867858887
18.90254020690918 16.746217727661133 -0.9449215531349182
14.688583374023438 15.29244613647461 -0.7934005856513977
14.93687915802002 25.87145233154297 -1.117788553237915
-5.757387638092041 28.201515197753906 -1.076990008354187
24.923152923583984 15.760473251342773 -1.4307498931884766
20.273149490356445 15.234281539916992 -1.2304068803787231
14.390830039978027 20.84870719909668 -1.229158639907837
14.937233924865723 25.8720645904541 -1.4494781494140625
-5.622768402099609 27.542028427124023 -1.363885521888733
-21.591468811035156 7.208291053771973 -1.104443073272705
-19.832576751708984 4.888300895690918 -0.9910621643066406
20.273143768310547 15.234281539916992 -1.5122473239898682
18.903522491455078 16.747072219848633 -1.5060333013534546
14.68858814239502 15.29244613647461 -1.2644706964492798
14.904059410095215 25.814592361450195 -1.7775579690933228
-5.571767330169678 27.29228401184082 -1.6610996723175049
-19.831527709960938 4.888037204742432 -1.2180135250091553
20.273149490356445 15.234281539916992 -1.7944607734680176
18.84974479675293 16.699445724487305 -1.7820037603378296
14.68858814239502 15.29244613647461 -1.5004442930221558
5.505995750427246 26.970130920410156 -1.9478250741958618
1.0786669254302979 26.76729393005371 -1.8956447839736938
-5.565371036529541 27.26095962524414 -1.96882963180542
-23.865488052368164 17.93375015258789 -2.112433671951294
-19.830472946166992 4.887778282165527 -1.4452406167984009
20.273149490356445 15.234281539916992 -2.0771193504333496
18.85023307800293 16.699880599975586 -2.0627479553222656
18.126712799072266 22.20121955871582 -2.347599983215332
10.163447380065918 26.798810958862305 -2.347599983215332
-12.286893844604492 25.89409065246582 -2.347599983215332
-14.330668449401855 24.82143783569336 -2.347599983215332
-18.12672233581543 22.201217651367188 -2.347599983215332
-19.765146255493164 12.498720169067383 -1.9154609441757202
-21.590185165405273 7.207860946655273 -1.8643614053726196
-19.782739639282227 4.876010417938232 -1.6688586473464966
-28.29020881652832 4.597621917724609 -2.347599983215332
26.773056030273438 2.1613523960113525 -2.5
25.898189544677734 4.208881855010986 -2.4420900344848633
19.315946578979492 4.760962009429932 -1.8516303300857544
22.664541244506836 7.566542625427246 -2.223947286605835
23.20442008972168 9.886479377746582 -2.347599983215332
21.318017959594727 13.480722427368164 -2.347599983215332
20.16415023803711 15.152377128601074 -2.347599983215332
18.850727081298828 16.70030975341797 -2.3440191745758057
14.68858814239502 15.29244613647461 -1.9735636711120605
15.952004432678223 19.53768539428711 -2.347599983215332
12.611371994018555 21.843551635742188 -2.347599983215332
10.812783241271973 22.787527084350586 -2.347599983215332
2.1874706745147705 18.015487670898438 -1.6891006231307983
-1.08154296875 26.8383731842041 -2.5
-3.2376415729522705 26.664316177368164 -2.5
-14.328173637390137 20.757909774780273 -2.347599983215332
-15.952006340026855 19.537683486938477 -2.347599983215332
-17.472412109375 18.190725326538086 -2.347599983215332
-19.3995304107666 14.577807426452637 -2.2585787773132324
-22.333656311035156 11.72159194946289 -2.347599983215332
-23.20442771911621 9.886469841003418 -2.347599983215332
-21.80756378173828 7.280434608459473 -2.1398565769195557
23.977569580078125 4.882812390860636e-06 -2.5
20.71415901184082 8.825483322143555 -2.347599983215332
18.000167846679688 13.526259422302246 -2.347599983215332
16.853376388549805 14.930814743041992 -2.347599983215332
12.79049015045166 18.53022003173828 -2.347599983215332
6.670971393585205 23.03089141845703 -2.5
0.9654784798622131 23.9581241607666 -2.5
-0.9654833674430847 23.958126068115234 -2.5
-6.670990943908691 23.0308837890625 -2.5
-8.5025634765625 22.419450759887695 -2.5
-10.03292465209961 21.14394187927246 -2.4401495456695557
-11.257948875427246 19.499332427978516 -2.347599983215332
-12.790497779846191 18.530210494995117 -2.347599983215332
-16.8533878326416 14.930805206298828 -2.347599983215332
-19.93684959411621 10.46364688873291 -2.347599983215332
-21.357147216796875 7.130058288574219 -2.347599983215332
-19.729272842407227 4.862836837768555 -2.1186158657073975
-23.652006149291992 3.8438427448272705 -2.4984090328216553
21.36853790283203 3.4727392196655273 -2.5
19.116256713867188 4.711742877960205 -2.2735986709594727
17.1820068359375 10.86525821685791 -2.347599983215332
16.25200843811035 12.212597846984863 -2.347599983215332
14.08250904083252 14.661449432373047 -2.347599983215332
12.85708236694336 15.747089385986328 -2.347599983215332
11.548293113708496 16.73058319091797 -2.347599983215332
10.164582252502441 17.605581283569336 -2.347599983215332
8.887274742126465 18.729572296142578 -2.394019365310669
3.6637792587280273 17.946380615234375 -2.115182399749756
-0.8717041015625 21.63133430480957 -2.5
-6.023115158081055 20.79414939880371 -2.5
-7.676791667938232 20.242069244384766 -2.5
-10.164594650268555 17.60557746887207 -2.347599983215332
-12.857084274291992 15.747089385986328 -2.347599983215332
-15.2166109085083 13.48073673248291 -2.347599983215332
-17.182031631469727 10.865229606628418 -2.347599983215332
-12.869868278503418 6.754619121551514 -1.6784571409225464
-19.282962799072266 6.437646389007568 -2.347599983215332
-21.36854362487793 3.4727439880371094 -2.5
19.66400909423828 1.5874511003494263 -2.5
19.472509384155273 3.16460919380188 -2.5
13.86642837524414 12.2846040725708 -2.347599983215332
12.832965850830078 13.360541343688965 -2.347599983215332
9.262673377990723 16.043437957763672 -2.347599983215332
8.455034255981445 17.818645477294922 -2.4993529319763184
6.995641708374023 18.44598388671875 -2.5
5.488667011260986 18.949087142944336 -2.5
3.946108341217041 19.32929229736328 -2.5
-0.7943750023841858 19.711977005004883 -2.5
-2.3779540061950684 19.584150314331055 -2.5
-3.946113109588623 19.32928466796875 -2.5
-5.48867654800415 18.94908332824707 -2.5
-10.523622512817383 15.246068954467773 -2.347599983215332
-11.716293334960938 14.34984302520752 -2.347599983215332
-13.866435050964355 12.284589767456055 -2.347599983215332
-15.657445907592773 9.901171684265137 -2.347599983215332
-12.83902359008789 6.738437175750732 -1.8374780416488647
-17.042959213256836 7.261342525482178 -2.347599983215332
-17.987051010131836 4.433403015136719 -2.347599983215332
-19.472515106201172 3.164599657058716 -2.5
18.11605453491211 9.765624781721272e-06 -2.5
18.05730628967285 1.4577734470367432 -2.5
16.136213302612305 5.387070178985596 -2.347599983215332
15.06310749053955 7.905727386474609 -2.347599983215332
14.378119468688965 9.09218692779541 -2.347599983215332
13.59988784790039 10.219653129577637 -2.347599983215332
11.78442096710205 12.268881797790527 -2.347599983215332
10.758959770202637 13.177348136901855 -2.347599983215332
9.663744926452637 14.000350952148438 -2.347599983215332
8.867705345153809 15.359325408935547 -2.4474730491638184
7.766205787658691 16.366962432861328 -2.5
5.040200233459473 17.400800704956055 -2.5
3.623671770095825 17.749942779541016 -2.5
2.1836814880371094 17.983966827392578 -2.5
0.7294628620147705 18.10137176513672 -2.5
-0.7294628620147705 18.101362228393555 -2.5
-2.183657169342041 17.983966827392578 -2.5
-3.6236963272094727 17.749940872192383 -2.5
-6.424037933349609 16.938806533813477 -2.5
-9.058032035827637 15.688960075378418 -2.5
-10.051508903503418 14.562089920043945 -2.4417941570281982
-10.759008407592773 13.177348136901855 -2.347599983215332
-13.599882125854492 10.219653129577637 -2.347599983215332
-14.378119468688965 9.092177391052246 -2.347599983215332
-12.818095207214355 6.727450847625732 -1.997711181640625
-15.65041446685791 6.668002605438232 -2.347599983215332
-17.15567398071289 4.228500843048096 -2.438321590423584
-17.881454467773438 2.9060301780700684 -2.5
16.235309600830078 4.001659870147705 -2.4966328144073486
14.464887619018555 6.162905216217041 -2.347599983215332
13.922077178955078 7.306869983673096 -2.347599983215332
13.288969039916992 8.403447151184082 -2.347599983215332
12.569680213928223 9.445508003234863 -2.347599983215332
9.9439697265625 12.17916488647461 -2.347599983215332
8.931864738464355 12.940038681030273 -2.347639799118042
4.658403396606445 16.082685470581055 -2.5
3.349184513092041 16.405376434326172 -2.5
2.0182323455810547 16.621679306030273 -2.5
0.6741992235183716 16.730180740356445 -2.5
-0.6742041110992432 16.730180740356445 -2.5
-2.018247127532959 16.621679306030273 -2.5
-5.937417030334473 15.655688285827637 -2.5
-10.891737937927246 11.33951187133789 -2.347599983215332
-11.768861770629883 10.426313400268555 -2.347599983215332
-12.797172546386719 6.716469764709473 -2.157914161682129
-14.464887619018555 6.162909984588623 -2.347599983215332
-16.52692413330078 2.6858983039855957 -2.5
15.561088562011719 4.882812390860636e-06 -2.5
15.108905792236328 3.724013566970825 -2.5
12.938705444335938 6.790756702423096 -2.347599983215332
12.350309371948242 7.809873104095459 -2.347599983215332
10.122414588928223 10.538558959960938 -2.347599983215332
8.81497573852539 12.770697593688965 -2.493007183074951
7.780534267425537 13.476298332214355 -2.5
0.6265722513198853 15.548471450805664 -2.5
-0.6265820264816284 15.548466682434082 -2.5
-3.112626791000366 15.246610641479492 -2.5
-4.329379558563232 14.946703910827637 -2.5
-5.518032073974609 14.549872398376465 -2.5
-7.780551433563232 13.476293563842773 -2.5
-9.826420783996582 12.03518009185791 -2.496159076690674
-10.937606811523438 9.689882278442383 -2.347599983215332
-11.68185043334961 8.778339385986328 -2.347599983215332
-12.350337028503418 7.809877872467041 -2.347599983215332
-13.443187713623047 5.727612018585205 -2.347599983215332
-14.587299346923828 4.869956016540527 -2.4707047939300537
-15.10891056060791 3.7240185737609863 -2.5
-15.359580039978027 2.4961814880371094 -2.5
-15.510634422302246 1.2521483898162842 -2.5
14.531054496765137 4.882812390860636e-06 -2.5
14.483935356140137 1.1692724227905273 -2.5
14.342878341674805 2.330947160720825 -2.5
14.108805656433105 3.4775145053863525 -2.5
12.788314819335938 5.448588848114014 -2.39154314994812
11.532816886901855 7.292924404144287 -2.347599983215332
9.452384948730469 9.840986251831055 -2.347599983215332
8.985270500183105 11.004975318908691 -2.444282054901123
6.229348182678223 13.128090858459473 -2.5
2.9065868854522705 14.237387657165527 -2.5
1.7515233755111694 14.425111770629883 -2.5
0.5850976705551147 14.51927661895752 -2.5
-0.5851171612739563 14.519271850585938 -2.5
-2.906611204147339 14.23739242553711 -2.5
-4.042807579040527 13.957338333129883 -2.5
-6.229374885559082 13.128090858459473 -2.5
-7.265536785125732 12.584257125854492 -2.5
-8.254487037658691 11.958818435668945 -2.5
-10.045595169067383 10.458569526672363 -2.494927406311035
-10.5311279296875 9.3297700881958 -2.420581102371216
-11.006200790405273 8.270625114440918 -2.3686060905456543
-11.601069450378418 7.336069107055664 -2.3614909648895264
-12.319741249084473 6.465893268585205 -2.3937418460845947
-13.783242225646973 4.601518630981445 -2.5
-14.108808517456055 3.4775195121765137 -2.5
13.62567138671875 -4.882812390860636e-06 -2.5
13.449220657348633 2.185717821121216 -2.5
13.229728698730469 3.2608397006988525 -2.5
12.924440383911133 4.3148193359375 -2.5
11.766645431518555 6.175615310668945 -2.438192367553711
8.617321968078613 10.5543212890625 -2.499952793121338
7.74026346206665 11.21371078491211 -2.5
6.8128342628479 11.800180435180664 -2.5
5.841208457946777 12.310132026672363 -2.5
4.831723690032959 12.74022388458252 -2.5
0.5486425757408142 13.6146240234375 -2.5
-0.548657238483429 13.6146240234375 -2.5
-1.642397403717041 13.52633285522461 -2.5
-2.7254979610443115 13.35030746459961 -2.5
-3.7909228801727295 13.087709426879883 -2.5
-7.740278244018555 11.213706016540527 -2.5
-10.195663452148438 9.032563209533691 -2.499190330505371
-10.870512008666992 8.168657302856445 -2.4948503971099854
-11.48941421508789 7.265468597412109 -2.494166135787964
-12.05057144165039 6.32461404800415 -2.4970223903656006
-12.535341262817383 5.340800762176514 -2.5
-12.924448013305664 4.314814567565918 -2.5
-13.229736328125 3.2608397006988525 -2.5
-13.449228286743164 2.185717821121216 -2.5
-13.581488609313965 1.0964062213897705 -2.5
12.657380104064941 2.0570361614227295 -2.5
12.16350269317627 4.060771465301514 -2.5
11.352822303771973 5.958422660827637 -2.4996092319488525
9.585305213928223 8.491850852966309 -2.4965672492980957
8.883110046386719 9.248305320739746 -2.5
8.110124588012695 9.933115005493164 -2.5
6.411715984344482 11.105443954467773 -2.5
4.547250747680664 11.990131378173828 -2.5
-6.411728382110596 11.105429649353027 -2.5
-8.11013126373291 9.933110237121582 -2.5
-8.8831148147583 9.248305320739746 -2.5
-10.251615524291992 7.703588485717773 -2.5
-12.450819969177246 3.068852424621582 -2.5
-12.657387733459473 2.0570361614227295 -2.5
-12.781865119934082 1.0318554639816284 -2.5
12.107511520385742 4.882812390860636e-06 -2.5
11.138659477233887 4.745737075805664 -2.5
10.720664024353027 5.626635551452637 -2.5
9.062597274780273 8.02877426147461 -2.5
7.657329082489014 9.378549575805664 -2.5
6.877851486206055 9.964282035827637 -2.5
6.053754806518555 10.485419273376465 -2.5
5.190390586853027 10.938544273376465 -2.5
3.368525266647339 11.62948226928711 -2.5
0.48750975728034973 12.097695350646973 -2.5
-1.4594091176986694 12.019232749938965 -2.5
-2.421826124191284 11.862821578979492 -2.5
-5.190390586853027 10.938544273376465 -2.5
-6.877856254577637 9.964282035827637 -2.5
-7.657338619232178 9.378544807434082 -2.5
-8.387167930603027 8.731972694396973 -2.5
-9.679266929626465 7.273490905761719 -2.5
-10.233149528503418 6.471049785614014 -2.5
-10.720673561096191 5.626640319824219 -2.5
-11.138656616210938 4.745741844177246 -2.5
-11.48440933227539 3.834062337875366 -2.5
-11.755693435668945 2.89751935005188 -2.5
11.464516639709473 4.882812390860636e-06 -2.5
11.42734146118164 0.9225097298622131 -2.5
11.316049575805664 1.8390429019927979 -2.5
11.13137149810791 2.743642568588257 -2.5
10.874506950378418 3.630449056625366 -2.5
10.151323318481445 5.327826976776123 -2.5
9.689687728881836 6.127397537231445 -2.5
9.16522216796875 6.887221336364746 -2.5
8.581303596496582 7.602387428283691 -2.5
4.065366268157959 10.719501495361328 -2.5
3.189624071121216 11.01187515258789 -2.5
2.2931981086730957 11.232827186584473 -2.5
1.3818895816802979 11.380922317504883 -2.5
-1.3819091320037842 11.380937576293945 -2.5
-2.293207883834839 11.232827186584473 -2.5
-4.065371036529541 10.71950626373291 -2.5
-4.914760589599609 10.357622146606445 -2.5
-5.732260704040527 9.928559303283691 -2.5
-6.512592792510986 9.435102462768555 -2.5
-7.250678539276123 8.880468368530273 -2.5
-8.581313133239746 7.602382659912109 -2.5
-9.165224075317383 6.887226581573486 -2.5
-9.689692497253418 6.127392292022705 -2.5
-10.151328086853027 5.327822208404541 -2.5
-11.131366729736328 2.7436375617980957 -2.5
10.88370132446289 4.882812390860636e-06 -2.5
10.848405838012695 0.8757763504981995 -2.5
10.567436218261719 2.6046435832977295 -2.5
10.323586463928223 3.446523427963257 -2.5
10.012778282165527 4.266044616699219 -2.5
9.637033462524414 5.057909965515137 -2.5
9.1987886428833 5.816967487335205 -2.5
8.700896263122559 6.538295745849609 -2.5
8.146562576293945 7.217236042022705 -2.5
6.182651042938232 8.957114219665527 -2.5
3.028032064437866 10.453984260559082 -2.5
2.1770262718200684 10.663749694824219 -2.5
0.4382373094558716 10.874873161315918 -2.5
-0.4382421672344208 10.8748779296875 -2.5
-1.3118945360183716 10.804349899291992 -2.5
-2.1770312786102295 10.663749694824219 -2.5
-3.0280468463897705 10.453993797302246 -2.5
-4.665756702423096 9.8328857421875 -2.5
-5.441850662231445 9.42556095123291 -2.5
-7.539409160614014 7.849355220794678 -2.5
-8.14657211303711 7.217231273651123 -2.5
-9.198798179626465 5.816962718963623 -2.5
-9.637041091918945 5.057905197143555 -2.5
10.356351852416992 0.0 -2.5
10.055410385131836 2.478442430496216 -2.5
8.279311180114746 6.221498966217041 -2.5
4.439682483673096 9.356459617614746 -2.5
3.6724119186401367 9.683363914489746 -2.5
1.2483105659484863 10.280844688415527 -2.5
-0.4170165956020355 10.3479585647583 -2.5
-5.88308572769165 8.523110389709473 -2.5
-6.549829006195068 8.022085189819336 -2.5
-7.17410135269165 7.469038009643555 -2.5
-8.753090858459473 5.535117149353027 -2.5
-9.1701021194458 4.812836647033691 -2.5
-10.222246170043945 1.66128408908844 -2.5
9.875300407409668 4.882812390860636e-06 -2.5
9.843276023864746 0.7946337461471558 -2.5
9.747414588928223 1.5841113328933716 -2.5
9.58834171295166 2.3633203506469727 -2.5
6.840856552124023 7.122084617614746 -2.5
5.609804630279541 8.127216339111328 -2.5
2.7474756240844727 9.485404968261719 -2.5
-0.3976415991783142 9.867294311523438 -2.5
-1.9753222465515137 9.675732612609863 -2.5
-2.747490167617798 9.4854097366333 -2.5
-3.501826047897339 9.233569145202637 -2.5
-5.609824180603027 8.127197265625 -2.5
-6.245615005493164 7.649438381195068 -2.5
-7.391772270202637 6.548534870147705 -2.5
-7.894736289978027 5.932504653930664 -2.5
-8.346503257751465 5.278007507324219 -2.5
-9.085078239440918 3.870781183242798 -2.5
-9.58834457397461 2.3633105754852295 -2.5
9.434598922729492 4.882812390860636e-06 -2.5
9.404006004333496 0.75916987657547 -2.5
9.312423706054688 1.5134228467941284 -2.5
9.160444259643555 2.2578516006469727 -2.5
7.974023342132568 5.04248046875 -2.5
7.542421817779541 5.667763710021973 -2.5
7.061896800994873 6.256308555603027 -2.5
6.535575866699219 6.804262638092041 -2.5
4.71728515625 8.170599937438965 -2.5
4.044536113739014 8.523700714111328 -2.5
3.3455467224121094 8.821513175964355 -2.5
2.624868154525757 9.062108993530273 -2.5
1.8871630430221558 9.24393081665039 -2.5
1.13720703125 9.365815162658691 -2.5
-1.1372265815734863 9.36581039428711 -2.5
-1.8871679306030273 9.243935585021973 -2.5
-5.359472751617432 7.764516353607178 -2.5
-5.966869831085205 7.308085918426514 -2.5
-6.535575866699219 6.804257869720459 -2.5
-7.061894416809082 6.256293773651123 -2.5
-7.542421817779541 5.667758464813232 -2.5
-8.94906234741211 2.9876365661621094 -2.5
-9.160453796386719 2.2578418254852295 -2.5
-9.312426567077637 1.5134179592132568 -2.5
-9.404008865356445 0.75916987657547 -2.5
9.029276847839355 4.882812390860636e-06 -2.5
8.91235065460205 1.4484081268310547 -2.5
8.564597129821777 2.8592772483825684 -2.5
8.306745529174805 3.539174795150757 -2.5
7.631447792053223 4.825839519500732 -2.5
7.218386173248291 5.424267292022705 -2.5
6.758505821228027 5.987524509429932 -2.5
5.129209041595459 7.430947303771973 -2.5
4.514618873596191 7.81957483291626 -2.5
2.512099504470825 8.672782897949219 -2.5
1.8060888051986694 8.846796989440918 -2.5
0.36357420682907104 9.021952629089355 -2.5
-0.3635790944099426 9.021957397460938 -2.5
-1.0883642435073853 8.963452339172363 -2.5
-3.2018260955810547 8.442523956298828 -2.5
-3.870781183242798 8.157509803771973 -2.5
-5.129228591918945 7.430942058563232 -2.5
-5.710522174835205 6.994121074676514 -2.5
-6.254799842834473 6.511933326721191 -2.5
-7.631454944610596 4.825839519500732 -2.5
-7.995028972625732 4.196113109588623 -2.5
-8.56459903717041 2.8592772483825684 -2.5
-8.999995231628418 0.7265527248382568 -2.5
8.627087593078613 0.6964501738548279 -2.5
6.919296741485596 5.199511528015137 -2.5
6.478474140167236 5.739423751831055 -2.5
4.916684627532959 7.123046875 -2.5
3.069155216217041 8.092704772949219 -2.5
2.408012628555298 8.313427925109863 -2.5
1.7312548160552979 8.480238914489746 -2.5
1.0432616472244263 8.592050552368164 -2.5
0.3485058546066284 8.648134231567383 -2.5
-1.0432714223861694 8.592050552368164 -2.5
-2.408012628555298 8.31344223022461 -2.5
-4.327582836151123 7.495585918426514 -2.5
-4.916698932647705 7.123046875 -2.5
-5.47390604019165 6.704320907592773 -2.5
-6.478471755981445 5.739428520202637 -2.5
-7.663764476776123 4.022241115570068 -2.5
-7.962568283081055 3.392524242401123 -2.5
-8.209726333618164 2.7408056259155273 -2.5
-8.627089500427246 0.6964452862739563 -2.5
8.281730651855469 0.6685742139816284 -2.5
8.201081275939941 1.3328075408935547 -2.5
7.643810749053955 3.256723642349243 -2.5
7.356965065002441 3.8612401485443115 -2.5
6.642312049865723 4.991372108459473 -2.5
6.219128131866455 5.50967264175415 -2.5
5.755615234375 5.992246150970459 -2.5
5.254780292510986 6.43594217300415 -2.5
4.719862937927246 6.837904930114746 -2.5
2.946298837661743 7.768744945526123 -2.5
2.3116161823272705 7.980639457702637 -2.5
1.6619482040405273 8.140766143798828 -2.5
0.33455076813697815 8.3019380569458 -2.5
-1.6619579792022705 8.140766143798828 -2.5
-2.3116161823272705 7.980649471282959 -2.5
-2.946298837661743 7.768759727478027 -2.5
-5.254785060882568 6.43594217300415 -2.5
-7.022411823272705 4.440707683563232 -2.5
-7.356972694396973 3.8612256050109863 -2.5
-7.643818378448486 3.256723642349243 -2.5
-7.881088733673096 2.631093740463257 -2.5
-8.067245483398438 1.9884033203125 -2.5
-8.201079368591309 1.3328124284744263 -2.5
7.98681116104126 0.0 -2.5
7.347707271575928 3.130561351776123 -2.5
7.071965217590332 3.711660146713257 -2.5
6.750368595123291 4.268686294555664 -2.5
5.97821044921875 5.296240329742432 -2.5
4.537026405334473 6.573012351989746 -2.5
2.2220702171325684 7.671479225158691 -2.5
1.59756338596344 7.825405120849609 -2.5
0.9627001881599426 7.92858362197876 -2.5
0.3215917944908142 7.980336666107178 -2.5
-3.423891544342041 7.215688228607178 -2.5
-5.532656192779541 5.760117053985596 -2.5
-5.978217601776123 5.296240329742432 -2.5
-6.384999752044678 4.798012733459473 -2.5
-7.071977615356445 3.7116503715515137 -2.5
-7.347700119018555 3.130561351776123 -2.5
-7.754735946655273 1.911376953125 -2.5
-7.883388519287109 1.2811815738677979 -2.5
-7.960912704467773 0.6426708698272705 -2.5
7.587421894073486 1.2330809831619263 -2.5
7.4635910987854 1.8396142721176147 -2.5
6.496940612792969 4.10842752456665 -2.5
5.753769397735596 5.097412109375 -2.5
4.861581802368164 5.954370021820068 -2.5
4.366694450378418 6.326254844665527 -2.5
2.1386425495147705 7.383471488952637 -2.5
1.5375829935073853 7.5316162109375 -2.5
0.9265576004981995 7.630922794342041 -2.5
-0.30952635407447815 7.680732250213623 -2.5
-0.926562488079071 7.630912780761719 -2.5
-2.725834846496582 7.187436580657959 -2.5
-3.8434863090515137 6.6571044921875 -2.5
-4.36669921875 6.326244831085205 -2.5
-5.324951171875 5.543857097625732 -2.5
-6.4969482421875 4.108422756195068 -2.5
-6.806469440460205 3.5723094940185547 -2.5
-7.071850299835205 3.0130321979522705 -2.5
-7.463593482971191 1.8396093845367432 -2.5
-7.662035942077637 0.6185400485992432 -2.5
7.310954570770264 1.188149333000183 -2.5
7.191640377044678 1.7725781202316284 -2.5
6.558456897735596 3.442148447036743 -2.5
6.260212421417236 3.9587206840515137 -2.5
5.130918025970459 5.341860294342041 -2.5
4.684438228607178 5.737411975860596 -2.5
4.207587718963623 6.095746994018555 -2.5
3.703437328338623 6.414535999298096 -2.5
2.6265087127685547 6.925546646118164 -2.5
2.060722589492798 7.114438533782959 -2.5
1.4815673828125 7.257187366485596 -2.5
0.8928027153015137 7.352875709533691 -2.5
-0.2982421815395355 7.40087890625 -2.5
-1.4815722703933716 7.257192134857178 -2.5
-3.1752684116363525 6.691747665405273 -2.5
-3.703437328338623 6.41454553604126 -2.5
-4.207587718963623 6.095742225646973 -2.5
-4.684443473815918 5.737407207489014 -2.5
-5.130918025970459 5.341855525970459 -2.5
-5.921376705169678 4.449618816375732 -2.5
-6.260214805603027 3.9587206840515137 -2.5
-6.814169883728027 2.9032421112060547 -2.5
-7.025688171386719 2.345517635345459 -2.5
-7.191640377044678 1.7725781202316284 -2.5
-7.382856369018555 0.595996081829071 -2.5
7.121418476104736 0.574902355670929 -2.5
6.936972618103027 1.709814429283142 -2.5
6.776899337768555 2.262465715408325 -2.5
5.347792625427246 4.737749099731445 -2.5
4.949233055114746 5.152695178985596 -2.5
4.518559455871582 5.534238338470459 -2.5
4.058588981628418 5.8798828125 -2.5
3.5722949504852295 6.187402248382568 -2.5
3.0628271102905273 6.454784870147705 -2.5
1.9877440929412842 6.862509727478027 -2.5
-0.8611962795257568 7.092494964599609 -2.5
-3.5722899436950684 6.187397480010986 -2.5
-4.058588981628418 5.87987756729126 -2.5
-4.518564224243164 5.534243106842041 -2.5
-4.949228286743164 5.152699947357178 -2.5
-5.347797870635986 4.737739086151123 -2.5
-6.038535118103027 3.818535089492798 -2.5
-6.776904106140137 2.262460947036743 -2.5
-6.936977386474609 1.7098095417022705 -2.5
-7.052065372467041 1.1460790634155273 -2.5
-7.121420860290527 0.5748925805091858 -2.5
6.898407936096191 -4.882812390860636e-06 -2.5
6.876042366027832 0.5550878643989563 -2.5
6.54339075088501 2.184506893157959 -2.5
6.346394062042236 2.7039451599121094 -2.5
6.108234882354736 3.2058544158935547 -2.5
5.830463886260986 3.686967611312866 -2.5
5.163535118103027 4.574496746063232 -2.5
3.4492039680480957 5.974204063415527 -2.5
0.2777685523033142 6.89281702041626 -2.5
-0.27778318524360657 6.89281702041626 -2.5
-0.8315136432647705 6.848119735717773 -2.5
-1.9192626476287842 6.626049518585205 -2.5
-2.4462010860443115 6.450131893157959 -2.5
-2.9572997093200684 6.232367992401123 -2.5
-3.9187450408935547 5.677285194396973 -2.5
-5.163535118103027 4.57449197769165 -2.5
-5.514882564544678 4.144169807434082 -2.5
-5.830468654632568 3.686967611312866 -2.5
-6.346396446228027 2.7039403915405273 -2.5
-6.543393611907959 2.184501886367798 -2.5
-6.876044750213623 0.5550878643989563 -2.5
6.4731125831604 1.595483422279358 -2.5
6.323737621307373 2.1111814975738525 -2.5
5.329755783081055 4.005058288574219 -2.5
4.990200042724609 4.420932292938232 -2.5
4.6182861328125 4.808144569396973 -2.5
4.216406345367432 5.164169788360596 -2.5
3.7872021198272705 5.486703872680664 -2.5
3.3334226608276367 5.773652076721191 -2.5
2.3640966415405273 6.233603477478027 -2.5
1.8548290729522705 6.403627872467041 -2.5
1.3335448503494263 6.5321044921875 -2.5
0.8035986423492432 6.618232250213623 -2.5
0.2684423625469208 6.661440372467041 -2.5
-0.26844725012779236 6.661440372467041 -2.5
-1.3335399627685547 6.532114028930664 -2.5
-1.8548290729522705 6.403627872467041 -2.5
-3.333427667617798 5.773652076721191 -2.5
-4.216406345367432 5.164174556732178 -2.5
-4.990200042724609 4.420937538146973 -2.5
-5.329755783081055 4.005058288574219 -2.5
-5.90319299697876 3.0982322692871094 -2.5
-6.133364200592041 2.6131787300109863 -2.5
-6.323744773864746 2.1111717224121094 -2.5
-6.473114967346191 1.595483422279358 -2.5
-6.580507755279541 1.0694384574890137 -2.5
-6.645224571228027 0.5364599227905273 -2.5
6.261178970336914 1.54324209690094 -2.5
5.932543754577637 2.5276219844818115 -2.5
5.155258655548096 3.8739209175109863 -2.5
4.467080116271973 4.650722503662109 -2.5
4.078364372253418 4.995092868804932 -2.5
2.286694288253784 6.029516696929932 -2.5
-1.2898778915405273 6.318242073059082 -2.5
-1.794106364250183 6.193959712982178 -2.5
-2.7644481658935547 5.825966835021973 -2.5
-4.078364372253418 4.995097637176514 -2.5
-4.826821327209473 4.276191234588623 -2.5
-5.155258655548096 3.8739256858825684 -2.5
-5.932543754577637 2.5276219844818115 -2.5
6.222177505493164 0.5023095607757568 -2.5
6.161581993103027 1.0013574361801147 -2.5
5.742895603179932 2.4468212127685547 -2.5
5.276025295257568 3.33636212348938 -2.5
4.324272155761719 4.502050876617432 -2.5
3.5461034774780273 5.137412071228027 -2.5
2.2135887145996094 5.836767673492432 -2.5
1.7367479801177979 5.995952129364014 -2.5
1.2486425638198853 6.116264343261719 -2.5
0.25135740637779236 6.237363338470459 -2.5
-0.25135740637779236 6.237358093261719 -2.5
-1.2486523389816284 6.116269588470459 -2.5
-1.7367479801177979 5.995961666107178 -2.5
-3.546098470687866 5.137412071228027 -2.5
-3.947993040084839 4.835410118103027 -2.5
-4.324277400970459 4.502050876617432 -2.5
-5.527387619018555 2.900995969772339 -2.5
-5.921162128448486 1.976772427558899 -2.5
6.047375202178955 0.0 -2.5
6.027760982513428 0.4866113066673279 -2.5
5.736156940460205 1.915014624595642 -2.5
5.354682445526123 2.810356378555298 -2.5
4.526528358459473 4.010156154632568 -2.5
4.189169883728027 4.361386775970459 -2.5
3.8246335983276367 4.684326171875 -2.5
3.023686408996582 5.2371826171875 -2.5
2.592460870742798 5.463510513305664 -2.5
1.6824902296066284 5.808618068695068 -2.5
0.728930652141571 6.003285884857178 -2.5
0.2435009777545929 6.042470455169678 -2.5
-0.24350585043430328 6.04247522354126 -2.5
-1.2096288204193115 5.92516565322876 -2.5
-1.6824853420257568 5.808618068695068 -2.5
-2.592470645904541 5.463510513305664 -2.5
-3.435302734375 4.976894378662109 -2.5
-4.834531307220459 3.6329150199890137 -2.5
-5.111186504364014 3.232119083404541 -2.5
-5.563461780548096 2.370366096496582 -2.5
-5.871654987335205 1.4472362995147705 -2.5
5.843503475189209 0.4717431664466858 -2.5
5.786596775054932 0.9404150247573853 -2.5
5.692162990570068 1.402993083000183 -2.5
5.393398284912109 2.297914981842041 -2.5
4.954941272735596 3.1333203315734863 -2.5
4.061108112335205 4.228071212768555 -2.5
3.3302879333496094 4.824755668640137 -2.5
2.9312596321105957 5.077085018157959 -2.5
2.5132129192352295 5.296498775482178 -2.5
1.1726512908935547 5.744042873382568 -2.5
0.23605956137180328 5.857768535614014 -2.5
-0.23605956137180328 5.857763767242432 -2.5
-1.6310644149780273 5.631054401397705 -2.5
-2.5132176876068115 5.296494007110596 -2.5
-2.9312596321105957 5.077089786529541 -2.5
-3.707719564437866 4.5411376953125 -2.5
-4.061108112335205 4.228061199188232 -2.5
-5.393398284912109 2.297910213470459 -2.5
-5.560810565948486 1.8564696311950684 -2.5
-5.786601543426514 0.9404150247573853 -2.5
-5.843505859375 0.47172850370407104 -2.5
5.613373756408691 0.9122655987739563 -2.5
5.521762371063232 1.3609960079193115 -2.5
5.394345760345459 1.8008984327316284 -2.5
5.231943130493164 2.2291259765625 -2.5
3.9395408630371094 4.101499080657959 -2.5
2.437983274459839 5.137953758239746 -2.5
1.1375536918640137 5.572094440460205 -2.5
0.6854931712150574 5.645556449890137 -2.5
0.22899413108825684 5.682412147521973 -2.5
-0.22898925840854645 5.682412147521973 -2.5
-0.6854931712150574 5.645556449890137 -2.5
-2.43798828125 5.137944221496582 -2.5
-3.9395360946655273 4.101499080657959 -2.5
-4.256796836853027 3.771196126937866 -2.5
-4.806621074676514 3.0395214557647705 -2.5
-5.035610198974609 2.642880916595459 -2.5
-5.231947898864746 2.229120969772339 -2.5
-5.613379001617432 0.9122607111930847 -2.5
5.502255916595459 0.4441894292831421 -2.5
5.448671817779541 0.885498046875 -2.5
5.236064434051514 1.7480615377426147 -2.5
4.887856483459473 2.5653467178344727 -2.5
4.665580749511719 2.9503417015075684 -2.5
4.413051605224609 3.3161914348602295 -2.5
3.8239452838897705 3.981147289276123 -2.5
1.9574755430221558 5.161435604095459 -2.5
1.5358006954193115 5.302211761474609 -2.5
1.1041747331619263 5.408603191375732 -2.5
0.6653857231140137 5.479911804199219 -2.5
-0.22227050364017487 5.515688419342041 -2.5
-0.6653808355331421 5.479907035827637 -2.5
-1.9574706554412842 5.161440372467041 -2.5
-3.135810375213623 4.543002605438232 -2.5
-3.8239452838897705 3.981152296066284 -2.5
-4.131894588470459 3.6605467796325684 -2.5
-5.078437328338623 2.1637158393859863 -2.5
-5.359755516052246 1.3210546970367432 -2.5
5.343881607055664 0.4314062297344208 -2.5
4.932255744934082 2.101435422897339 -2.5
4.286025524139404 3.2207469940185547 -2.5
4.012963771820068 3.555180549621582 -2.5
3.713876962661743 3.8665623664855957 -2.5
3.045546770095825 4.412240982055664 -2.5
2.6806347370147705 4.642992973327637 -2.5
1.491601586341858 5.149599552154541 -2.5
0.21587401628494263 5.356918811798096 -2.5
-0.6462353467941284 5.322177410125732 -2.5
-1.0723974704742432 5.252924919128418 -2.5
-1.9011279344558716 5.012876033782959 -2.5
-2.298334836959839 4.843637466430664 -2.5
-2.6806395053863525 4.642997741699219 -2.5
-3.3907079696655273 4.152871131896973 -2.5
-4.286030292510986 3.2207422256469727 -2.5
-5.08535623550415 1.6977392435073853 -2.5
-5.205478191375732 1.2830321788787842 -2.5
-5.291845798492432 0.8600097298622131 -2.5
-5.343876838684082 0.4314062297344208 -2.5
