ply
format ascii 1.0
element vertex 893
property float x
property float y
property float z
end_header
24.332544326782227 15.386996269226074 2.7600317001342773
19.80483627319336 14.882372856140137 2.3750109672546387
12.372529983520508 15.153613090515137 1.8754973411560059
8.127874374389648 21.431442260742188 2.1974148750305176
3.0368640422821045 14.875521659851074 1.4555245637893677
-4.38916015625 15.15310001373291 1.512434959411621
-8.195287704467773 21.609209060668945 2.2156457901000977
-10.453436851501465 15.144384384155273 1.7641732692718506
-12.960419654846191 15.873652458190918 1.9646133184432983
-19.78329849243164 14.866186141967773 2.372412919998169
-24.624305725097656 15.571483612060547 2.793125629425049
12.37198543548584 15.15294361114502 1.656868815422058
14.911978721618652 21.603729248046875 2.223355293273926
6.353309154510498 21.934127807617188 1.9341332912445068
1.8061572313308716 14.875014305114746 1.269134521484375
-0.25751951336860657 6.389995098114014 0.5416573882102966
-7.319748401641846 15.42604923248291 1.4461736679077148
-8.585646629333496 14.870771408081055 1.4543603658676147
-4.826675891876221 5.025107383728027 0.5901461839675903
-24.63613510131836 15.578964233398438 2.468822479248047
17.880456924438477 15.840726852416992 1.756885051727295
12.371438980102539 15.1522798538208 1.4386690855026245
14.949163436889648 21.65760040283203 1.9354522228240967
7.193570613861084 15.160151481628418 1.2341344356536865
8.127874374389648 21.431442260742188 1.6857579946517944
3.0368640422821045 14.875521659851074 1.1166125535964966
1.806154727935791 14.875014305114746 1.1020452976226807
0.8744933605194092 21.700502395629883 1.5972967147827148
-0.2573522925376892 6.385786056518555 0.47003600001335144
-3.0363574028015137 14.87303638458252 1.1164212226867676
-4.38885498046875 15.152050018310547 1.1601901054382324
-7.320099830627441 15.426791191101074 1.255842924118042
-8.585643768310547 14.870771408081055 1.2628905773162842
-13.038422584533691 15.969188690185547 1.5162326097488403
-4.826233863830566 5.024648189544678 0.5124029517173767
-19.78329849243164 14.866186141967773 1.8199996948242188
-24.370269775390625 15.410834312438965 2.120652437210083
15.147361755371094 5.056938171386719 0.9967010021209717
19.804832458496094 14.882372856140137 1.5461968183517456
17.88088035583496 15.841093063354492 1.4909887313842773
14.292520523071289 14.880106925964355 1.2877416610717773
12.370894432067871 15.151611328125 1.220844030380249
7.193304061889648 15.159584999084473 1.0472848415374756
3.0368640422821045 14.875521659851074 0.9475905895233154
1.806154727935791 14.875014305114746 0.9352297782897949
0.8744616508483887 21.69977569580078 1.35546875
-4.388703346252441 15.151522636413574 0.9845379590988159
-8.234101295471191 21.711551666259766 1.4492831230163574
-10.452169418334961 15.142562866210938 1.1483917236328125
-4.825794696807861 5.024189472198486 0.43480101227760315
-19.78329849243164 14.866186141967773 1.5445404052734375
-24.457191467285156 15.465795516967773 1.8060635328292847
15.146529197692871 5.056660175323486 0.8191201686859131
14.29251766204834 14.880106925964355 1.0583789348602295
12.370345115661621 15.150941848754883 1.003337025642395
8.589688301086426 14.877778053283691 0.8812426328659058
7.193030834197998 15.159018516540527 0.8607064485549927
8.127869606018066 21.431442260742188 1.1757665872573853
1.806154727935791 14.875014305114746 0.768644392490387
0.8744323253631592 21.699039459228516 1.1139898300170898
-0.2570153772830963 6.377407073974609 0.3274053931236267
-3.0363597869873047 14.87303638458252 0.7786691188812256
-8.233802795410156 21.710773468017578 1.191091537475586
-7.320804119110107 15.428276062011719 0.8759933114051819
-8.585651397705078 14.870771408081055 0.8808306455612183
-24.45774269104004 15.46615219116211 1.4843963384628296
23.9631290435791 15.153383255004883 1.1395297050476074
12.369800567626953 15.150273323059082 0.7860919237136841
14.987022399902344 21.71245002746582 1.0603604316711426
7.192767143249512 15.158456802368164 0.6743539571762085
8.127867698669434 21.431442260742188 0.9212374687194824
3.0368590354919434 14.875521659851074 0.6102056503295898
1.806154727935791 14.875014305114746 0.6022457480430603
0.8744030594825745 21.698305130004883 0.8728017807006836
-0.2568432688713074 6.373227596282959 0.25635984539985657
-1.8388561010360718 15.144282341003418 0.6131475567817688
-4.388399600982666 15.15047836303711 0.6339547634124756
-7.321156024932861 15.429018020629883 0.686387300491333
-8.585643768310547 14.870771408081055 0.6901488900184631
-10.451334953308105 15.141337394714355 0.7394518852233887
-13.039496421813965 15.970498085021973 0.828658401966095
-4.824916839599609 5.023271560668945 0.27994170784950256
23.96156120300293 15.152397155761719 0.8249139189720154
19.804832458496094 14.882372856140137 0.7208361625671387
17.88214111328125 15.842216491699219 0.6951409578323364
14.29251766204834 14.880106925964355 0.6003414988517761
12.369251251220703 15.149603843688965 0.5690752863883972
8.589686393737793 14.877778053283691 0.49986815452575684
7.192496299743652 15.157890319824219 0.48818206787109375
8.127869606018066 21.431442260742188 0.6669290065765381
1.80615234375 14.875014305114746 0.4359976053237915
-8.585648536682129 14.870771408081055 0.4996340870857239
-10.450905799865723 15.140727043151855 0.5353036522865295
-13.0398530960083 15.97093677520752 0.5999252200126648
-4.82447624206543 5.022817134857178 0.20264586806297302
-19.78330421447754 14.866186141967773 0.7200533747673035
15.144034385681152 5.055825233459473 0.2875305116176605
23.960004806518555 15.151411056518555 0.5105441212654114
19.80483627319336 14.882372856140137 0.4461578130722046
17.8825626373291 15.842592239379883 0.43025511503219604
12.368706703186035 15.148930549621582 0.35220304131507874
14.985828399658203 21.71071434020996 0.4750903248786926
7.192224979400635 15.157328605651855 0.30214354395866394
8.127869606018066 21.431442260742188 0.41278472542762756
1.80615234375 14.875014305114746 0.2698553502559662
-0.2565099895000458 6.364907264709473 0.11472045630216599
-1.8387328386306763 15.143251419067383 0.27472198009490967
-3.0363574028015137 14.87303638458252 0.273375540971756
-7.321854114532471 15.430492401123047 0.30758970975875854
-8.585643768310547 14.870771408081055 0.3092309534549713
-10.450475692749023 15.140111923217773 0.3313024938106537
-13.040210723876953 15.971376419067383 0.37132689356803894
-4.824038028717041 5.022358417510986 0.12541411817073822
-19.750234603881836 6.593588829040527 0.3749847412109375
15.14320182800293 5.055551528930664 0.11057189851999283
23.95844268798828 15.150424003601074 0.19632109999656677
17.88298225402832 15.842963218688965 0.16546966135501862
14.292522430419922 14.880106925964355 0.14291565120220184
12.368162155151367 15.148261070251465 0.13543884456157684
8.589688301086426 14.877778053283691 0.1189868152141571
7.191958904266357 15.15676212310791 0.11619262397289276
8.127872467041016 21.431442260742188 0.1587487757205963
6.452020168304443 22.274948120117188 0.1606256067752838
1.806154727935791 14.875014305114746 0.10378295928239822
-1.8386694192886353 15.142739295959473 0.10564849525690079
-3.0363597869873047 14.87303638458252 0.1051342785358429
-4.387945652008057 15.148910522460938 0.10923278331756592
-8.232620239257812 21.707653045654297 0.16079497337341309
-10.450053215026855 15.139501571655273 0.12740935385227203
-13.040567398071289 15.971816062927246 0.14280791580677032
-4.823600769042969 5.021903991699219 0.04822738468647003
23.95687484741211 15.149442672729492 -0.11780044436454773
17.883403778076172 15.843334197998047 -0.09928176552057266
14.292520523071289 14.880106925964355 -0.08573821932077408
8.127867698669434 21.431442260742188 -0.09525207430124283
3.0368614196777344 14.875521659851074 -0.06309234350919724
0.8742870688438416 21.695375442504883 -0.09023147076368332
-0.25617551803588867 6.356611251831055 -0.02643691934645176
-1.8386058807373047 15.142221450805664 -0.06338714808225632
-3.0363574028015137 14.87303638458252 -0.06308746337890625
-7.322614669799805 15.43209457397461 -0.07099059969186783
-4.823163986206055 5.021445274353027 -0.02893417328596115
15.141541481018066 5.054995059967041 -0.2432473748922348
14.292522430419922 14.880106925964355 -0.31438690423965454
12.367063522338867 15.146918296813965 -0.2979751527309418
14.984026908874512 21.70810317993164 -0.40194427967071533
8.589688301086426 14.877778053283691 -0.26177582144737244
8.127874374389648 21.431442260742188 -0.34927839040756226
3.0368640422821045 14.875521659851074 -0.23135070502758026
1.806154727935791 14.875014305114746 -0.22833068668842316
-0.2560082972049713 6.352470397949219 -0.09687774628400803
-1.8385424613952637 15.141708374023438 -0.23242583870887756
-8.232033729553223 21.706096649169922 -0.3537437319755554
-8.585640907287598 14.870771408081055 -0.261658638715744
-10.449211120605469 15.138280868530273 -0.2802923619747162
-19.78330421447754 14.866186141967773 -0.37710708379745483
-19.717079162597656 6.582524299621582 -0.31675291061401367
17.884244918823242 15.844077110290527 -0.6289703249931335
14.292520523071289 14.880106925964355 -0.5431254506111145
12.366519927978516 15.146249771118164 -0.514729917049408
14.983413696289062 21.707225799560547 -0.6943449378013611
8.589691162109375 14.877778053283691 -0.4522378444671631
6.452022552490234 22.274948120117188 -0.6104695200920105
0.8742346167564392 21.693910598754883 -0.5715449452400208
-0.25584104657173157 6.348334789276123 -0.1672511249780655
-4.387487888336182 15.147334098815918 -0.41513580083847046
-8.231735229492188 21.7053165435791 -0.6110877990722656
-7.323379993438721 15.433700561523438 -0.44970762729644775
-8.585643768310547 14.870771408081055 -0.45202696323394775
-10.4487886428833 15.137665748596191 -0.4841998219490051
-13.041656494140625 15.973149299621582 -0.542835533618927
-4.822287559509277 5.02053689956665 -0.18325255811214447
-24.46170425415039 15.468661308288574 -0.7618858218193054
-19.706050872802734 6.578837871551514 -0.5468946695327759
23.952205657958984 15.146479606628418 -1.0603913068771362
19.804832458496094 14.882372856140137 -0.926949143409729
7.190889835357666 15.15450668334961 -0.6276391744613647
1.806154727935791 14.875014305114746 -0.560670793056488
-0.2556750476360321 6.344203948974609 -0.23757553100585938
-3.0363574028015137 14.87303638458252 -0.5679914951324463
-4.387338638305664 15.146806716918945 -0.5900484919548035
-8.231439590454102 21.704538345336914 -0.8685663938522339
-7.323760986328125 15.4345064163208 -0.6392321586608887
-10.44837760925293 15.137060165405273 -0.68821120262146
-4.821847915649414 5.020082950592041 -0.26045089960098267
-24.462305068969727 15.469033241271973 -1.0829622745513916
-19.695026397705078 6.575156211853027 -0.7769182920455933
23.95064353942871 15.145492553710938 -1.37491774559021
19.80483627319336 14.882372856140137 -1.2019829750061035
17.88508415222168 15.844823837280273 -1.1593310832977295
14.29251766204834 14.880106925964355 -1.001077651977539
8.589688301086426 14.877778053283691 -0.833541214466095
3.0368614196777344 14.875521659851074 -0.7366372346878052
0.8741662502288818 21.69244384765625 -1.0533578395843506
-3.0363574028015137 14.87303638458252 -0.7365200519561768
-8.231143951416016 21.70375633239746 -1.126241683959961
-8.585646629333496 14.870771408081055 -0.8331469297409058
-10.447952270507812 15.136449813842773 -0.8923751711845398
-13.042433738708496 15.974101066589355 -1.0005781650543213
-4.821409702301025 5.019629001617432 -0.3376978933811188
-19.78329849243164 14.866186141967773 -1.20068359375
-24.462902069091797 15.469408988952637 -1.4043303728103638
-19.684001922607422 6.571474552154541 -1.0068719387054443
-27.758878707885742 4.511274337768555 -1.364512324333191
15.138214111328125 5.053886413574219 -0.9517210125923157
23.858896255493164 15.087480545043945 -1.6833930015563965
14.29251766204834 14.880106925964355 -1.2303844690322876
12.36487865447998 15.144237518310547 -1.1658885478973389
14.981597900390625 21.70458984375 -1.5727134943008423
7.19035005569458 15.153364181518555 -1.000219702720642
8.127872467041016 21.431442260742188 -1.3668553829193115
6.452022552490234 22.274948120117188 -1.382928490638733
1.8061572313308716 14.875014305114746 -0.893561840057373
-1.8382922410964966 15.139643669128418 -0.9094579815864563
-4.387026309967041 15.145747184753418 -0.9403163194656372
-8.23084831237793 21.702972412109375 -1.384169101715088
-8.585648536682129 14.870771408081055 -1.0239824056625366
-13.042824745178223 15.974579811096191 -1.229810118675232
-4.820972919464111 5.019169807434082 -0.4150143265724182
-24.404272079467773 15.432343482971191 -1.7218706607818604
-19.67298126220703 6.567797660827637 -1.23681640625
20.04612159729004 4.940937519073486 -1.4609566926956177
15.137381553649902 5.053608417510986 -1.1292675733566284
23.85735321044922 15.086498260498047 -1.9974148273468018
19.80483627319336 14.882372856140137 -1.752993106842041
14.29251766204834 14.880106925964355 -1.459983468055725
14.941826820373535 21.646968841552734 -1.8612557649612427
8.589691162109375 14.877778053283691 -1.2156603336334229
7.19007682800293 15.152792930603027 -1.1868345737457275
8.127874374389648 21.431442260742188 -1.6219310760498047
3.0368640422821045 14.875521659851074 -1.0743333101272583
1.806154727935791 14.875014305114746 -1.060316562652588
-1.838228702545166 15.13912582397461 -1.0791407823562622
-8.208130836486816 21.64307403564453 -1.6379473209381104
-8.585648536682129 14.870771408081055 -1.2150815725326538
-10.447104454040527 15.13521957397461 -1.3013601303100586
-13.043212890625 15.975058555603027 -1.4593592882156372
-4.820532321929932 5.018710613250732 -0.4924188256263733
-19.78329849243164 14.866186141967773 -1.7510981559753418
-27.422903060913086 4.456669807434082 -1.9659587144851685
28.29021453857422 4.597621917724609 -2.347599983215332
19.995819091796875 4.928539752960205 -1.6868369579315186
15.13654899597168 5.053329944610596 -1.3070746660232544
25.37834358215332 13.319589614868164 -2.347599983215332
23.85580062866211 15.085516929626465 -2.311892509460449
19.804832458496094 14.882372856140137 -2.0291314125061035
17.829910278320312 15.795951843261719 -1.9510952234268188
14.29251766204834 14.880106925964355 -1.6899596452713013
8.589686393737793 14.877778053283691 -1.4071329832077026
8.127872467041016 21.431442260742188 -1.877409815788269
6.393221378326416 22.07196807861328 -1.8821886777877808
1.80615234375 14.875014305114746 -1.2273342609405518
0.8718273639678955 21.634363174438477 -1.7734713554382324
-0.2550109922885895 6.327680587768555 -0.5187100172042847
-3.0363597869873047 14.87303638458252 -1.2433501482009888
-12.988574028015137 15.908134460449219 -1.6821539402008057
-4.820092678070068 5.018256664276123 -0.5699318051338196
-19.78329849243164 14.866186141967773 -2.026963233947754
-26.367855072021484 11.234335899353027 -2.347599983215332
26.86015510559082 4.882812390860636e-06 -2.5
19.995819091796875 4.928539752960205 -1.9168026447296143
15.135711669921875 5.053046703338623 -1.485183835029602
21.318021774291992 13.480717658996582 -2.347599983215332
19.80483627319336 14.882372856140137 -2.3057713508605957
17.83033561706543 15.7963228225708 -2.2171380519866943
12.316812515258789 15.085375785827637 -1.8126211166381836
14.328160285949707 20.75792694091797 -2.347599983215332
6.39372444152832 22.07369613647461 -2.138951539993286
3.0368640422821045 14.875521659851074 -1.4130915403366089
0.8718005418777466 21.633630752563477 -2.015177011489868
-4.386568546295166 15.14415454864502 -1.4674763679504395
-8.207534790039062 21.641510009765625 -2.154268503189087
-8.585643768310547 14.870771408081055 -1.598199486732483
-22.33365249633789 11.721596717834473 -2.347599983215332
-23.204425811767578 9.886488914489746 -2.347599983215332
-24.489831924438477 6.036205768585205 -2.347599983215332
-26.77305793762207 2.1613476276397705 -2.5
23.977563858032227 9.765624781721272e-06 -2.5
23.89981460571289 1.9293993711471558 -2.5
19.995819091796875 4.928539752960205 -2.1472408771514893
16.853382110595703 14.930814743041992 -2.347599983215332
14.29251766204834 14.880106925964355 -2.1512134075164795
12.316267967224121 15.08470630645752 -2.0304417610168457
12.790489196777344 18.530221939086914 -2.347599983215332
7.161456108093262 15.092485427856445 -1.7417712211608887
3.0368614196777344 14.875521659851074 -1.582973599433899
1.80615234375 14.875014305114746 -1.5623217821121216
0.8717663288116455 21.63289451599121 -2.2573652267456055
-0.2546765208244324 6.319414138793945 -0.6594218015670776
-1.838043212890625 15.137568473815918 -1.5898969173431396
-3.0363574028015137 14.87303638458252 -1.582710862159729
-7.984241008758545 21.0527286529541 -2.347599983215332
-7.26275110244751 15.30593204498291 -1.766404390335083
-8.585648536682129 14.870771408081055 -1.7903465032577515
-12.989294052124023 15.90902328491211 -2.141399383544922
-4.819212436676025 5.017338752746582 -0.7253549098968506
-16.8533878326416 14.930805206298828 -2.347599983215332
-18.00016975402832 13.526254653930664 -2.347599983215332
-19.03020668029785 12.033979415893555 -2.347599983215332
-19.936840057373047 10.463651657104492 -2.347599983215332
-18.85942268371582 6.296195983886719 -2.073047399520874
-21.861650466918945 5.388417720794678 -2.347599983215332
-23.89981460571289 1.9293895959854126 -2.5
21.578685760498047 1.7420214414596558 -2.5
21.36854362487793 3.4727392196655273 -2.5
19.738445281982422 4.865102291107178 -2.347599983215332
18.70242691040039 7.968354225158691 -2.347599983215332
18.000591278076172 9.447441101074219 -2.347599983215332
17.1820125579834 10.86526870727539 -2.347599983215332
14.082508087158203 14.661469459533691 -2.347599983215332
12.31572151184082 15.084037780761719 -2.248751401901245
7.161190032958984 15.0919189453125 -1.9290533065795898
0.8185656666755676 20.31269073486328 -2.347599983215332
-1.83114492893219 15.080785751342773 -1.754310131072998
-4.369672775268555 15.085820198059082 -1.8137093782424927
-7.208821773529053 19.00811195373535 -2.347599983215332
-7.263103008270264 15.306669235229492 -1.9565033912658691
-10.407041549682617 15.077177047729492 -2.115598440170288
-12.857084274291992 15.74709415435791 -2.347599983215332
-4.818769454956055 5.01687479019165 -0.8033042550086975
-19.738441467285156 4.865092754364014 -2.347599983215332
-21.368547439575195 3.4727439880371094 -2.5
17.9870548248291 4.433422565460205 -2.347599983215332
15.657451629638672 9.901190757751465 -2.347599983215332
12.832962036132812 13.360546112060547 -2.347599983215332
10.52360725402832 15.246078491210938 -2.347599983215332
8.589691162109375 14.877778053283691 -2.1770360469818115
6.569183349609375 17.321516036987305 -2.347599983215332
5.154085636138916 17.7939453125 -2.347599983215332
1.806154727935791 14.875014305114746 -1.8988593816757202
0.7459338307380676 18.510343551635742 -2.347599983215332
-3.0363574028015137 14.87303638458252 -1.9236422777175903
-4.369517803192139 15.08529281616211 -1.9902400970458984
-6.5691819190979 17.321517944335938 -2.347599983215332
-8.585643768310547 14.870771408081055 -2.176023006439209
-10.40660285949707 15.076557159423828 -2.3214972019195557
-11.71627140045166 14.349848747253418 -2.347599983215332
-13.866435050964355 12.284589767456055 -2.347599983215332
-14.809969902038574 11.128969192504883 -2.347599983215332
-16.403398513793945 8.609174728393555 -2.347599983215332
-17.571985244750977 5.866391658782959 -2.347599983215332
-19.47250747680664 3.164604425430298 -2.5
-19.664012908935547 1.5874462127685547 -2.5
18.057302474975586 1.4577490091323853 -2.5
17.881450653076172 2.9060351848602295 -2.5
17.0864315032959 4.211435317993164 -2.4284799098968506
15.012948036193848 5.012065410614014 -2.1841800212860107
15.06311321258545 7.905736923217773 -2.347599983215332
13.599876403808594 10.219657897949219 -2.347599983215332
11.78441047668457 12.268866539001465 -2.347599983215332
9.663745880126953 14.000350952148438 -2.347599983215332
8.505838394165039 14.73256778717041 -2.347599983215332
6.032425403594971 15.90621566772461 -2.347599983215332
4.732954978942871 16.340044021606445 -2.347599983215332
3.0368614196777344 14.875521659851074 -2.095154285430908
1.8061572313308716 14.875014305114746 -2.0678136348724365
0.6849840879440308 16.997909545898438 -2.347599983215332
-0.2541772425174713 6.306977272033691 -0.8710638284683228
-3.0363621711730957 14.87303638458252 -2.09480357170105
-4.369359016418457 15.084765434265137 -2.1672511100769043
-7.26385498046875 15.308256149291992 -2.3382887840270996
-8.505853652954102 14.732558250427246 -2.347599983215332
-9.663761138916016 14.000341415405273 -2.347599983215332
-10.758962631225586 13.177352905273438 -2.347599983215332
-4.817883014678955 5.015952110290527 -0.9597814679145813
-12.733442306518555 11.28084945678711 -2.347599983215332
-14.378116607666016 9.092167854309082 -2.347599983215332
-15.06311321258545 7.905727386474609 -2.347599983215332
-16.851520538330078 4.153530120849609 -2.395092487335205
-17.881454467773438 2.9060254096984863 -2.5
-18.057310104370117 1.457739233970642 -2.5
16.743757247924805 9.765624781721272e-06 -2.5
16.526927947998047 2.685903310775757 -2.5
13.922076225280762 7.30687952041626 -2.347599983215332
10.891738891601562 11.33951187133789 -2.347599983215332
8.93171501159668 12.939824104309082 -2.347599983215332
5.575469970703125 14.70131778717041 -2.347599983215332
4.374429702758789 15.10228443145752 -2.347599983215332
3.0368640422821045 14.875521659851074 -2.266868829727173
-1.8309582471847534 15.0792236328125 -2.2680060863494873
-3.0363597869873047 14.87303638458252 -2.266491651535034
-5.575472354888916 14.701322555541992 -2.347599983215332
-6.7403564453125 14.205009460449219 -2.347599983215332
-8.931729316711426 12.93980884552002 -2.347599983215332
-9.94396686553955 12.179169654846191 -2.347599983215332
-4.817440032958984 5.015488147735596 -1.0383479595184326
-12.569684982299805 9.445502281188965 -2.347599983215332
-13.288969039916992 8.403437614440918 -2.347599983215332
-13.922077178955078 7.306859970092773 -2.347599983215332
-14.913893699645996 4.978989124298096 -2.347599983215332
-16.526927947998047 2.6858983039855957 -2.5
-16.689462661743164 1.3473193645477295 -2.5
15.510628700256348 1.252163052558899 -2.5
15.359573364257812 2.4961864948272705 -2.5
15.108909606933594 3.7240233421325684 -2.5
13.860471725463867 4.627314567565918 -2.347599983215332
11.681841850280762 8.778334617614746 -2.347599983215332
10.93759822845459 9.689872741699219 -2.347599983215332
7.306241512298584 12.65478515625 -2.347599983215332
4.065450191497803 14.03555679321289 -2.347599983215332
-0.2538391053676605 6.298647403717041 -1.012744426727295
-2.9228782653808594 14.317182540893555 -2.347599983215332
-5.181654930114746 13.662919998168945 -2.347599983215332
-7.306246280670166 12.65478515625 -2.347599983215332
-4.816989421844482 5.015024185180664 -1.1171602010726929
-11.681842803955078 8.778339385986328 -2.347599983215332
-12.350323677062988 7.809882640838623 -2.347599983215332
-15.107818603515625 3.723745107650757 -2.499819278717041
-15.359576225280762 2.4961864948272705 -2.5
14.531050682067871 9.765624781721272e-06 -2.5
14.342876434326172 2.3309619426727295 -2.5
14.10880184173584 3.4775195121765137 -2.5
12.94300651550293 4.321020603179932 -2.347599983215332
12.082263946533203 6.341259479522705 -2.347599983215332
11.532815933227539 7.292924404144287 -2.347599983215332
10.908587455749512 8.197270393371582 -2.347599983215332
9.452385902404785 9.840991020202637 -2.347599983215332
5.849605560302734 12.327802658081055 -2.347599983215332
3.7963414192199707 13.1065034866333 -2.347599983215332
0.5494298934936523 13.63424301147461 -2.347599983215332
-2.7294042110443115 13.369477272033691 -2.347599983215332
-4.838666915893555 12.758524894714355 -2.347599983215332
-6.822621822357178 11.81712818145752 -2.347599983215332
-7.751391410827637 11.229799270629883 -2.347599983215332
-10.908590316772461 8.197275161743164 -2.347599983215332
-12.55334186553955 5.348476409912109 -2.347599983215332
-14.108806610107422 3.4775097370147705 -2.5
-14.342878341674805 2.3309521675109863 -2.5
13.625675201416016 9.765624781721272e-06 -2.5
13.229732513427734 3.2608494758605957 -2.5
11.32945442199707 5.94616174697876 -2.347599983215332
10.814244270324707 6.838525295257568 -2.347599983215332
10.228907585144043 7.686532974243164 -2.347599983215332
9.577230453491211 8.484697341918945 -2.347599983215332
4.309664249420166 4.48684549331665 -1.141471266746521
8.092168807983398 9.911123275756836 -2.347599983215332
7.268416404724121 10.530121803283691 -2.347599983215332
4.53718376159668 11.963583946228027 -2.347599983215332
3.5598058700561523 12.289877891540527 -2.347599983215332
2.5593457221984863 12.536469459533691 -2.347599983215332
0.5152001976966858 12.784677505493164 -2.347599983215332
-0.2535046339035034 6.290283203125 -1.15506112575531
-2.5593457221984863 12.536474227905273 -2.347599983215332
-3.5598156452178955 12.28988265991211 -2.347599983215332
-5.485140323638916 11.559697151184082 -2.347599983215332
-6.397530555725098 11.08084487915039 -2.347599983215332
-8.092164993286133 9.911112785339355 -2.347599983215332
-4.816091060638428 5.014086723327637 -1.27560555934906
-9.57723331451416 8.484686851501465 -2.347599983215332
-10.228913307189941 7.6865234375 -2.347599983215332
-10.814248085021973 6.838520526885986 -2.347599983215332
-11.771187782287598 5.015224456787109 -2.347599983215332
-13.449220657348633 2.185717821121216 -2.5
-13.581487655639648 1.096411108970642 -2.5
12.823451042175293 4.882812390860636e-06 -2.5
12.65738582611084 2.0570311546325684 -2.5
12.138565063476562 4.052451133728027 -2.4948740005493164
11.078140258789062 4.719960689544678 -2.347599983215332
10.662420272827148 5.5960693359375 -2.347599983215332
10.177547454833984 6.435898303985596 -2.347599983215332
9.626675605773926 7.233974456787109 -2.347599983215332
9.013362884521484 7.985151290893555 -2.347599983215332
7.615733623504639 9.327588081359863 -2.347599983215332
6.020865440368652 10.428442001342773 -2.347599983215332
5.162196159362793 10.879111289978027 -2.347599983215332
-2.408660888671875 11.798378944396973 -2.347599983215332
-4.270052433013916 11.259218215942383 -2.347599983215332
-5.162197113037109 10.879111289978027 -2.347599983215332
-7.615731239318848 9.327592849731445 -2.347599983215332
-4.815638542175293 5.013617992401123 -1.3552792072296143
-9.626673698425293 7.233974456787109 -2.347599983215332
-10.66242504119873 5.59606409072876 -2.347599983215332
-11.078146934509277 4.719951152801514 -2.347599983215332
-12.138007164001465 4.052260875701904 -2.4947588443756104
-12.657384872436523 2.0570361614227295 -2.5
-12.781865119934082 1.0318603515625 -2.5
12.107515335083008 4.882812390860636e-06 -2.5
12.068255424499512 0.9742528796195984 -2.5
11.75568675994873 2.89751935005188 -2.5
10.459647178649902 4.456445217132568 -2.347599983215332
9.609334945678711 6.076586723327637 -2.347599983215332
9.089215278625488 6.830102443695068 -2.347599983215332
6.458577632904053 9.356864929199219 -2.347599983215332
5.684720516204834 9.846220016479492 -2.347599983215332
3.163179874420166 10.920551300048828 -2.347599983215332
-1.3704419136047363 11.286547660827637 -2.347599983215332
-2.2741856575012207 11.13967227935791 -2.347599983215332
-4.031657695770264 10.630615234375 -2.347599983215332
-5.684722900390625 9.846220016479492 -2.347599983215332
-6.458582401275635 9.3568696975708 -2.347599983215332
-7.190544128417969 8.806825637817383 -2.347599983215332
-4.815184116363525 5.013144493103027 -1.4352836608886719
-9.089215278625488 6.830102443695068 -2.347599983215332
-9.609333992004395 6.076577186584473 -2.347599983215332
-10.06714153289795 5.283637523651123 -2.347599983215332
-10.4596529006958 4.456430435180664 -2.347599983215332
11.427337646484375 0.9225195050239563 -2.5
11.131375312805176 2.743642568588257 -2.5
10.874509811401367 3.630444288253784 -2.5
9.923526763916016 4.22802734375 -2.352191925048828
8.058192253112793 7.138949871063232 -2.347599983215332
6.808675289154053 8.339120864868164 -2.347599983215332
6.115579605102539 8.85995101928711 -2.347599983215332
4.615140438079834 9.72622013092041 -2.347599983215332
3.81754994392395 10.066044807434082 -2.347599983215332
2.9951868057250977 10.340585708618164 -2.347599983215332
0.43348509073257446 10.756903648376465 -2.347599983215332
-0.2529931664466858 6.277651309967041 -1.3700426816940308
-2.153409481048584 10.548070907592773 -2.347599983215332
-2.9951915740966797 10.340590476989746 -2.347599983215332
-4.615147590637207 9.72622013092041 -2.347599983215332
-6.115585803985596 8.859941482543945 -2.347599983215332
-6.808672904968262 8.339125633239746 -2.347599983215332
-4.814728736877441 5.012670993804932 -1.515639305114746
-8.05819320678711 7.138940334320068 -2.347599983215332
-8.60650634765625 6.467372894287109 -2.347599983215332
-9.09900951385498 5.753867149353027 -2.347599983215332
-9.923492431640625 4.228012561798096 -2.3521888256073
-11.131376266479492 2.743642568588257 -2.5
-11.316052436828613 1.8390429019927979 -2.5
10.883702278137207 4.882812390860636e-06 -2.5
10.567440032958984 2.6046435832977295 -2.5
9.869105339050293 4.204829216003418 -2.4641265869140625
8.170486450195312 6.139726638793945 -2.347599983215332
7.649949550628662 6.777265548706055 -2.347599983215332
4.335018157958984 4.513242244720459 -1.4374544620513916
5.110116004943848 8.850981712341309 -2.347599983215332
4.381331920623779 9.233471870422363 -2.347599983215332
3.6241443157196045 9.556083679199219 -2.347599983215332
2.0443115234375 10.013686180114746 -2.347599983215332
-0.25282347202301025 6.273413181304932 -1.4421814680099487
-4.381336688995361 9.233481407165527 -2.347599983215332
-7.649950981140137 6.777270317077637 -2.347599983215332
-8.170488357543945 6.139721393585205 -2.347599983215332
-8.63803482055664 5.462368011474609 -2.347599983215332
-10.848410606384277 0.8757763504981995 -2.5
7.774605751037598 5.842241287231445 -2.347599983215332
4.25950288772583 4.434618949890137 -1.484334111213684
6.150547981262207 7.533061504364014 -2.347599983215332
4.169041633605957 8.786088943481445 -2.347599983215332
3.4485435485839844 9.093070983886719 -2.347599983215332
0.9405871629714966 7.746449947357178 -1.8837093114852905
0.39158323407173157 9.717143058776855 -2.347599983215332
-1.1722277402877808 9.654120445251465 -2.347599983215332
-2.7056798934936523 9.341069221496582 -2.347599983215332
-3.448542356491089 9.093070983886719 -2.347599983215332
-5.524454116821289 8.0035400390625 -2.347599983215332
-6.150545597076416 7.533066272735596 -2.347599983215332
-4.782027244567871 4.978622913360596 -1.66642165184021
-7.774606227874756 5.842236042022705 -2.347599983215332
-8.219497680664062 5.197700023651123 -2.347599983215332
-9.823380470275879 3.2795164585113525 -2.5
-10.322775840759277 0.8333398103713989 -2.5
9.875303268432617 0.0 -2.5
9.843279838562012 0.7946386337280273 -2.5
9.747418403625488 1.5841162204742432 -2.5
9.588340759277344 2.3633203506469727 -2.5
9.36707878112793 3.127197265625 -2.5
9.077828407287598 3.8677000999450684 -2.4980053901672363
8.211102485656738 4.309516429901123 -2.347599983215332
7.837701320648193 4.956269264221191 -2.347599983215332
6.941163063049316 6.149340629577637 -2.347599983215332
4.259637355804443 4.434760570526123 -1.556689977645874
5.267838001251221 7.631782054901123 -2.347599983215332
4.636651515960693 8.030913352966309 -2.347599983215332
3.9753918647766113 8.377973556518555 -2.347599983215332
2.579996347427368 8.907177925109863 -2.347599983215332
0.9405871629714966 7.746440410614014 -1.9754676818847656
0.37339475750923157 9.265786170959473 -2.347599983215332
-1.1177794933319092 9.205693244934082 -2.347599983215332
-1.8549022674560547 9.085898399353027 -2.347599983215332
-2.5799999237060547 8.907177925109863 -2.347599983215332
-3.9753942489624023 8.377973556518555 -2.347599983215332
-4.636651515960693 8.030922889709473 -2.347599983215332
-4.753379821777344 4.948793888092041 -1.737127661705017
-6.941166877746582 6.149345397949219 -2.347599983215332
-7.413475036621094 5.570873737335205 -2.347599983215332
-7.83770227432251 4.956269264221191 -2.347599983215332
-8.211104393005371 4.309516429901123 -2.347599983215332
8.032869338989258 4.215976238250732 -2.4039218425750732
7.48792839050293 4.735087871551514 -2.347599983215332
7.082637786865234 5.322255611419678 -2.347599983215332
5.603126049041748 6.862592697143555 -2.347599983215332
3.7979819774627686 8.004091262817383 -2.347599983215332
-0.25230833888053894 6.260595798492432 -1.6602922677993774
-1.067895531654358 8.794873237609863 -2.347599983215332
-1.77212393283844 8.680424690246582 -2.347599983215332
-2.4648633003234863 8.509682655334473 -2.347599983215332
-4.429733753204346 7.672524452209473 -2.347599983215332
-5.032758712768555 7.291196346282959 -2.347599983215332
-5.603125095367432 6.862592697143555 -2.347599983215332
-6.631406307220459 5.874921798706055 -2.347599983215332
-9.404006004333496 0.75916987657547 -2.5
8.766900062561035 2.1608495712280273 -2.5
6.778355598449707 5.093608379364014 -2.347599983215332
1.695992350578308 8.307499885559082 -2.347599983215332
-0.2521325647830963 6.256284236907959 -1.733628749847412
-2.358968496322632 8.144091606140137 -2.347599983215332
-3.634819269180298 7.660229206085205 -2.347599983215332
-4.816544055938721 6.977958679199219 -2.347599983215332
-5.362405776977539 6.567763328552246 -2.347599983215332
-6.778356552124023 5.093613147735596 -2.347599983215332
-8.564598083496094 2.8592822551727295 -2.5
-8.76690673828125 2.1608495712280273 -2.5
-8.912347793579102 1.448403239250183 -2.5
8.403648376464844 2.0713183879852295 -2.5
7.962562084197998 3.392529249191284 -2.5
7.649986267089844 4.015024185180664 -2.4955081939697266
6.86931037902832 4.343896389007568 -2.347599983215332
6.497498512268066 4.882558345794678 -2.347599983215332
4.260055065155029 4.435195446014404 -1.7763161659240723
3.4842076301574707 7.342826843261719 -2.347599983215332
2.882061719894409 7.599379539489746 -2.347599983215332
0.9184838533401489 7.564404010772705 -2.2009899616241455
-0.2519567906856537 6.251953125 -1.807314157485962
-0.9299181699752808 7.658559322357178 -2.2283852100372314
-2.2612266540527344 7.806640625 -2.347599983215332
-3.4842114448547363 7.342826843261719 -2.347599983215332
-4.063766956329346 7.038657188415527 -2.347599983215332
-6.497498512268066 4.882553577423096 -2.347599983215332
-7.649989604949951 4.015019416809082 -2.4955081939697266
-8.209729194641113 2.7408154010772705 -2.5
-8.403648376464844 2.0713133811950684 -2.5
8.067239761352539 1.9883984327316284 -2.5
7.881082534790039 2.631093740463257 -2.5
6.675088882446289 4.221084117889404 -2.376354932785034
6.237393856048584 4.687099456787109 -2.347599983215332
4.934449195861816 6.04360818862915 -2.347599983215332
1.560640811920166 7.644501686096191 -2.347599983215332
-0.25178220868110657 6.247602462768555 -1.8813692331314087
-1.5606396198272705 7.644511699676514 -2.347599983215332
-2.766688108444214 7.295166015625 -2.347599983215332
-4.934451580047607 6.04360818862915 -2.347599983215332
-5.84001350402832 5.173803806304932 -2.347599983215332
-6.2373948097229 4.687104225158691 -2.347599983215332
-6.675085067749023 4.221074104309082 -2.3763513565063477
-7.3515625 3.8583984375 -2.4981627464294434
-7.64381217956543 3.256718635559082 -2.5
-8.20108413696289 1.3328075408935547 -2.5
7.986814975738525 0.0 -2.5
7.960914134979248 0.6426708698272705 -2.5
7.575784683227539 2.529165029525757 -2.5
7.347701072692871 3.130561351776123 -2.5
7.071969032287598 3.711660146713257 -2.5
5.99576997756958 4.505532264709473 -2.347599983215332
5.613780498504639 4.973383903503418 -2.347599983215332
4.260447978973389 6.172328948974609 -2.347599983215332
3.749964475631714 6.495141506195068 -2.347599983215332
3.2151598930358887 6.775829792022705 -2.347599983215332
2.0866148471832275 7.203823089599609 -2.347599983215332
1.50018310546875 7.348363876342773 -2.347599983215332
0.8729455471038818 7.189364910125732 -2.2669148445129395
-0.8382995128631592 6.903969764709473 -2.1769254207611084
-2.0866174697875977 7.203827857971191 -2.347599983215332
-2.659512996673584 7.012563228607178 -2.347599983215332
-4.704556941986084 4.897963523864746 -2.125811815261841
-5.61378288269043 4.973383903503418 -2.347599983215332
-5.995769023895264 4.505532264709473 -2.347599983215332
-7.575782299041748 2.5291748046875 -2.5
-7.754733085632324 1.9113720655441284 -2.5
-7.8833842277526855 1.2811815738677979 -2.5
-7.960914611816406 0.6426659822463989 -2.5
7.662037372589111 0.6185449361801147 -2.5
5.770669937133789 4.336371898651123 -2.347599983215332
5.403023719787598 4.786664962768555 -2.347599983215332
4.565220832824707 5.591386795043945 -2.347599983215332
4.100499153137207 5.940600395202637 -2.347599983215332
2.0082762241363525 6.93337869644165 -2.347599983215332
-0.22248412668704987 5.522807598114014 -1.7976183891296387
-2.5596678256988525 6.749291896820068 -2.347599983215332
-3.094459056854248 6.521440505981445 -2.347599983215332
-3.6091856956481934 6.251293659210205 -2.347599983215332
-4.565219402313232 5.591391563415527 -2.347599983215332
-4.69541597366333 4.888452053070068 -2.2044436931610107
-5.403022289276123 4.786664962768555 -2.347599983215332
-5.770673751831055 4.336381912231445 -2.347599983215332
-6.806468486785889 3.5723142623901367 -2.5
-7.071849346160889 3.0130321979522705 -2.5
-7.291364669799805 2.4342236518859863 -2.5
-7.587420463562012 1.2330858707427979 -2.5
7.40687370300293 4.882812390860636e-06 -2.5
7.382857322692871 0.5960107445716858 -2.5
7.025689601898193 2.345522403717041 -2.5
6.814170837402344 2.9032421112060547 -2.5
6.251585483551025 3.9532666206359863 -2.4965548515319824
5.206153392791748 4.612250804901123 -2.347599983215332
4.260775089263916 4.43594217300415 -2.076040029525757
3.4776744842529297 6.023510456085205 -2.347599983215332
2.9817028045654297 6.2838134765625 -2.347599983215332
2.466402530670166 6.503368854522705 -2.347599983215332
1.9351000785827637 6.680747032165527 -2.347599983215332
1.3912523984909058 6.814789772033691 -2.347599983215332
0.22237670421600342 5.518354415893555 -1.8640903234481812
-0.2223547250032425 5.517626762390137 -1.8638445138931274
-0.6698766946792603 5.516894340515137 -1.8757625818252563
-1.1261340379714966 5.516147136688232 -1.9002366065979004
-1.9351037740707397 6.680737018585205 -2.347599983215332
-2.466397762298584 6.503368854522705 -2.347599983215332
-2.9817051887512207 6.283818244934082 -2.347599983215332
-4.398876667022705 5.387656211853027 -2.347599983215332
-4.6862473487854 4.87890625 -2.283336639404297
-5.206154823303223 4.612255573272705 -2.347599983215332
-5.618290901184082 4.221874713897705 -2.372039318084717
-6.251587867736816 3.9532713890075684 -2.4965548515319824
-7.191644191741943 1.7725878953933716 -2.5
6.77690315246582 2.262465715408325 -2.5
6.572874546051025 2.8004443645477295 -2.5
4.26099967956543 4.436176776885986 -2.1523540019989014
3.8111753463745117 5.521445274353027 -2.347599983215332
3.354527473449707 5.810219764709473 -2.347599983215332
2.379063606262207 6.273076057434082 -2.347599983215332
0.2223779261112213 5.518354415893555 -1.9325237274169922
-0.2223559468984604 5.517626762390137 -1.9322686195373535
-0.6677380204200745 5.499267578125 -1.9384106397628784
-2.876119375228882 6.061303615570068 -2.347599983215332
-3.354527473449707 5.81020975112915 -2.347599983215332
-3.811182737350464 5.521445274353027 -2.347599983215332
-5.59891939163208 4.207314491271973 -2.4506406784057617
-6.326220512390137 3.32024884223938 -2.5
-6.5728759765625 2.8004393577575684 -2.5
-6.776901721954346 2.262465715408325 -2.5
-7.052067756652832 1.1460790634155273 -2.5
-7.121420860290527 0.574902355670929 -2.5
6.898414134979248 0.0 -2.5
6.876040935516357 0.5550927519798279 -2.5
6.809075832366943 1.106591820716858 -2.5
6.697952747344971 1.6508984565734863 -2.5
6.543392181396484 2.184511661529541 -2.5
6.346397399902344 2.7039451599121094 -2.5
6.108235836029053 3.2058496475219727 -2.5
5.830467224121094 3.6869726181030273 -2.5
5.500547885894775 4.133393287658691 -2.493501901626587
4.09690523147583 5.017807483673096 -2.347599983215332
3.238939046859741 5.61001443862915 -2.347599983215332
2.297088623046875 6.056928634643555 -2.347599983215332
1.2957470417022705 6.346972465515137 -2.347599983215332
0.6701379418373108 5.519086837768555 -2.0148205757141113
0.22237670421600342 5.518354415893555 -2.001487970352173
-0.2223547250032425 5.517626762390137 -2.0012240409851074
-0.6698778867721558 5.516894340515137 -2.0140202045440674
-2.2970874309539795 6.056928634643555 -2.347599983215332
-3.238942861557007 5.61001443862915 -2.347599983215332
-3.6798620223999023 5.331191062927246 -2.347599983215332
-4.487385272979736 4.671870231628418 -2.347599983215332
-5.500551700592041 4.133398532867432 -2.493501901626587
-5.830466270446777 3.686967611312866 -2.5
-6.108242034912109 3.2058496475219727 -2.5
-6.346397399902344 2.7039501667022705 -2.5
-6.543393611907959 2.184511661529541 -2.5
-6.697955131530762 1.6508984565734863 -2.5
-6.809075832366943 1.106591820716858 -2.5
6.645223140716553 0.5364599227905273 -2.5
6.133358001708984 2.6131787300109863 -2.5
5.634749412536621 3.5631980895996094 -2.5
4.762596130371094 4.219296932220459 -2.385974884033203
4.261444091796875 4.436640739440918 -2.3068411350250244
2.683795213699341 5.655991077423096 -2.347599983215332
2.2199792861938477 5.853608131408691 -2.347599983215332
1.7417638301849365 6.013256549835205 -2.347599983215332
1.2522497177124023 6.133915901184082 -2.347599983215332
0.6701366901397705 5.519086837768555 -2.084803819656372
-1.126135230064392 5.516147136688232 -2.1111667156219482
-2.683797597885132 5.655995845794678 -2.347599983215332
-3.130215883255005 5.421694278717041 -2.347599983215332
-3.55633544921875 5.152235984802246 -2.347599983215332
-5.63474702835083 3.5631980895996094 -2.5
-6.133358001708984 2.6131834983825684 -2.5
-6.645222187042236 0.5364599227905273 -2.5
6.448567867279053 0.0 -2.5
6.42765474319458 0.5188964605331421 -2.5
6.261178016662598 1.5432469844818115 -2.5
5.450259685516357 3.446537971496582 -2.5
5.151041030883789 3.8707568645477295 -2.4979536533355713
4.747364521026611 4.205805778503418 -2.458848714828491
4.194761753082275 4.36721658706665 -2.347599983215332
3.829744815826416 4.690595626831055 -2.347599983215332
3.027728319168091 5.244184494018555 -2.347599983215332
2.595926523208618 5.470810413360596 -2.347599983215332
1.6847362518310547 5.816381931304932 -2.347599983215332
0.6701379418373108 5.519086837768555 -2.1553726196289062
0.2223779261112213 5.518354415893555 -2.1411097049713135
-0.2223559468984604 5.517626762390137 -2.1408276557922363
-0.6698766946792603 5.516894340515137 -2.1545164585113525
-1.1261340379714966 5.516147136688232 -2.1826276779174805
-1.6847387552261353 5.816381931304932 -2.347599983215332
-2.1472935676574707 5.661962985992432 -2.347599983215332
-2.595928907394409 5.470810413360596 -2.347599983215332
-3.0277295112609863 5.244184494018555 -2.347599983215332
-3.439897298812866 4.983540058135986 -2.347599983215332
-3.829744815826416 4.690590858459473 -2.347599983215332
-4.194764137268066 4.367211818695068 -2.347599983215332
-4.74736213684082 4.205800533294678 -2.458845853805542
-5.151037693023682 3.8707518577575684 -2.497953414916992
-5.709919452667236 2.9967968463897705 -2.5
-6.116696834564209 2.042055606842041 -2.5
-6.365056037902832 1.0344336032867432 -2.5
-6.427652359008789 0.5188964605331421 -2.5
6.242423057556152 0.0 -2.5
6.161582946777344 1.0013623237609863 -2.5
6.061026573181152 1.4939111471176147 -2.5
5.52738618850708 2.900995969772339 -2.5
5.276029109954834 3.33636212348938 -2.5
4.063743591308594 4.230830192565918 -2.3493876457214355
3.707318067550659 4.5406494140625 -2.347599983215332
3.329927921295166 4.824238300323486 -2.347599983215332
2.512941837310791 5.295922756195068 -2.347599983215332
2.078651189804077 5.48095703125 -2.347599983215332
1.6308813095092773 5.630444049835205 -2.347599983215332
0.662445068359375 5.455727577209473 -2.2009899616241455
-1.1081457138061523 5.428027153015137 -2.2186856269836426
-2.078651189804077 5.48095703125 -2.347599983215332
-2.930941104888916 5.0765380859375 -2.347599983215332
-3.7073192596435547 4.5406494140625 -2.347599983215332
-4.990452766418457 3.7500829696655273 -2.4999985694885254
-5.276029109954834 3.33636212348938 -2.5
-5.921162128448486 1.976772427558899 -2.5
-6.061026573181152 1.4939160346984863 -2.5
-6.161581993103027 1.0013525485992432 -2.5
6.027764797210693 0.4866113066673279 -2.5
5.969066143035889 0.9700634479522705 -2.5
5.871646404266357 1.4472362995147705 -2.5
5.354683876037598 2.810356378555298 -2.5
4.834529876708984 3.6329052448272705 -2.5
4.047452449798584 4.213847637176514 -2.4154276847839355
3.5914831161499023 4.398769378662109 -2.347599983215332
3.2258825302124023 4.673505783081055 -2.347599983215332
2.0137035846710205 5.309701919555664 -2.347599983215332
1.5799230337142944 5.454521179199219 -2.347599983215332
1.135894775390625 5.563969612121582 -2.347599983215332
0.6594323515892029 5.430917739868164 -2.261646032333374
0.21882568299770355 5.430195331573486 -2.2466797828674316
-0.6591759920120239 5.428759574890137 -2.260747194290161
-1.5799230337142944 5.454521179199219 -2.347599983215332
-2.013702392578125 5.309706687927246 -2.347599983215332
-2.8393640518188477 4.917924880981445 -2.347599983215332
-4.047443866729736 4.213842868804932 -2.4154248237609863
-4.518752574920654 4.003271579742432 -2.4957072734832764
-4.834531307220459 3.6329150199890137 -2.5
-5.111178874969482 3.232119083404541 -2.5
-5.354683876037598 2.810356378555298 -2.5
-5.871647834777832 1.4472362995147705 -2.5
-5.969063758850098 0.9700732231140137 -2.5
5.692161560058594 1.4029979705810547 -2.5
5.560811519622803 1.85647451877594 -2.5
4.954939842224121 3.1333203315734863 -2.5
4.686746597290039 3.521860361099243 -2.5
4.035237789154053 4.201132774353027 -2.484074831008911
2.7525694370269775 4.767592430114746 -2.347599983215332
1.9521484375 5.147397518157959 -2.347599983215332
1.5316283702850342 5.287787914276123 -2.347599983215332
0.21882568299770355 5.430195331573486 -2.317521333694458
-0.6591759920120239 5.428759574890137 -2.3320326805114746
-2.3600096702575684 4.973618030548096 -2.347599983215332
-2.7525720596313477 4.767592430114746 -2.347599983215332
-3.127279043197632 4.530634880065918 -2.347599983215332
-3.4816980361938477 4.264316082000732 -2.347599983215332
-4.035234451293945 4.201128005981445 -2.484071969985962
-4.686746597290039 3.521865129470825 -2.5
-4.954939842224121 3.133315324783325 -2.5
-5.191001892089844 2.7244529724121094 -2.5
-5.393397331237793 2.297910213470459 -2.5
-5.786600112915039 0.9404199123382568 -2.5
-5.843509197235107 0.4717431664466858 -2.5
5.668582439422607 0.4576171636581421 -2.5
5.613379955291748 0.9122655987739563 -2.5
5.521768569946289 1.3609960079193115 -2.5
5.394344329833984 1.8008984327316284 -2.5
5.231944561004639 2.2291259765625 -2.5
4.256199836730957 3.7706687450408936 -2.499650001525879
3.930406332015991 4.091987133026123 -2.494203805923462
3.4437828063964844 4.217871189117432 -2.3936891555786133
3.033658266067505 4.39501953125 -2.347599983215332
2.289362668991089 4.824731349945068 -2.347599983215332
1.8937108516693115 4.993310451507568 -2.347599983215332
1.4857763051986694 5.129492282867432 -2.347599983215332
0.2150305062532425 5.336015701293945 -2.347599983215332
-0.21503295004367828 5.336010456085205 -2.347599983215332
-1.068209171295166 5.232421875 -2.347599983215332
-2.2893638610839844 4.82473611831665 -2.347599983215332
-2.670173168182373 4.624873161315918 -2.347599983215332
-4.256202220916748 3.7706687450408936 -2.4996497631073
-4.54644775390625 3.41644024848938 -2.5
-5.035607814788818 2.642895460128784 -2.5
-5.231944561004639 2.229120969772339 -2.5
-5.394345760345459 1.8008984327316284 -2.5
-5.521770000457764 1.361000895500183 -2.5
-5.668582439422607 0.4576171636581421 -2.5
5.520157337188721 0.0 -2.5
5.448672771453857 0.885498046875 -2.5
5.23607063293457 1.7480566501617432 -2.5
5.078433513641357 2.1637158393859863 -2.5
4.887855052947998 2.5653467178344727 -2.5
4.665579795837402 2.9503369331359863 -2.5
