ply
format ascii 1.0
element vertex 740
property float x
property float y
property float z
end_header
-10.27542495727539 -14.886528015136719 4.419582843780518
0.4841894507408142 -12.014936447143555 2.79717755317688
0.529833972454071 -13.147592544555664 2.6031296253204346
0.5441064238548279 -13.501626014709473 2.5179622173309326
1.1893993616104126 -29.51473617553711 5.166290283203125
-8.032577514648438 -16.928335189819336 2.0061330795288086
-7.911088466644287 -16.672304153442383 1.3572378158569336
-7.909999847412109 -16.670019149780273 1.1516342163085938
-7.908920764923096 -16.66773796081543 0.9463720321655273
-2.9808592796325684 -24.54960823059082 1.2685601711273193
-7.903534889221191 -16.656381607055664 -0.07661483436822891
25.35432243347168 -6.249287128448486 -0.10851531475782394
25.1070499420166 -6.188339710235596 -0.39403364062309265
25.118722915649414 -10.702070236206055 -1.0216257572174072
20.516605377197266 -15.41722583770752 -1.2451832294464111
24.61395263671875 -6.06680154800415 -1.2299939393997192
-20.042827606201172 -20.866802215576172 -1.7253918647766113
-7.898134708404541 -16.645029067993164 -1.098676323890686
20.311229705810547 -21.146268844604492 -1.7484983205795288
20.517253875732422 -15.41771411895752 -1.53045654296875
23.66676902770996 -10.083456993103027 -1.5340858697891235
23.524248123168945 -7.853539943695068 -1.4789403676986694
-7.897065162658691 -16.64275360107422 -1.3035321235656738
8.072504997253418 -21.285419464111328 -1.6108808517456055
14.16469955444336 -20.521137237548828 -1.764453649520874
23.278289794921875 -9.917939186096191 -1.790494680404663
23.4429931640625 -7.826420783996582 -1.7488763332366943
-24.224300384521484 -15.318525314331055 -2.347599983215332
-21.453304290771484 -19.0059814453125 -2.347599983215332
-18.166757583618164 -22.250263214111328 -2.352782726287842
-16.355350494384766 -23.69482421875 -2.358250379562378
-14.425556182861328 -24.98577117919922 -2.3631434440612793
-8.0634765625 -27.838300704956055 -2.3739144802093506
-3.49883770942688 -28.815536499023438 -2.377565860748291
5.802333831787109 -28.421688079833984 -2.3759889602661133
8.063032150268555 -27.836795806884766 -2.3737857341766357
7.975644588470459 -21.030029296875 -1.842249870300293
14.424633026123047 -24.984188079833984 -2.362992525100708
18.166296005249023 -22.249671936035156 -2.352724313735962
19.854394912719727 -20.670639038085938 -2.347599983215332
20.5181884765625 -15.418417930603027 -2.1022789478302
24.22426986694336 -15.318510055541992 -2.347599983215332
23.18992805480957 -9.880288124084473 -2.0646612644195557
24.418310165405273 -6.01858377456665 -2.0599162578582764
-26.77305030822754 -2.1613574028015137 -2.5
-26.07964324951172 -6.428085803985596 -2.5
-24.71079444885254 -10.528276443481445 -2.5
-20.16414451599121 -15.152372360229492 -2.347599983215332
-17.47242546081543 -18.190711975097656 -2.347599983215332
-14.328153610229492 -20.757925033569336 -2.347599983215332
-12.631610870361328 -21.87858772277832 -2.3513660430908203
-7.8948974609375 -16.638193130493164 -1.714091420173645
-6.71142578125 -17.6966552734375 -1.7615805864334106
-7.05675745010376 -24.362743377685547 -2.3607614040374756
-5.077626705169678 -24.871845245361328 -2.3626880645751953
-1.022973656654358 -25.38483428955078 -2.36460280418396
3.061415910720825 -25.2130069732666 -2.3639280796051025
7.056569576263428 -24.362079620361328 -2.3606972694396973
8.984365463256836 -23.689828872680664 -2.3581650257110596
12.63145923614502 -21.878305435180664 -2.3513357639312744
14.328166007995605 -20.757919311523438 -2.347599983215332
17.472410202026367 -18.19072723388672 -2.347599983215332
20.16415786743164 -15.152377128601074 -2.347599983215332
23.88638687133789 -7.974442958831787 -2.343838691711426
24.418291091918945 -6.01858377456665 -2.340742349624634
26.773056030273438 -2.1613378524780273 -2.5
-23.899818420410156 -1.9293944835662842 -2.5
-23.28081512451172 -5.738227367401123 -2.5
-22.058876037597656 -9.39840316772461 -2.5
-21.2310791015625 -11.142924308776855 -2.5
-20.265605926513672 -12.815195083618164 -2.5
-6.695932388305664 -17.655731201171875 -1.9688020944595337
-6.272084712982178 -21.65372085571289 -2.3505091667175293
-2.720634698867798 -22.406469345092773 -2.353348970413208
-0.9090625047683716 -22.558218002319336 -2.3539223670959473
0.9090673327445984 -22.558124542236328 -2.353912115097046
2.720629930496216 -22.4063663482666 -2.353339672088623
4.512588024139404 -22.104076385498047 -2.352199077606201
6.466291427612305 -17.0501708984375 -1.901269793510437
7.561393737792969 -15.935282707214355 -1.839036226272583
14.240070343017578 -17.44093132019043 -2.347599983215332
16.85338592529297 -14.930805206298828 -2.347599983215332
20.265600204467773 -12.815195083618164 -2.5
21.231090545654297 -11.142929077148438 -2.5
23.899818420410156 -1.9293944835662842 -2.5
-21.64889144897461 1.4648437172581907e-05 -2.5
-21.57869529724121 -1.7420116662979126 -2.5
-21.019804000854492 -5.180932521820068 -2.5
-20.534765243530273 -6.855512619018555 -2.5
-19.169139862060547 -10.060747146606445 -2.5
-18.297426223754883 -11.570605278015137 -2.5
-16.19384765625 -14.3464937210083 -2.4983649253845215
-14.143119812011719 -14.724540710449219 -2.3577017784118652
-12.85707950592041 -15.747084617614746 -2.347599983215332
-7.552470684051514 -15.916532516479492 -2.0344595909118652
-6.695932388305664 -17.655746459960938 -2.18057918548584
-5.655932426452637 -19.526533126831055 -2.347599983215332
-4.066357135772705 -19.9183349609375 -2.347599983215332
-2.4504148960113525 -20.18096160888672 -2.347599983215332
-0.8185644149780273 -20.312685012817383 -2.347599983215332
2.4504148960113525 -20.180952072143555 -2.347599983215332
5.655932426452637 -19.526546478271484 -2.347599983215332
6.466291427612305 -17.0501651763916 -2.1057841777801514
7.561393737792969 -15.935282707214355 -2.036853313446045
10.164594650268555 -17.605575561523438 -2.347599983215332
14.14309024810791 -14.724531173706055 -2.357698917388916
17.307052612304688 -13.00540542602539 -2.5
19.169147491455078 -10.060731887817383 -2.5
19.916540145874023 -8.485639572143555 -2.5
20.534765243530273 -6.855507850646973 -2.5
21.019813537597656 -5.180927753448486 -2.5
21.368547439575195 -3.472734212875366 -2.5
21.57869529724121 -1.7420116662979126 -2.5
-19.72798728942871 4.882812390860636e-06 -2.5
-19.472509384155273 -3.164604425430298 -2.5
-19.154720306396484 -4.721235275268555 -2.5
-18.71271514892578 -6.247211933135986 -2.5
-17.46826171875 -9.168061256408691 -2.5
-16.673891067504883 -10.543935775756836 -2.5
-15.77138614654541 -11.851435661315918 -2.5
-14.766606330871582 -13.082070350646973 -2.5
-12.014692306518555 -14.71533203125 -2.407393455505371
-10.523603439331055 -15.246073722839355 -2.347599983215332
-7.499252796173096 -15.804384231567383 -2.216822624206543
-6.569184303283691 -17.321508407592773 -2.347599983215332
-3.7055516242980957 -18.150970458984375 -2.347599983215332
0.6198486089706421 -15.381386756896973 -1.950767159461975
7.517299652099609 -15.842357635498047 -2.2221474647521973
10.523612976074219 -15.246073722839355 -2.347599983215332
16.67389678955078 -10.543940544128418 -2.5
17.468265533447266 -9.168046951293945 -2.5
19.472509384155273 -3.164599657058716 -2.5
-18.11605453491211 4.882812390860636e-06 -2.5
-17.589628219604492 -4.33547830581665 -2.5
-17.183740615844727 -5.736772537231445 -2.5
-16.66639518737793 -7.100888729095459 -2.5
-13.560053825378418 -12.01318359375 -2.5
-12.549443244934082 -13.06534194946289 -2.5
-8.505849838256836 -14.732558250427246 -2.347599983215332
-6.032431602478027 -15.906220436096191 -2.347599983215332
-3.402778148651123 -16.667884826660156 -2.347599983215332
-0.6849902272224426 -16.997900009155273 -2.347599983215332
2.050537109375 -16.88766098022461 -2.347599983215332
4.732954025268555 -16.340044021606445 -2.347599983215332
6.032436370849609 -15.906210899353027 -2.347599983215332
8.505849838256836 -14.732563018798828 -2.347599983215332
10.149811744689941 -14.704535484313965 -2.4656784534454346
11.457416534423828 -14.032787322998047 -2.5
12.549426078796387 -13.065351486206055 -2.5
14.48275089263916 -10.88309097290039 -2.5
15.31151294708252 -9.682416915893555 -2.5
16.666400909423828 -7.100878715515137 -2.5
17.183734893798828 -5.736772537231445 -2.5
18.05731201171875 -1.4577343463897705 -2.5
-16.743759155273438 4.882812390860636e-06 -2.5
-15.882060050964355 -5.302216529846191 -2.5
-14.825854301452637 -7.781215667724609 -2.5
-14.151659965515137 -8.948969841003418 -2.5
-12.532880783081055 -11.103178024291992 -2.5
-11.598817825317383 -12.075634956359863 -2.5
-10.58951187133789 -12.969804763793945 -2.5
-9.511548042297363 -13.779838562011719 -2.5
-6.980414867401123 -14.71092700958252 -2.43121075630188
-4.374428749084473 -15.102279663085938 -2.347599983215332
-0.6331005692481995 -15.710297584533691 -2.347599983215332
1.895205020904541 -15.60842227935791 -2.347599983215332
3.14501953125 -15.405306816101074 -2.347599983215332
4.374438285827637 -15.102279663085938 -2.347599983215332
5.585702896118164 -14.728300094604492 -2.3519093990325928
8.358938217163086 -14.478095054626465 -2.496134042739868
10.589513778686523 -12.969799041748047 -2.5
11.59880542755127 -12.075639724731445 -2.5
13.3856782913208 -10.058686256408691 -2.5
14.151655197143555 -8.948969841003418 -2.5
14.825861930847168 -7.781215667724609 -2.5
15.403915405273438 -6.562993049621582 -2.5
16.52692985534668 -2.6858935356140137 -2.5
-15.510624885559082 -1.2521483898162842 -2.5
-15.359575271606445 -2.4961814880371094 -2.5
-15.108905792236328 -3.7240283489227295 -2.5
-13.152074813842773 -8.316874504089355 -2.5
-11.647636413574219 -10.318915367126465 -2.5
-10.779550552368164 -11.222695350646973 -2.5
-7.78054666519165 -13.476293563842773 -2.5
-6.670917987823486 -14.05868148803711 -2.5
-5.507826805114746 -14.522944450378418 -2.4953742027282715
-4.259541034698486 -14.705649375915527 -2.4596810340881348
-3.003955125808716 -14.71434497833252 -2.412724256515503
-1.7873339653015137 -14.719989776611328 -2.3822410106658936
0.5933300852775574 -14.723061561584473 -2.3672850131988525
1.7875487804412842 -14.72170352935791 -2.3825173377990723
6.670920372009277 -14.058676719665527 -2.5
9.841545104980469 -12.053690910339355 -2.5
12.440199851989746 -9.348207473754883 -2.5
13.152074813842773 -8.316874504089355 -2.5
15.10891056060791 -3.7240185737609863 -2.5
-14.531054496765137 0.0 -2.5
-14.483930587768555 -1.1692675352096558 -2.5
-14.108808517456055 -3.4775195121765137 -2.5
-13.368270874023438 -5.695688247680664 -2.5
-12.866605758666992 -6.752910137176514 -2.5
-10.8766450881958 -9.635878562927246 -2.5
-9.19009780883789 -11.255834579467773 -2.5
-8.254584312438965 -11.958818435668945 -2.5
-4.042797565460205 -13.957343101501465 -2.5
-2.9065818786621094 -14.23739242553711 -2.5
-0.5841259360313416 -14.49514102935791 -2.495845317840576
2.9065868854522705 -14.237387657165527 -2.5
4.042792797088623 -13.9573335647583 -2.5
5.152773380279541 -13.586776733398438 -2.5
6.229350566864014 -13.128080368041992 -2.5
7.26553201675415 -12.58426284790039 -2.5
10.06601333618164 -10.479838371276855 -2.5
10.876652717590332 -9.635873794555664 -2.5
12.86661148071289 -6.752910137176514 -2.5
-13.581483840942383 -1.0964159965515137 -2.5
-12.924448013305664 -4.3148193359375 -2.5
-12.06493091583252 -6.332158088684082 -2.5
-11.516283988952637 -7.282460689544678 -2.5
-10.8929443359375 -8.185522079467773 -2.5
-9.438833236694336 -9.826865196228027 -2.5
-7.740268230438232 -11.21371078491211 -2.5
-5.841225624084473 -12.310126304626465 -2.5
-4.831733226776123 -12.74022388458252 -2.5
-1.642397403717041 -13.526328086853027 -2.5
2.7254881858825684 -13.350302696228027 -2.5
3.790903329849243 -13.087699890136719 -2.5
4.831728458404541 -12.74022388458252 -2.5
5.841220378875732 -12.3101167678833 -2.5
6.812839031219482 -11.8001708984375 -2.5
7.74026346206665 -11.213701248168945 -2.5
8.617494583129883 -10.554516792297363 -2.5
10.198962211608887 -9.035492897033691 -2.5
11.516279220581055 -7.282455921173096 -2.5
12.06493854522705 -6.332162857055664 -2.5
12.53533935546875 -5.340805530548096 -2.5
13.229736328125 -3.2608447074890137 -2.5
13.581488609313965 -1.096411108970642 -2.5
-12.823442459106445 4.882812390860636e-06 -2.5
-12.781865119934082 -1.0318603515625 -2.5
-12.450815200805664 -3.068862199783325 -2.5
-12.163505554199219 -4.060771465301514 -2.5
-11.797308921813965 -5.0263671875 -2.5
-11.354598999023438 -5.95934534072876 -2.5
-10.838247299194336 -6.853696346282959 -2.5
-10.251615524291992 -7.703588485717773 -2.5
-9.598481178283691 -8.503530502319336 -2.5
-8.110121726989746 -9.93310546875 -2.5
-6.411728382110596 -11.10543441772461 -2.5
-4.547265529632568 -11.990131378173828 -2.5
-2.5650243759155273 -12.564291954040527 -2.5
-1.5456981658935547 -12.729950904846191 -2.5
0.5163476467132568 -12.813051223754883 -2.5
2.5650341510772705 -12.56429672241211 -2.5
4.547250747680664 -11.990131378173828 -2.5
5.497314453125 -11.58535099029541 -2.5
6.411723613739014 -11.105429649353027 -2.5
7.284560203552246 -10.553485870361328 -2.5
10.25161361694336 -7.703588485717773 -2.5
11.35460376739502 -5.9593505859375 -2.5
12.163508415222168 -4.060781002044678 -2.5
12.450819969177246 -3.068852424621582 -2.5
12.781867027282715 -1.0318603515625 -2.5
-11.95071792602539 -1.9421874284744263 -2.5
-11.755693435668945 -2.897524356842041 -2.5
-11.484418869018555 -3.834062337875366 -2.5
-10.72066879272461 -5.626645565032959 -2.5
-10.233149528503418 -6.471059322357178 -2.5
-7.657338619232178 -9.378549575805664 -2.5
-6.053759574890137 -10.485419273376465 -2.5
-5.190395355224609 -10.938544273376465 -2.5
-1.4593944549560547 -12.019232749938965 -2.5
-0.4875195324420929 -12.097695350646973 -2.5
2.421821117401123 -11.86281681060791 -2.5
3.368520498275757 -11.62948226928711 -2.5
6.053764343261719 -10.485404968261719 -2.5
6.877856254577637 -9.964286804199219 -2.5
9.062602043151855 -8.028764724731445 -2.5
9.679262161254883 -7.273486137390137 -2.5
10.233144760131836 -6.471054553985596 -2.5
10.720670700073242 -5.626640319824219 -2.5
11.138664245605469 -4.745741844177246 -2.5
-11.46451187133789 -4.882812390860636e-06 -2.5
-11.427338600158691 -0.9225097298622131 -2.5
-11.13137149810791 -2.743647336959839 -2.5
-10.87451171875 -3.630444288253784 -2.5
-10.547109603881836 -4.493705749511719 -2.5
-10.151323318481445 -5.327831745147705 -2.5
-4.914745807647705 -10.357617378234863 -2.5
-1.3818944692611694 -11.380922317504883 -2.5
0.4616357386112213 -11.455209732055664 -2.5
1.3818944692611694 -11.380927085876465 -2.5
2.2931981086730957 -11.23281192779541 -2.5
4.065375804901123 -10.719511032104492 -2.5
6.512585163116455 -9.435107231140137 -2.5
7.250683307647705 -8.880468368530273 -2.5
9.68969440460205 -6.127392292022705 -2.5
10.151318550109863 -5.327822208404541 -2.5
10.547121047973633 -4.493705749511719 -2.5
10.874506950378418 -3.630449056625366 -2.5
11.131379127502441 -2.743642568588257 -2.5
11.316044807434082 -1.8390429019927979 -2.5
11.427343368530273 -0.9225146174430847 -2.5
-10.88370132446289 4.882812390860636e-06 -2.5
-10.848402976989746 -0.8757714629173279 -2.5
-10.74276351928711 -1.7458739280700684 -2.5
-10.5674409866333 -2.6046533584594727 -2.5
-10.323588371276855 -3.446523427963257 -2.5
-9.637036323547363 -5.057914733886719 -2.5
-8.146557807922363 -7.217236042022705 -2.5
-7.539409160614014 -7.849355220794678 -2.5
-6.18264627456665 -8.95711898803711 -2.5
-5.441855430603027 -9.42556095123291 -2.5
-3.8594090938568115 -10.176435470581055 -2.5
-1.3118847608566284 -10.804349899291992 -2.5
-0.4382373094558716 -10.874868392944336 -2.5
1.3118896484375 -10.80434513092041 -2.5
3.028032064437866 -10.453989028930664 -2.5
3.8594138622283936 -10.176430702209473 -2.5
4.665761470794678 -9.832880973815918 -2.5
6.883344650268555 -8.43056583404541 -2.5
9.198793411254883 -5.816962718963623 -2.5
9.637041091918945 -5.057905197143555 -2.5
10.323593139648438 -3.4465184211730957 -2.5
10.74276351928711 -1.7458691596984863 -2.5
10.84841251373291 -0.8757714629173279 -2.5
-10.35635757446289 0.0 -2.5
-10.222241401672363 -1.6612792015075684 -2.5
-9.170097351074219 -4.812836647033691 -2.5
-8.75308609008789 -5.535121917724609 -2.5
-8.279311180114746 -6.221498966217041 -2.5
-7.751840591430664 -6.867538928985596 -2.5
-7.17410135269165 -7.469027996063232 -2.5
-6.549824237823486 -8.022089958190918 -2.5
-5.88308572769165 -8.523115158081055 -2.5
-5.178183555603027 -8.9688720703125 -2.5
-4.439687252044678 -9.356450080871582 -2.5
-1.248315453529358 -10.280844688415527 -2.5
0.4170019328594208 -10.347953796386719 -2.5
1.2483203411102295 -10.280844688415527 -2.5
2.071537971496582 -10.14706039428711 -2.5
5.178173542022705 -8.968862533569336 -2.5
5.88308572769165 -8.523110389709473 -2.5
7.751842975616455 -6.867538928985596 -2.5
8.279315948486328 -6.221498966217041 -2.5
9.823386192321777 -3.2795262336730957 -2.5
10.322775840759277 -0.8333398103713989 -2.5
-9.843276023864746 -0.7946337461471558 -2.5
-9.58834457397461 -2.3633251190185547 -2.5
-9.367079734802246 -3.127192258834839 -2.5
-9.085078239440918 -3.870790958404541 -2.5
-8.346503257751465 -5.278012752532959 -2.5
-7.894736289978027 -5.932514667510986 -2.5
-7.391767501831055 -6.548540115356445 -2.5
-6.245585918426514 -7.649467468261719 -2.5
-4.937646389007568 -8.552260398864746 -2.5
-4.233461856842041 -8.921845436096191 -2.5
-3.501826047897339 -9.233564376831055 -2.5
-2.747485399246216 -9.485400199890137 -2.5
-1.975317358970642 -9.675726890563965 -2.5
-1.1903369426727295 -9.803296089172363 -2.5
-0.3976415991783142 -9.867289543151855 -2.5
1.1903369426727295 -9.803300857543945 -2.5
2.7474803924560547 -9.485400199890137 -2.5
3.5018310546875 -9.233569145202637 -2.5
4.233466625213623 -8.92184066772461 -2.5
4.93765115737915 -8.552260398864746 -2.5
5.609814167022705 -8.127211570739746 -2.5
6.245590686798096 -7.649453163146973 -2.5
6.840859413146973 -7.122094631195068 -2.5
7.391765117645264 -6.548540115356445 -2.5
7.894736289978027 -5.932509422302246 -2.5
8.744150161743164 -4.589277267456055 -2.5
9.085073471069336 -3.870790958404541 -2.5
9.367084503173828 -3.127192258834839 -2.5
9.58834457397461 -2.3633203506469727 -2.5
9.747419357299805 -1.5841162204742432 -2.5
-9.43459415435791 0.0 -2.5
-9.312421798706055 -1.5134179592132568 -2.5
-8.679638862609863 -3.6980466842651367 -2.5
-7.97402811050415 -5.042475700378418 -2.5
-6.535581111907959 -6.804257869720459 -2.5
-5.359467506408691 -7.76452112197876 -2.5
-4.044536113739014 -8.523695945739746 -2.5
-3.3455564975738525 -8.821503639221191 -2.5
-2.624868154525757 -9.062094688415527 -2.5
-1.8871581554412842 -9.243926048278809 -2.5
-1.1372168064117432 -9.36581039428711 -2.5
-0.3798925578594208 -9.426947593688965 -2.5
0.37989744544029236 -9.426947593688965 -2.5
1.1372168064117432 -9.36581039428711 -2.5
1.8871679306030273 -9.24393081665039 -2.5
3.3455564975738525 -8.821503639221191 -2.5
5.966865062713623 -7.308085918426514 -2.5
7.542421817779541 -5.667758464813232 -2.5
8.679643630981445 -3.6980419158935547 -2.5
8.94906234741211 -2.9876415729522705 -2.5
9.160444259643555 -2.2578516006469727 -2.5
9.404006004333496 -0.7591747641563416 -2.5
-8.912348747253418 -1.448403239250183 -2.5
-8.56459903717041 -2.8592822551727295 -2.5
-8.306747436523438 -3.5391697883605957 -2.5
-7.995028972625732 -4.196117877960205 -2.5
-7.218388557434082 -5.424272537231445 -2.5
-6.758510589599609 -5.987524509429932 -2.5
-6.254799842834473 -6.511938095092773 -2.5
-3.870781183242798 -8.157500267028809 -2.5
-1.806093692779541 -8.8468017578125 -2.5
-0.36357420682907104 -9.021952629089355 -2.5
1.0883642435073853 -8.963441848754883 -2.5
2.512099504470825 -8.672782897949219 -2.5
3.2018213272094727 -8.442519187927246 -2.5
4.514643669128418 -7.819584846496582 -2.5
5.129209041595459 -7.430947303771973 -2.5
5.710522174835205 -6.994121074676514 -2.5
6.758508205413818 -5.987509727478027 -2.5
7.218386173248291 -5.424272537231445 -2.5
7.995028972625732 -4.196113109588623 -2.5
8.306753158569336 -3.5391697883605957 -2.5
8.76690673828125 -2.1608543395996094 -2.5
-8.655156135559082 0.0 -2.5
-8.543070793151855 -1.3883886337280273 -2.5
-8.403647422790527 -2.0713231563568115 -2.5
-8.209726333618164 -2.7408103942871094 -2.5
-7.962563514709473 -3.392534017562866 -2.5
-7.315244197845459 -4.625888347625732 -2.5
-5.995639324188232 -6.242124080657959 -2.5
-3.710395336151123 -7.819506645202637 -2.5
-3.069159984588623 -8.092704772949219 -2.5
-2.408012628555298 -8.313427925109863 -2.5
-1.7312548160552979 -8.480238914489746 -2.5
-1.0432616472244263 -8.592041015625 -2.5
1.0432616472244263 -8.592050552368164 -2.5
1.7312548160552979 -8.480238914489746 -2.5
4.327578067779541 -7.495580673217773 -2.5
4.916684627532959 -7.123046875 -2.5
6.478476524353027 -5.739433288574219 -2.5
6.919301509857178 -5.199516296386719 -2.5
7.31524658203125 -4.625888347625732 -2.5
7.66375732421875 -4.02224588394165 -2.5
7.962563514709473 -3.392529249191284 -2.5
8.40365219116211 -2.0713183879852295 -2.5
8.543075561523438 -1.3883837461471558 -2.5
8.627087593078613 -0.6964501738548279 -2.5
-8.308676719665527 -4.882812390860636e-06 -2.5
-8.281733512878418 -0.6685791015625 -2.5
-8.067240715026855 -1.9884082078933716 -2.5
-7.881083965301514 -2.631098508834839 -2.5
-7.022411823272705 -4.440712928771973 -2.5
-6.219130516052246 -5.509677410125732 -2.5
-5.254780292510986 -6.435952186584473 -2.5
-4.154340744018555 -7.195527076721191 -2.5
-2.946298837661743 -7.768744945526123 -2.5
-1.6619433164596558 -8.140761375427246 -2.5
1.001499056816101 -8.248090744018555 -2.5
2.3116161823272705 -7.980629920959473 -2.5
2.9462890625 -7.768749713897705 -2.5
3.5618650913238525 -7.506474494934082 -2.5
4.154340744018555 -7.195522308349609 -2.5
4.719872951507568 -6.837904930114746 -2.5
6.642309188842773 -4.991372108459473 -2.5
7.022409439086914 -4.44070291519165 -2.5
7.356969833374023 -3.8612353801727295 -2.5
7.643810749053955 -3.256723642349243 -2.5
-7.960917949676514 -0.6426757574081421 -2.5
-7.883383750915527 -1.2811815738677979 -2.5
-7.575776100158691 -2.529169797897339 -2.5
-7.347700119018555 -3.130566358566284 -2.5
-7.071972370147705 -3.711660146713257 -2.5
-6.384999752044678 -4.798012733459473 -2.5
-5.978208065032959 -5.296235084533691 -2.5
-3.993408203125 -6.91677713394165 -2.5
-3.42388653755188 -7.215683460235596 -2.5
-2.832158088684082 -7.467797756195068 -2.5
-0.3215917944908142 -7.980331897735596 -2.5
0.3215966820716858 -7.980331897735596 -2.5
0.9627001881599426 -7.928578853607178 -2.5
1.5975682735443115 -7.825400352478027 -2.5
3.42388653755188 -7.215688228607178 -2.5
4.537031173706055 -6.573007583618164 -2.5
5.051225662231445 -6.186625957489014 -2.5
5.532660961151123 -5.760117053985596 -2.5
6.38500452041626 -4.798012733459473 -2.5
6.750375747680664 -4.2686767578125 -2.5
7.071972370147705 -3.7116551399230957 -2.5
7.347707271575928 -3.130561351776123 -2.5
7.7547287940979 -1.911376953125 -2.5
7.960917949676514 -0.6426708698272705 -2.5
-7.686962604522705 0.0 -2.5
-7.662035942077637 -0.6185400485992432 -2.5
-7.071845531463623 -3.0130321979522705 -2.5
-6.145283222198486 -4.617885589599609 -2.5
-3.295341730117798 -6.944780349731445 -2.5
-2.725834846496582 -7.187441349029541 -2.5
-2.1386473178863525 -7.383461952209473 -2.5
-1.5375927686691284 -7.53161096572876 -2.5
1.53759765625 -7.531606197357178 -2.5
2.1386425495147705 -7.383466720581055 -2.5
3.8434863090515137 -6.65709924697876 -2.5
4.36669921875 -6.326250076293945 -2.5
4.861581802368164 -5.954360008239746 -2.5
6.496945858001709 -4.108422756195068 -2.5
6.806469440460205 -3.5723047256469727 -2.5
7.071850299835205 -3.0130271911621094 -2.5
7.291367053985596 -2.434213876724243 -2.5
7.463595867156982 -1.8396093845367432 -2.5
7.587421894073486 -1.2330809831619263 -2.5
7.662040710449219 -0.6185400485992432 -2.5
-7.406874656677246 0.0 -2.5
-7.382851600646973 -0.5960058569908142 -2.5
-6.260210037231445 -3.9587254524230957 -2.5
-5.921371936798096 -4.449624061584473 -2.5
-4.207582950592041 -6.095736980438232 -2.5
-3.1752684116363525 -6.691742897033691 -2.5
-0.2982421815395355 -7.400864124298096 -2.5
0.2982470691204071 -7.400868892669678 -2.5
0.8928027153015137 -7.352870941162109 -2.5
1.4815673828125 -7.257187366485596 -2.5
3.1752734184265137 -6.691742897033691 -2.5
3.703432559967041 -6.414540767669678 -2.5
4.207587718963623 -6.095736980438232 -2.5
4.684443473815918 -5.737402439117432 -2.5
5.921371936798096 -4.449618816375732 -2.5
6.814172267913818 -2.903251886367798 -2.5
7.02569055557251 -2.345517635345459 -2.5
7.310956954956055 -1.188149333000183 -2.5
-7.052070140838623 -1.1460741758346558 -2.5
-6.936972618103027 -1.709814429283142 -2.5
-6.776904106140137 -2.262460947036743 -2.5
-6.5728759765625 -2.8004443645477295 -2.5
-6.326215744018555 -3.320253849029541 -2.5
-6.038530349731445 -3.818544864654541 -2.5
-5.347797870635986 -4.737743854522705 -2.5
-4.518559455871582 -5.534233093261719 -2.5
-3.5722997188568115 -6.187392234802246 -2.5
-1.9877489805221558 -6.862509727478027 -2.5
-1.42910635471344 -7.000195026397705 -2.5
0.8611816167831421 -7.092494964599609 -2.5
1.429101586341858 -7.000195026397705 -2.5
1.9877538681030273 -6.862509727478027 -2.5
2.533505916595459 -6.680307388305664 -2.5
3.0628271102905273 -6.454784870147705 -2.5
3.5722997188568115 -6.187397480010986 -2.5
4.518559455871582 -5.534228324890137 -2.5
5.347802639007568 -4.737743854522705 -2.5
5.711689472198486 -4.292055606842041 -2.5
6.038530349731445 -3.81853985786438 -2.5
6.572878360748291 -2.8004393577575684 -2.5
6.9369797706604 -1.709814429283142 -2.5
7.052065372467041 -1.1460790634155273 -2.5
7.121423244476318 -0.5748925805091858 -2.5
-6.346396446228027 -2.7039501667022705 -2.5
-6.108242034912109 -3.2058591842651367 -2.5
-5.830468654632568 -3.686967611312866 -2.5
-5.514882564544678 -4.1441650390625 -2.5
-4.778700828552246 -4.975156307220459 -2.5
-3.9187450408935547 -5.67727518081665 -2.5
-3.4491991996765137 -5.974199295043945 -2.5
-2.957289934158325 -6.232372760772705 -2.5
-1.9192626476287842 -6.626044750213623 -2.5
-1.379858374595642 -6.758998870849609 -2.5
-0.8315136432647705 -6.848110198974609 -2.5
0.2777685523033142 -6.892812252044678 -2.5
0.8315087556838989 -6.848110198974609 -2.5
1.379858374595642 -6.758998870849609 -2.5
1.9192577600479126 -6.626044750213623 -2.5
2.4462060928344727 -6.450126647949219 -2.5
4.778691291809082 -4.975146293640137 -2.5
6.108242034912109 -3.2058446407318115 -2.5
6.54339599609375 -2.184501886367798 -2.5
-6.645214557647705 -0.5364550948143005 -2.5
-6.580502986907959 -1.069433569908142 -2.5
-6.133354187011719 -2.613173723220825 -2.5
-5.329751014709473 -4.005048751831055 -2.5
-4.216411113739014 -5.164165019989014 -2.5
-3.7871971130371094 -5.486703872680664 -2.5
-1.854833960533142 -6.403617858886719 -2.5
-0.2684423625469208 -6.661435604095459 -2.5
0.8035986423492432 -6.618237018585205 -2.5
1.854833960533142 -6.403623104095459 -2.5
2.858027219772339 -6.023159027099609 -2.5
3.3334178924560547 -5.773652076721191 -2.5
3.7871971130371094 -5.486699104309082 -2.5
4.618281364440918 -4.808144569396973 -2.5
6.133364200592041 -2.613173723220825 -2.5
-6.365053653717041 -1.0344287157058716 -2.5
-6.261181354522705 -1.543251872062683 -2.5
-6.11669921875 -2.042060613632202 -2.5
-4.467080116271973 -4.650717735290527 -2.5
-3.663198232650757 -5.307055473327637 -2.5
-2.7644481658935547 -5.825952053070068 -2.5
-2.286689519882202 -6.029506683349609 -2.5
-1.7941014766693115 -6.193959712982178 -2.5
-1.2898778915405273 -6.318242073059082 -2.5
-0.7772900462150574 -6.401542663574219 -2.5
0.777294933795929 -6.401547908782959 -2.5
1.2898778915405273 -6.318242073059082 -2.5
1.7941014766693115 -6.193959712982178 -2.5
2.286689519882202 -6.029511451721191 -2.5
4.467074871063232 -4.650722503662109 -2.5
4.826821327209473 -4.276186466217041 -2.5
5.709921836853027 -2.9967968463897705 -2.5
5.932548522949219 -2.5276219844818115 -2.5
6.261181354522705 -1.5432469844818115 -2.5
-6.242421627044678 -4.882812390860636e-06 -2.5
-6.222177505493164 -0.5023144483566284 -2.5
-6.161581993103027 -1.0013574361801147 -2.5
-6.061025142669678 -1.4939160346984863 -2.5
-5.921162128448486 -1.9767773151397705 -2.5
-5.527387619018555 -2.900995969772339 -2.5
-5.27603006362915 -3.33636212348938 -2.5
-4.990458965301514 -3.7500829696655273 -2.5
-4.67251443862915 -4.139492034912109 -2.5
-3.947988271713257 -4.835410118103027 -2.5
-3.546098470687866 -5.137402057647705 -2.5
-2.2135937213897705 -5.836757659912109 -2.5
-1.7367528676986694 -5.995952129364014 -2.5
1.2486425638198853 -6.116259574890137 -2.5
1.7367528676986694 -5.995961666107178 -2.5
2.676079034805298 -5.639721393585205 -2.5
3.121210813522339 -5.406093597412109 -2.5
3.5461034774780273 -5.137407302856445 -2.5
3.947993040084839 -4.835405349731445 -2.5
4.324272155761719 -4.502050876617432 -2.5
4.990458965301514 -3.7500927448272705 -2.5
5.276034832000732 -3.336367130279541 -2.5
5.921162128448486 -1.9767773151397705 -2.5
6.061025142669678 -1.4939111471176147 -2.5
6.161581993103027 -1.0013574361801147 -2.5
-6.027763366699219 -0.48661619424819946 -2.5
-5.871650218963623 -1.447231411933899 -2.5
-5.736152172088623 -1.9150097370147705 -2.5
-5.111181735992432 -3.23211407661438 -2.5
-4.834531307220459 -3.6329197883605957 -2.5
-4.52651834487915 -4.010151386260986 -2.5
-4.189169883728027 -4.361381530761719 -2.5
-3.435302734375 -4.976884841918945 -2.5
-3.023686408996582 -5.237172603607178 -2.5
-2.592465877532959 -5.463505744934082 -2.5
-2.1444287300109863 -5.654389381408691 -2.5
-1.209633708000183 -5.925160884857178 -2.5
-0.24350585043430328 -6.042470455169678 -2.5
0.24350585043430328 -6.042465686798096 -2.5
0.7289355397224426 -6.003281116485596 -2.5
1.2096288204193115 -5.925160884857178 -2.5
2.1444287300109863 -5.654394626617432 -2.5
3.435302734375 -4.976889610290527 -2.5
4.189165115356445 -4.361376762390137 -2.5
4.526523113250732 -4.010151386260986 -2.5
4.834526062011719 -3.6329150199890137 -2.5
5.111176490783691 -3.232123851776123 -2.5
5.736156940460205 -1.915004849433899 -2.5
5.871654987335205 -1.4472362995147705 -2.5
6.027763366699219 -0.4866113066673279 -2.5
-5.862519264221191 0.0 -2.5
-5.843510627746582 -0.4717431664466858 -2.5
-5.786596775054932 -0.9404199123382568 -2.5
-5.692158222198486 -1.4029979705810547 -2.5
-5.560810565948486 -1.8564794063568115 -2.5
-5.393388748168945 -2.297910213470459 -2.5
-4.954941272735596 -3.1333203315734863 -2.5
-4.388159275054932 -3.887563467025757 -2.5
-3.3302879333496094 -4.824760437011719 -2.5
-2.0788817405700684 -5.481547832489014 -2.5
-1.6310595273971558 -5.631049633026123 -2.5
-1.1726561784744263 -5.744032859802246 -2.5
-0.7066454887390137 -5.819770336151123 -2.5
1.6310546398162842 -5.631054401397705 -2.5
2.5132129192352295 -5.296494007110596 -2.5
2.9312596321105957 -5.077089786529541 -2.5
3.707719564437866 -4.541132926940918 -2.5
4.061103343963623 -4.228066444396973 -2.5
5.191005706787109 -2.7244482040405273 -2.5
5.393398284912109 -2.297910213470459 -2.5
5.560810565948486 -1.8564696311950684 -2.5
5.692162990570068 -1.402993083000183 -2.5
5.786601543426514 -0.9404150247573853 -2.5
-5.6685791015625 -0.4576171636581421 -2.5
-5.521767616271973 -1.361000895500183 -2.5
-5.394340515136719 -1.8008935451507568 -2.5
-5.231943130493164 -2.2291259765625 -2.5
-4.806616306304932 -3.0395262241363525 -2.5
-4.546445369720459 -3.416435480117798 -2.5
-4.256796836853027 -3.771191358566284 -2.5
-3.596733331680298 -4.405195236206055 -2.5
-3.230595588684082 -4.68032693862915 -2.5
-2.843510627746582 -4.925102233886719 -2.5
-2.0166454315185547 -5.317461013793945 -2.5
-1.137548804283142 -5.572089672088623 -2.5
0.685498058795929 -5.645556449890137 -2.5
1.1375536918640137 -5.572089672088623 -2.5
1.5822314023971558 -5.462490081787109 -2.5
2.0166454315185547 -5.317455768585205 -2.5
3.9395360946655273 -4.101493835449219 -2.5
4.546454906463623 -3.416435480117798 -2.5
5.035610198974609 -2.642885684967041 -2.5
-4.887856483459473 -2.5653514862060547 -2.5
-4.413046836853027 -3.3161914348602295 -2.5
-4.131894588470459 -3.660537004470825 -2.5
-3.8239500522613525 -3.981142520904541 -2.5
-2.760077953338623 -4.780600547790527 -2.5
-2.366445302963257 -4.9871826171875 -2.5
-1.1041747331619263 -5.40859842300415 -2.5
-0.22227539122104645 -5.515683650970459 -2.5
0.6653808355331421 -5.479902267456055 -2.5
1.1041747331619263 -5.40859842300415 -2.5
1.535805583000183 -5.302206993103027 -2.5
1.9574755430221558 -5.161440372467041 -2.5
3.135805606842041 -4.543002605438232 -2.5
3.8239452838897705 -3.981157064437866 -2.5
4.131899356842041 -3.6605467796325684 -2.5
4.887861251831055 -2.5653467178344727 -2.5
5.078427791595459 -2.1637158393859863 -2.5
5.502260684967041 -0.4441894292831421 -2.5
-5.361269474029541 4.882812390860636e-06 -2.5
-5.205478191375732 -1.2830370664596558 -2.5
-5.08535623550415 -1.6977441310882568 -2.5
-4.747168064117432 -2.491508722305298 -2.5
-4.531289100646973 -2.865419864654541 -2.5
-4.286025524139404 -3.2207372188568115 -2.5
-4.012963771820068 -3.555180549621582 -2.5
-3.713881731033325 -3.8665575981140137 -2.5
-2.6806347370147705 -4.642988204956055 -2.5
-2.2983250617980957 -4.843637466430664 -2.5
-1.4915966987609863 -5.149589538574219 -2.5
-1.0723925828933716 -5.252919673919678 -2.5
0.2158789038658142 -5.356914043426514 -2.5
0.6462304592132568 -5.32217264175415 -2.5
1.0723925828933716 -5.252919673919678 -2.5
1.491601586341858 -5.149584770202637 -2.5
1.9011279344558716 -5.012870788574219 -2.5
2.298334836959839 -4.843642234802246 -2.5
2.6806347370147705 -4.642988204956055 -2.5
3.3907079696655273 -4.152865886688232 -2.5
3.713876962661743 -3.8665575981140137 -2.5
4.01296854019165 -3.555180549621582 -2.5
4.286025524139404 -3.2207422256469727 -2.5
4.747168064117432 -2.491503953933716 -2.5
4.932255744934082 -2.101435422897339 -2.5
5.205483436584473 -1.2830370664596558 -2.5
