ply
format ascii 1.0
element vertex 734
property float x
property float y
property float z
end_header
19.552555084228516 6.527607440948486 3.6052660942077637
20.446943283081055 6.82620096206665 2.7923901081085205
-14.793803215026855 18.11912727355957 0.9401458501815796
-13.821029663085938 20.023189544677734 0.707930862903595
-13.821029663085938 20.023193359375 0.4381667971611023
-14.793798446655273 18.11912727355957 0.421263724565506
-13.821029663085938 20.023193359375 -0.37074294686317444
-13.821029663085938 20.0231876373291 -0.6404742002487183
-14.793803215026855 18.11912727355957 -0.6157635450363159
14.378618240356445 20.831031799316406 -0.9470919370651245
-13.821029663085938 20.023193359375 -0.9103626608848572
-0.7888574004173279 6.496777057647705 -0.3175375163555145
-12.222631454467773 21.17021369934082 -1.1860668659210205
-12.227802276611328 17.714996337890625 -1.0443944931030273
-14.793798446655273 18.11912727355957 -1.1349364519119263
-19.108646392822266 19.89421844482422 -1.3383948802947998
14.034921646118164 20.333086013793945 -1.4733335971832275
12.780492782592773 26.93439483642578 -1.7778363227844238
-12.222636222839355 21.17022132873535 -1.4577511548995972
-12.227802276611328 17.71500015258789 -1.2836272716522217
-13.595512390136719 16.65149688720703 -1.281922459602356
13.967133522033691 20.234882354736328 -1.7398412227630615
12.780492782592773 26.934391021728516 -2.1096131801605225
5.812328815460205 15.325859069824219 -1.1598609685897827
-12.222617149353027 21.170175552368164 -1.7297921180725098
-12.227802276611328 17.71500015258789 -1.5231759548187256
27.82847785949707 6.85912561416626 -2.347599983215332
22.91309356689453 17.21807861328125 -2.347599983215332
13.969443321228027 20.238229751586914 -2.0142292976379395
5.717196941375732 15.0750093460083 -1.320583462715149
1.1540625095367432 28.638084411621094 -2.347599983215332
-1.154086947441101 28.638084411621094 -2.347599983215332
-0.7888574004173279 6.496777057647705 -0.5360472202301025
-13.595512390136719 16.65149688720703 -1.7607612609863281
-15.40499496459961 16.038305282592773 -1.8214988708496094
-26.36786651611328 11.234272003173828 -2.347599983215332
26.86015510559082 9.765624781721272e-06 -2.5
26.77305030822754 2.1613523960113525 -2.5
23.924707412719727 7.987255573272705 -2.347599983215332
22.33363914489746 11.721606254577637 -2.347599983215332
21.318012237548828 13.480717658996582 -2.347599983215332
18.606674194335938 19.37161636352539 -2.5
13.430063247680664 23.261581420898438 -2.5
11.514731407165527 24.26683807373047 -2.5
7.472944259643555 25.799667358398438 -2.5
3.237622022628784 26.664316177368164 -2.5
1.0156201124191284 25.202308654785156 -2.347599983215332
-1.0156152248382568 25.20230484008789 -2.347599983215332
-5.045214653015137 24.713024139404297 -2.347599983215332
-10.8128023147583 22.78751564025879 -2.347599983215332
-11.941450119018555 17.300151824951172 -1.9565467834472656
-13.325336456298828 16.32059097290039 -1.9610416889190674
-14.9771728515625 15.592900276184082 -2.012338161468506
-17.96672821044922 15.917133331298828 -2.234097957611084
-22.33365249633789 11.721596717834473 -2.347599983215332
-23.204437255859375 9.886479377746582 -2.347599983215332
-26.079652786254883 6.428066253662109 -2.5
-26.512338638305664 4.308696269989014 -2.5
23.977569580078125 1.4648437172581907e-05 -2.5
23.28081703186035 5.738222599029541 -2.5
22.502567291259766 7.512465476989746 -2.473505735397339
21.539386749267578 9.177075386047363 -2.4411256313323975
20.97920036315918 11.010737419128418 -2.4703407287597656
19.168685913085938 14.404340744018555 -2.5
17.947450637817383 15.9000825881958 -2.5
16.609838485717773 17.29269027709961 -2.5
13.620790481567383 19.73312759399414 -2.5
11.988779067993164 20.765188217163086 -2.5
5.598412990570068 14.761801719665527 -1.6460949182510376
5.311806678771973 18.33850860595703 -1.9906420707702637
4.796137809753418 23.492992401123047 -2.5
2.8901708126068115 23.802745819091797 -2.5
-4.503774166107178 22.060890197753906 -2.347599983215332
-7.98424768447876 21.052759170532227 -2.347599983215332
-11.257983207702637 19.499330520629883 -2.347599983215332
-11.925732612609863 17.277374267578125 -2.188877582550049
-13.311576843261719 16.303730010986328 -2.1945295333862305
-14.977182388305664 15.592900276184082 -2.2542624473571777
-16.8533878326416 14.930800437927246 -2.347599983215332
-17.99894905090332 13.52633285522461 -2.347599983215332
-19.030208587646484 12.033979415893555 -2.347599983215332
-19.936845779418945 10.463637351989746 -2.347599983215332
-20.71416473388672 8.825483322143555 -2.347599983215332
-21.357152938842773 7.130073070526123 -2.347599983215332
-23.667055130004883 3.8462841510772705 -2.5
-23.899818420410156 1.9293944835662842 -2.5
21.57868766784668 1.7420165538787842 -2.5
20.534757614135742 6.855512619018555 -2.5
19.916532516479492 8.485649108886719 -2.5
19.169139862060547 10.060742378234863 -2.5
18.297422409057617 11.570605278015137 -2.5
16.204418182373047 14.355883598327637 -2.5
14.9967041015625 15.613242149353027 -2.5
13.691733360290527 16.769351959228516 -2.5
12.297968864440918 17.816694259643555 -2.5
9.280702590942383 19.5587100982666 -2.5
5.590615272521973 14.741244316101074 -1.8206204175949097
5.311806678771973 18.338491439819336 -2.2047650814056396
4.330337047576904 21.21137809753418 -2.5
2.6094775199890137 21.49104881286621 -2.5
0.8185644149780273 20.312686920166016 -2.347599983215332
-0.8185741901397705 20.31269073486328 -2.347599983215332
-0.7888574004173279 6.496777057647705 -0.7557550072669983
-4.066371917724609 19.918336868286133 -2.347599983215332
-7.569286823272705 13.110414505004883 -1.748190999031067
-14.08250904083252 14.661459922790527 -2.347599983215332
-15.216586112976074 13.480741500854492 -2.347599983215332
-16.252012252807617 12.212602615356445 -2.347599983215332
-19.282968521118164 6.437597274780273 -2.347599983215332
-21.57868194580078 1.7420116662979126 -2.5
18.712711334228516 6.24722146987915 -2.5
17.4682559967041 9.168051719665527 -2.5
16.673887252807617 10.5439453125 -2.5
12.4768648147583 15.281400680541992 -2.5
11.206767082214355 16.235809326171875 -2.5
9.863984107971191 17.084936141967773 -2.5
8.457226753234863 17.823261260986328 -2.5
5.488671779632568 18.94908905029297 -2.5
2.3772168159484863 19.578205108642578 -2.499241590499878
-0.7459521293640137 18.51034164428711 -2.347599983215332
-0.7888574004173279 6.496777057647705 -0.8293420076370239
-3.70556640625 18.15097427368164 -2.347599983215332
-6.569184303283691 17.32151985168457 -2.347599983215332
-7.941684246063232 16.73675537109375 -2.347599983215332
-8.660552024841309 12.546957969665527 -1.931989073753357
-13.866439819335938 12.284594535827637 -2.347599983215332
-15.65746021270752 9.901176452636719 -2.347599983215332
-17.57198715209961 5.866391658782959 -2.347599983215332
-19.472515106201172 3.164599657058716 -2.5
-19.664012908935547 1.587441325187683 -2.5
18.116052627563477 0.0 -2.5
18.05730628967285 1.4577441215515137 -2.5
17.183734893798828 5.736782073974609 -2.5
16.666391372680664 7.100888729095459 -2.5
10.291083335876465 14.909223556518555 -2.5
9.058012962341309 15.68896484375 -2.5
5.040200233459473 17.400800704956055 -2.5
3.623671770095825 17.749942779541016 -2.5
2.180131673812866 17.955055236816406 -2.4959802627563477
-0.7888574004173279 6.496777057647705 -0.9031367301940918
-3.4027929306030273 16.667905807495117 -2.347599983215332
-4.732968807220459 16.340044021606445 -2.347599983215332
-7.592260360717773 13.15017032623291 -2.095449924468994
-8.660552024841309 12.546957969665527 -2.1038930416107178
-10.758974075317383 13.177352905273438 -2.347599983215332
-12.733437538146973 11.280854225158691 -2.347599983215332
-13.59988784790039 10.219648361206055 -2.347599983215332
-14.378124237060547 9.092177391052246 -2.347599983215332
-16.136215209960938 5.387055397033691 -2.347599983215332
16.743755340576172 0.0 -2.5
16.257211685180664 4.007055759429932 -2.5
15.882060050964355 5.302216529846191 -2.5
14.825854301452637 7.781205654144287 -2.5
13.385673522949219 10.05868148803711 -2.5
12.53287124633789 11.103178024291992 -2.5
10.58950138092041 12.969804763793945 -2.5
9.5115327835083 13.7798433303833 -2.5
5.937421798706055 15.655683517456055 -2.5
4.658403396606445 16.08267593383789 -2.5
3.34917950630188 16.405376434326172 -2.5
0.6330956816673279 15.710302352905273 -2.347599983215332
-0.633105456829071 15.710307121276855 -2.347599983215332
-1.8952147960662842 15.60842227935791 -2.347599983215332
-4.374443054199219 15.102274894714355 -2.347599983215332
-6.740370750427246 14.204999923706055 -2.347599983215332
-8.591288566589355 12.446606636047363 -2.2581193447113037
-10.891742706298828 11.339516639709473 -2.347599983215332
-12.569686889648438 9.445517539978027 -2.347599983215332
-13.28897476196289 8.4034423828125 -2.347599983215332
-13.922094345092773 7.306869983673096 -2.347599983215332
-14.464892387390137 6.162909984588623 -2.347599983215332
-14.913896560668945 4.978999137878418 -2.347599983215332
-16.25721549987793 4.007050514221191 -2.5
15.561083793640137 9.765624781721272e-06 -2.5
15.359575271606445 2.4961864948272705 -2.5
15.108905792236328 3.7240233421325684 -2.5
13.152070045471191 8.316879272460938 -2.5
12.440195083618164 9.348207473754883 -2.5
11.647631645202637 10.318910598754883 -2.5
7.780537128448486 13.476303100585938 -2.5
5.518036842346191 14.549867630004883 -2.5
0.5884228348731995 14.600629806518555 -2.347599983215332
-0.5883886814117432 14.600629806518555 -2.347599983215332
-1.7613525390625 14.505942344665527 -2.347599983215332
-2.9228808879852295 14.317182540893555 -2.347599983215332
-5.181664943695068 13.662909507751465 -2.347599983215332
-10.122416496276855 10.538564682006836 -2.347599983215332
-11.68185043334961 8.778339385986328 -2.347599983215332
-13.443187713623047 5.727607250213623 -2.347599983215332
14.342880249023438 2.3309569358825684 -2.5
14.108808517456055 3.4775195121765137 -2.5
13.783231735229492 4.601528167724609 -2.5
12.281494140625 7.766371726989746 -2.5
11.616743087768555 8.729433059692383 -2.5
10.876640319824219 9.635883331298828 -2.5
9.19008731842041 11.255834579467773 -2.5
7.265527248382568 12.584267616271973 -2.5
6.22936487197876 13.128095626831055 -2.5
5.152773380279541 13.586776733398438 -2.5
1.644741177558899 13.545756340026855 -2.347599983215332
0.5494335889816284 13.63417911529541 -2.347599983215332
-0.5494433641433716 13.63417911529541 -2.347599983215332
-2.7294092178344727 13.369477272033691 -2.347599983215332
-3.796381711959839 13.106498718261719 -2.347599983215332
-11.53282642364502 7.292914867401123 -2.347599983215332
-12.082260131835938 6.341254711151123 -2.347599983215332
-12.553339958190918 5.348476409912109 -2.347599983215332
-14.342875480651855 2.3309569358825684 -2.5
-14.483935356140137 1.1692577600479126 -2.5
13.6256685256958 9.765624781721272e-06 -2.5
13.449223518371582 2.185717821121216 -2.5
13.229731559753418 3.2608447074890137 -2.5
12.5353364944458 5.340810298919678 -2.5
12.06493091583252 6.332172870635986 -2.5
8.617480278015137 10.554521560668945 -2.5
7.740258693695068 11.213706016540527 -2.5
6.812831878662109 11.800175666809082 -2.5
5.841210842132568 12.310126304626465 -2.5
2.7254834175109863 13.35030746459961 -2.5
1.542260766029358 12.701762199401855 -2.347599983215332
-0.5152050852775574 12.784672737121582 -2.347599983215332
-1.5422899723052979 12.701757431030273 -2.347599983215332
-2.5593554973602295 12.536469459533691 -2.347599983215332
-3.559819221496582 12.289877891540527 -2.347599983215332
-4.537187576293945 11.963583946228027 -2.347599983215332
-8.092172622680664 9.911112785339355 -2.347599983215332
-8.863447189331055 9.227827072143555 -2.347599983215332
-9.57723617553711 8.484686851501465 -2.347599983215332
-10.228910446166992 7.686528205871582 -2.347599983215332
-7.773564338684082 4.915702819824219 -1.687514305114746
-12.625336647033691 4.214955806732178 -2.4421420097351074
-13.229736328125 3.2608447074890137 -2.5
12.657387733459473 2.0570361614227295 -2.5
12.450819969177246 3.068857431411743 -2.5
11.797304153442383 5.0263671875 -2.5
11.354594230651855 5.959360122680664 -2.5
8.883105278015137 9.248305320739746 -2.5
5.497304439544678 11.585355758666992 -2.5
4.547250747680664 11.990131378173828 -2.5
3.567695140838623 12.317152976989746 -2.5
2.565019369125366 12.564291954040527 -2.5
-1.451503872871399 11.953940391540527 -2.347599983215332
-2.4086718559265137 11.79837417602539 -2.347599983215332
-6.02086877822876 10.428442001342773 -2.347599983215332
-9.626679420471191 7.233979225158691 -2.347599983215332
-10.662426948547363 5.59606409072876 -2.347599983215332
-12.138564109802246 4.052451133728027 -2.494873285293579
12.10750961303711 4.882812390860636e-06 -2.5
12.068251609802246 0.9742528796195984 -2.5
11.755688667297363 2.897524356842041 -2.5
11.484414100646973 3.8340721130371094 -2.5
11.13866138458252 4.745737075805664 -2.5
10.720673561096191 5.626645565032959 -2.5
9.6792573928833 7.273496150970459 -2.5
8.387163162231445 8.73196792602539 -2.5
6.877846717834473 9.964286804199219 -2.5
6.053754806518555 10.485414505004883 -2.5
5.190385818481445 10.938544273376465 -2.5
4.293374061584473 11.320717811584473 -2.5
3.3685154914855957 11.629487037658691 -2.5
2.421811580657959 11.862821578979492 -2.5
1.3704540729522705 11.286547660827637 -2.347599983215332
-2.274184465408325 11.13967227935791 -2.347599983215332
-5.684716701507568 9.84622573852539 -2.347599983215332
-7.875888347625732 8.199667930603027 -2.347599983215332
-9.089213371276855 6.83010721206665 -2.347599983215332
-7.752177715301514 4.902187347412109 -1.893889307975769
-10.459643363952637 4.456440448760986 -2.347599983215332
-11.478032112121582 3.8319334983825684 -2.498610734939575
-11.950722694396973 1.9421923160552979 -2.5
11.464516639709473 9.765624781721272e-06 -2.5
11.427338600158691 0.9225195050239563 -2.5
11.316049575805664 1.8390477895736694 -2.5
11.131376266479492 2.743647336959839 -2.5
10.87451171875 3.630449056625366 -2.5
9.1652193069458 6.887226581573486 -2.5
7.941742897033691 8.268251419067383 -2.5
6.512582778930664 9.435107231140137 -2.5
5.732250690460205 9.928559303283691 -2.5
4.914736270904541 10.357622146606445 -2.5
4.065366268157959 10.719501495361328 -2.5
3.189624071121216 11.01187515258789 -2.5
2.2920947074890137 11.22740650177002 -2.498793363571167
1.2976610660552979 10.687138557434082 -2.347599983215332
-0.43349120020866394 10.756903648376465 -2.347599983215332
-1.297646403312683 10.687148094177246 -2.347599983215332
-2.153398275375366 10.548066139221191 -2.347599983215332
-3.8175487518310547 10.066049575805664 -2.347599983215332
-4.615160942077637 9.72622013092041 -2.347599983215332
-5.382826805114746 9.323320388793945 -2.347599983215332
-6.115585803985596 8.859941482543945 -2.347599983215332
-7.741464614868164 4.895410060882568 -1.9973443746566772
-9.53250503540039 5.003036975860596 -2.347599983215332
10.88370132446289 9.765624781721272e-06 -2.5
10.567436218261719 2.6046483516693115 -2.5
10.01278305053711 4.266054630279541 -2.5
8.700898170471191 6.538300514221191 -2.5
8.146557807922363 7.217231273651123 -2.5
7.539399147033691 7.849355220794678 -2.5
5.441850662231445 9.425565719604492 -2.5
2.175405263900757 10.655858993530273 -2.498150587081909
-1.2319287061691284 10.145722389221191 -2.347599983215332
-2.044316291809082 10.013681411743164 -2.347599983215332
-3.624135732650757 9.556083679199219 -2.347599983215332
-4.381332874298096 9.233476638793945 -2.347599983215332
-5.110116958618164 8.850981712341309 -2.347599983215332
-7.079809188842773 7.370859146118164 -2.347599983215332
-7.649946212768555 6.777265548706055 -2.347599983215332
-8.170488357543945 6.139731407165527 -2.347599983215332
-7.730722427368164 4.888613224029541 -2.1010148525238037
-9.049570083618164 4.749579906463623 -2.347599983215332
-10.567450523376465 2.6046435832977295 -2.5
-10.742758750915527 1.74587881565094 -2.5
10.356351852416992 4.882812390860636e-06 -2.5
10.055415153503418 2.478447198867798 -2.5
9.823378562927246 3.279536008834839 -2.5
9.527631759643555 4.059340953826904 -2.5
9.170097351074219 4.812846660614014 -2.5
7.7518310546875 6.867543697357178 -2.5
7.174096584320068 7.469033241271973 -2.5
5.88308572769165 8.523110389709473 -2.5
5.178173542022705 8.968867301940918 -2.5
4.439682483673096 9.356454849243164 -2.5
2.069951057434082 10.1392822265625 -2.4980850219726562
-1.1722412109375 9.654126167297363 -2.347599983215332
-3.448549747467041 9.093070983886719 -2.347599983215332
-4.862519264221191 8.422119140625 -2.347599983215332
-5.524457931518555 8.003544807434082 -2.347599983215332
-6.150551795959473 7.533056259155273 -2.347599983215332
-6.736767292022705 7.013725280761719 -2.347599983215332
-7.27929162979126 6.448891639709473 -2.347599983215332
-7.774609088897705 5.842241287231445 -2.347599983215332
-8.611093521118164 4.519443035125732 -2.347599983215332
-10.055419921875 2.478442430496216 -2.5
-10.222246170043945 1.6612792015075684 -2.5
-10.322768211364746 0.8333398103713989 -2.5
9.8753023147583 4.882812390860636e-06 -2.5
9.843276023864746 0.7946337461471558 -2.5
9.747416496276855 1.5841259956359863 -2.5
9.085067749023438 3.870790958404541 -2.5
2.7474756240844727 9.4854097366333 -2.5
-0.3734081983566284 9.265786170959473 -2.347599983215332
-1.8549071550369263 9.08590316772461 -2.347599983215332
-2.5799999237060547 8.907172203063965 -2.347599983215332
-3.97540020942688 8.377968788146973 -2.347599983215332
-4.636660099029541 8.03091812133789 -2.347599983215332
-5.26785135269165 7.631767272949219 -2.347599983215332
-5.864858150482178 7.183158874511719 -2.347599983215332
-6.941166877746582 6.149350643157959 -2.347599983215332
-7.413471698760986 5.570859432220459 -2.347599983215332
-7.709165096282959 4.874975681304932 -2.309098243713379
-9.84328556060791 0.7946337461471558 -2.5
9.43459415435791 0.0 -2.5
9.404004096984863 0.7591747641563416 -2.5
9.312426567077637 1.5134228467941284 -2.5
8.679638862609863 3.698051691055298 -2.5
7.542426586151123 5.667768478393555 -2.5
7.061894416809082 6.256308555603027 -2.5
6.535571098327637 6.804257869720459 -2.5
5.966855525970459 7.308085918426514 -2.5
4.044531345367432 8.523700714111328 -2.5
1.8866552114486694 9.241484642028809 -2.4993395805358887
1.0678759813308716 8.794878005981445 -2.347599983215332
-1.7721288204193115 8.680419921875 -2.347599983215332
-2.4648680686950684 8.50967788696289 -2.347599983215332
-4.429740905761719 7.672524452209473 -2.347599983215332
-5.603129863739014 6.862592697143555 -2.347599983215332
-6.631401062011719 5.87490701675415 -2.347599983215332
-7.08263635635376 5.322260856628418 -2.347599983215332
-7.487929344177246 4.735083103179932 -2.347599983215332
-8.679638862609863 3.6980466842651367 -2.5
-8.949067115783691 2.9876365661621094 -2.5
-9.312431335449219 1.513427734375 -2.5
-9.404013633728027 0.75916987657547 -2.5
9.029272079467773 0.0 -2.5
8.999995231628418 0.7265625 -2.5
8.912348747253418 1.448403239250183 -2.5
8.766899108886719 2.1608543395996094 -2.5
8.564594268798828 2.8592920303344727 -2.5
7.995028972625732 4.196123123168945 -2.5
7.218388557434082 5.424272537231445 -2.5
6.254794597625732 6.511938095092773 -2.5
5.129213809967041 7.430947303771973 -2.5
3.2018163204193115 8.442519187927246 -2.5
1.0220019817352295 8.417031288146973 -2.347599983215332
0.3414062559604645 8.471972465515137 -2.347599983215332
-0.3414062559604645 8.471972465515137 -2.347599983215332
-1.0220214128494263 8.417036056518555 -2.347599983215332
-1.6959911584854126 8.3074951171875 -2.347599983215332
-3.634819269180298 7.660224437713623 -2.347599983215332
-4.816547870635986 6.977953910827637 -2.347599983215332
-5.362407207489014 6.567768573760986 -2.347599983215332
-5.873510837554932 6.114975452423096 -2.347599983215332
-6.346508502960205 5.622529029846191 -2.347599983215332
-6.778359413146973 5.093613147735596 -2.347599983215332
-7.166240215301514 4.531664848327637 -2.347599983215332
-8.306753158569336 3.539174795150757 -2.5
-8.766899108886719 2.1608543395996094 -2.5
-9.0 0.7265527248382568 -2.5
8.627084732055664 0.696459949016571 -2.5
8.209731101989746 2.7408201694488525 -2.5
7.663749694824219 4.022255897521973 -2.5
7.315238952636719 4.625888347625732 -2.5
5.99563455581665 6.242118835449219 -2.5
5.47390604019165 6.704330921173096 -2.5
4.916674613952637 7.123046875 -2.5
0.3272656202316284 8.12093734741211 -2.347599983215332
-0.3272753953933716 8.120946884155273 -2.347599983215332
-2.261235237121582 7.806645393371582 -2.347599983215332
-2.8820605278015137 7.599379539489746 -2.347599983215332
-4.063769340515137 7.038652420043945 -2.347599983215332
-6.083544731140137 5.38955545425415 -2.347599983215332
-6.497499942779541 4.882563591003418 -2.347599983215332
-6.869311332702637 4.343886852264404 -2.347599983215332
-7.962568283081055 3.392529249191284 -2.5
-8.209731101989746 2.7408103942871094 -2.5
-8.40365219116211 2.0713133811950684 -2.5
-8.627084732055664 0.6964501738548279 -2.5
8.308671951293945 4.882812390860636e-06 -2.5
8.20108413696289 1.3328173160552979 -2.5
7.356967449188232 3.8612401485443115 -2.5
6.219125747680664 5.50967264175415 -2.5
5.254780292510986 6.43594217300415 -2.5
4.719868183135986 6.837904930114746 -2.5
4.154330730438232 7.195522308349609 -2.5
3.5618553161621094 7.506484031677246 -2.5
2.946293830871582 7.768740177154541 -2.5
0.3141552805900574 7.795849323272705 -2.347599983215332
-1.5606396198272705 7.644501686096191 -2.347599983215332
-2.170707941055298 7.494130611419678 -2.347599983215332
-3.3447508811950684 7.048881530761719 -2.347599983215332
-4.934453010559082 6.043603420257568 -2.347599983215332
-5.404760837554932 5.626962661743164 -2.347599983215332
-6.237397193908691 4.687099456787109 -2.347599983215332
-6.675038814544678 4.221039772033691 -2.376333475112915
-7.35155725479126 3.8583984375 -2.498162269592285
-7.881083965301514 2.6310887336730957 -2.5
-8.067245483398438 1.9883984327316284 -2.5
-8.281733512878418 0.6685693264007568 -2.5
7.986806392669678 4.882812390860636e-06 -2.5
7.347704887390137 3.130566358566284 -2.5
6.7503662109375 4.268681526184082 -2.5
5.978208065032959 5.296240329742432 -2.5
4.537031173706055 6.573022365570068 -2.5
3.993398427963257 6.916781902313232 -2.5
3.4238767623901367 7.21569299697876 -2.5
2.2220654487609863 7.671479225158691 -2.5
1.59756338596344 7.825395107269287 -2.5
0.9606005549430847 7.911298751831055 -2.4945499897003174
-0.8062744140625 6.64025354385376 -2.0937700271606445
-2.6595213413238525 7.012563228607178 -2.347599983215332
-3.2151708602905273 6.775820255279541 -2.347599983215332
-4.260458946228027 6.172333717346191 -2.347599983215332
-5.195385456085205 5.408979415893555 -2.347599983215332
-5.995766639709473 4.505532264709473 -2.347599983215332
-6.649736404418945 4.205043792724609 -2.4627292156219482
-7.754741191864014 1.911376953125 -2.5
-7.960917949676514 0.6426659822463989 -2.5
7.587416648864746 1.2330858707427979 -2.5
7.291357040405273 2.434218645095825 -2.5
6.806469440460205 3.5723142623901367 -2.5
5.324946403503418 5.543857097625732 -2.5
4.861581802368164 5.954365253448486 -2.5
4.36669921875 6.326254844665527 -2.5
3.8434765338897705 6.65709924697876 -2.5
2.725825071334839 7.187441349029541 -2.5
2.1386425495147705 7.383461952209473 -2.5
1.5375927686691284 7.531620979309082 -2.5
0.9252538681030273 7.62023401260376 -2.496499538421631
-0.7988232374191284 6.578930377960205 -2.155351400375366
-2.0082859992980957 6.933369159698486 -2.347599983215332
-4.100502967834473 5.940605163574219 -2.347599983215332
-5.000341892242432 5.205898284912109 -2.347599983215332
-5.770673751831055 4.336381912231445 -2.347599983215332
-6.806469440460205 3.5722997188568115 -2.5
-7.071845531463623 3.0130369663238525 -2.5
-7.463603496551514 1.8396142721176147 -2.5
-7.662040710449219 0.6185400485992432 -2.5
7.406874656677246 4.882812390860636e-06 -2.5
7.382851600646973 0.5960107445716858 -2.5
6.814174652099609 2.903247117996216 -2.5
6.558456897735596 3.442143440246582 -2.5
5.921371936798096 4.449618816375732 -2.5
5.130918025970459 5.341850280761719 -2.5
4.684443473815918 5.737402439117432 -2.5
2.060717821121216 7.114438533782959 -2.5
1.4815624952316284 7.257187366485596 -2.5
0.8922851085662842 7.34866189956665 -2.4985690116882324
0.28865721821784973 7.163007736206055 -2.419649362564087
-0.2800634801387787 6.94970703125 -2.347599983215332
-0.775317370891571 6.385312557220459 -2.171025276184082
-1.9351073503494263 6.680737018585205 -2.347599983215332
-3.477675676345825 6.023515701293945 -2.347599983215332
-4.818139553070068 5.016230583190918 -2.347599983215332
-5.206152439117432 4.612260818481445 -2.347599983215332
-6.251591682434082 3.953261613845825 -2.496554136276245
-6.55846643447876 3.442143440246582 -2.5
-6.814179420471191 2.903247117996216 -2.5
-7.191640377044678 1.7725830078125 -2.5
-7.382861137390137 0.595996081829071 -2.5
7.121420860290527 0.5749072432518005 -2.5
7.052065372467041 1.1460790634155273 -2.5
6.936977386474609 1.7098193168640137 -2.5
6.5728759765625 2.8004393577575684 -2.5
6.326215744018555 3.320258617401123 -2.5
6.038530349731445 3.81853985786438 -2.5
5.711689472198486 4.292055606842041 -2.5
5.347792625427246 4.737739086151123 -2.5
4.949223518371582 5.152695178985596 -2.5
2.533510684967041 6.680312156677246 -2.5
1.9877489805221558 6.862504959106445 -2.5
1.429101586341858 7.000200271606445 -2.5
0.28682616353034973 7.117578029632568 -2.492570161819458
-0.2701464891433716 6.703618049621582 -2.347599983215332
-1.302734375 6.381215572357178 -2.278965950012207
-1.8665820360183716 6.444174766540527 -2.347599983215332
-2.3790674209594727 6.273076057434082 -2.347599983215332
-3.3545262813568115 5.810204982757568 -2.347599983215332
-3.8111865520477295 5.521440505981445 -2.347599983215332
-4.647524356842041 4.838588714599609 -2.347599983215332
-5.021801471710205 4.448935508728027 -2.347599983215332
-6.035805702209473 3.8168113231658936 -2.4988670349121094
-6.572880744934082 2.8004443645477295 -2.5
-6.936986923217773 1.7098095417022705 -2.5
-7.052070140838623 1.146083950996399 -2.5
6.809072017669678 1.1065869331359863 -2.5
6.697958946228027 1.6508984565734863 -2.5
6.543388366699219 2.184501886367798 -2.5
6.108237266540527 3.2058446407318115 -2.5
5.514887809753418 4.144169807434082 -2.5
4.362861156463623 5.343539714813232 -2.5
3.9187400341033936 5.677279949188232 -2.5
3.4491991996765137 5.974199295043945 -2.5
2.9572949409484863 6.232372760772705 -2.5
2.4462060928344727 6.450126647949219 -2.5
1.9192577600479126 6.626044750213623 -2.5
1.379858374595642 6.758998870849609 -2.5
0.8315087556838989 6.848110198974609 -2.5
-2.2970898151397705 6.056933403015137 -2.347599983215332
-3.238945245742798 5.610009670257568 -2.347599983215332
-3.679863214492798 5.331186294555664 -2.347599983215332
-4.096904277801514 5.017797946929932 -2.347599983215332
-4.487392425537109 4.671864986419678 -2.347599983215332
-5.830468654632568 3.686962842941284 -2.5
6.666835784912109 4.882812390860636e-06 -2.5
6.645214557647705 0.5364648103713989 -2.5
6.323740005493164 2.1111717224121094 -2.5
5.9031982421875 3.0982372760772705 -2.5
5.329751014709473 4.005043983459473 -2.5
4.990204811096191 4.420937538146973 -2.5
3.7871971130371094 5.486703872680664 -2.5
3.3334178924560547 5.773657321929932 -2.5
2.858022451400757 6.023159027099609 -2.5
2.364086866378784 6.233608245849609 -2.5
1.854833960533142 6.403623104095459 -2.5
1.333535075187683 6.532109260559082 -2.5
0.8035986423492432 6.618232250213623 -2.5
-0.7546142339706421 6.214780330657959 -2.347599983215332
-1.7417675256729126 6.013261795043945 -2.347599983215332
-2.219980478286743 5.853613376617432 -2.347599983215332
-2.6838035583496094 5.655995845794678 -2.347599983215332
-3.1302146911621094 5.421689510345459 -2.347599983215332
-3.9593799114227295 4.849370002746582 -2.347599983215332
-4.336748123168945 4.51504373550415 -2.347599983215332
-5.321235179901123 3.9986572265625 -2.496001958847046
-5.634746074676514 3.5632030963897705 -2.5
-5.90319299697876 3.0982372760772705 -2.5
-6.323750019073486 2.1111814975738525 -2.5
-6.473114967346191 1.5954785346984863 -2.5
-6.580512523651123 1.0694433450698853 -2.5
-6.645224571228027 0.5364599227905273 -2.5
6.448554515838623 0.0 -2.5
6.427646160125732 0.5188915729522705 -2.5
6.365048885345459 1.034423828125 -2.5
6.261181354522705 1.54324209690094 -2.5
5.932538986206055 2.5276269912719727 -2.5
5.155253887176514 3.8739256858825684 -2.5
4.826816082000732 4.276191234588623 -2.5
4.467074871063232 4.650722503662109 -2.5
4.078364372253418 4.995087623596191 -2.5
3.663203001022339 5.307065486907959 -2.5
3.2242772579193115 5.584614276885986 -2.5
2.7644433975219727 5.82595682144165 -2.5
0.2596093714237213 6.442138671875 -2.49953556060791
-0.25895994901657104 6.426005840301514 -2.493277072906494
-0.73878413438797 6.084403991699219 -2.376145839691162
-1.2112548351287842 5.933085918426514 -2.347599983215332
-2.147294759750366 5.661948204040527 -2.347599983215332
-2.595937490463257 5.470815181732178 -2.347599983215332
-3.0277295112609863 5.244174480438232 -2.347599983215332
-3.439897298812866 4.983540058135986 -2.347599983215332
-3.8297460079193115 4.690595626831055 -2.347599983215332
-4.204052448272705 4.376884460449219 -2.3527984619140625
-4.803530216217041 4.255556583404541 -2.487936496734619
-5.151684284210205 3.8712401390075684 -2.498267650604248
-5.709921836853027 2.9968016147613525 -2.5
6.242412090301514 4.882812390860636e-06 -2.5
6.222177505493164 0.5023095607757568 -2.5
6.161581993103027 1.0013525485992432 -2.5
6.061025142669678 1.4939111471176147 -2.5
5.921156883239746 1.9767773151397705 -2.5
5.742890357971191 2.4468164443969727 -2.5
5.27603006362915 3.33636212348938 -2.5
4.990458965301514 3.7500829696655273 -2.5
4.324272155761719 4.502050876617432 -2.5
3.947988271713257 4.835414886474609 -2.5
2.2135937213897705 5.836762428283691 -2.5
1.7367479801177979 5.995961666107178 -2.5
0.7524365186691284 6.196904182434082 -2.5
0.25135740637779236 6.237358093261719 -2.5
-0.73681640625 6.06823205947876 -2.4480888843536377
-1.172998070716858 5.745683670043945 -2.348527431488037
-1.6308836936950684 5.630439281463623 -2.347599983215332
-2.512944221496582 5.295922756195068 -2.347599983215332
-2.9309473037719727 5.076542854309082 -2.347599983215332
-3.3299314975738525 4.824228286743164 -2.347599983215332
-3.7073142528533936 4.540644645690918 -2.347599983215332
-4.191606521606445 4.36392068862915 -2.423297882080078
-4.662680625915527 4.13076639175415 -2.49473237991333
-4.990454196929932 3.7500877380371094 -2.5
-5.276034832000732 3.336367130279541 -2.5
-6.06102991104126 1.4939062595367432 -2.5
-6.161586761474609 1.0013574361801147 -2.5
-6.222177505493164 0.5023095607757568 -2.5
6.027753829956055 0.4866113066673279 -2.5
5.563457012176514 2.370366096496582 -2.5
5.354692459106445 2.810366153717041 -2.5
5.111176490783691 3.232119083404541 -2.5
4.52651834487915 4.010151386260986 -2.5
3.8246335983276367 4.684330940246582 -2.5
3.435297727584839 4.976894378662109 -2.5
3.023681640625 5.2371826171875 -2.5
-0.24333007633686066 6.0382080078125 -2.498236894607544
-0.7269970774650574 5.987358093261719 -2.493370532989502
-1.169033169746399 5.726284027099609 -2.4160871505737305
-2.4344236850738525 5.130449295043945 -2.347599983215332
-3.22588849067688 4.673501014709473 -2.347599983215332
-4.521303653717041 4.005532264709473 -2.497117280960083
-5.354682445526123 2.81036114692688 -2.5
-5.563461780548096 2.370371103286743 -2.5
-5.736156940460205 1.915014624595642 -2.5
-5.871654987335205 1.4472362995147705 -2.5
-6.027763366699219 0.48661619424819946 -2.5
5.862514495849609 0.0 -2.5
5.843505859375 0.4717333912849426 -2.5
5.786601543426514 0.9404150247573853 -2.5
5.560805320739746 1.85647451877594 -2.5
5.393393516540527 2.297910213470459 -2.5
5.191000938415527 2.7244482040405273 -2.5
4.954941272735596 3.133315324783325 -2.5
4.388159275054932 3.8875732421875 -2.5
4.061103343963623 4.228061199188232 -2.5
3.3302879333496094 4.824755668640137 -2.5
2.9312596321105957 5.077094554901123 -2.5
1.6310546398162842 5.631059646606445 -2.5
0.7066454887390137 5.819775104522705 -2.5
0.2360546886920929 5.857758522033691 -2.5
-0.23605956137180328 5.857758522033691 -2.5
-0.7054833769798279 5.810107231140137 -2.495846748352051
-1.9719091653823853 5.199496746063232 -2.3713622093200684
-2.370126962661743 4.994931697845459 -2.357658863067627
-2.776743173599243 4.809453010559082 -2.3682143688201904
-4.052988052368164 4.219609260559082 -2.494999408721924
-4.387304782867432 3.8868114948272705 -2.499512195587158
-4.954951286315918 3.133315324783325 -2.5
-5.191005706787109 2.7244482040405273 -2.5
-5.393398284912109 2.297910213470459 -2.5
-5.560810565948486 1.8564696311950684 -2.5
-5.69216775894165 1.4029881954193115 -2.5
-5.843510627746582 0.4717333912849426 -2.5
5.687021255493164 0.0 -2.5
5.394345760345459 1.8009033203125 -2.5
5.231938362121582 2.229116201400757 -2.5
5.035605430603027 2.642890453338623 -2.5
4.806611061096191 3.0395214557647705 -2.5
4.546450138092041 3.416435480117798 -2.5
4.256796836853027 3.771191358566284 -2.5
3.9395408630371094 4.101493835449219 -2.5
3.5967235565185547 4.405195236206055 -2.5
2.843510627746582 4.925102233886719 -2.5
2.016650438308716 5.317461013793945 -2.5
1.5822216272354126 5.462485313415527 -2.5
1.1375536918640137 5.572089672088623 -2.5
-0.685009777545929 5.641493797302246 -2.498202323913574
-1.1351611614227295 5.560375690460205 -2.4947450160980225
-2.770449161529541 4.798549652099609 -2.435760974884033
-3.194770336151123 4.62841796875 -2.4722719192504883
-4.806611061096191 3.0395214557647705 -2.5
-5.231953144073486 2.229120969772339 -2.5
-5.394350528717041 1.8009033203125 -2.5
-5.613383769989014 0.9122655987739563 -2.5
5.520161151885986 4.882812390860636e-06 -2.5
5.502250671386719 0.44419431686401367 -2.5
5.359750747680664 1.3210595846176147 -2.5
5.078432559967041 2.1637158393859863 -2.5
4.665575981140137 2.9503369331359863 -2.5
2.366445302963257 4.987187385559082 -2.5
1.9574804306030273 5.161435604095459 -2.5
1.535805583000183 5.302211761474609 -2.5
1.1041747331619263 5.40859842300415 -2.5
0.6653759479522705 5.479907035827637 -2.5
-0.22227050364017487 5.515678405761719 -2.5
-1.1029491424560547 5.402587890625 -2.497222661972046
-1.5324804782867432 5.290737152099609 -2.4945874214172363
-1.951943278312683 5.146855354309082 -2.4929378032684326
-3.1285643577575684 4.532495021820068 -2.49422025680542
-3.823686361312866 3.9808835983276367 -2.499828815460205
-5.078432559967041 2.1637158393859863 -2.5
-5.236073970794678 1.7480615377426147 -2.5
-5.359755516052246 1.3210595846176147 -2.5
-5.448676586151123 0.8855029344558716 -2.5
5.361264705657959 4.882812390860636e-06 -2.5
5.343881607055664 0.4314062297344208 -2.5
5.291835784912109 0.8600097298622131 -2.5
5.205478191375732 1.2830370664596558 -2.5
4.531289100646973 2.86541485786438 -2.5
4.286030292510986 3.2207372188568115 -2.5
4.01296854019165 3.555185556411743 -2.5
3.390702962875366 4.152865886688232 -2.5
3.0455517768859863 4.412236213684082 -2.5
2.6806347370147705 4.642997741699219 -2.5
1.4915966987609863 5.149594783782959 -2.5
1.0723925828933716 5.252919673919678 -2.5
0.6462255716323853 5.322182655334473 -2.5
0.21586912870407104 5.356918811798096 -2.5
-1.0722216367721558 5.252045631408691 -2.499586820602417
-1.4898632764816284 5.143603324890137 -2.4970908164978027
-1.8977099657058716 5.003862380981445 -2.4955074787139893
-2.6756982803344727 4.634443283081055 -2.4953935146331787
-3.389233350753784 4.151059627532959 -2.498912811279297
-4.01296854019165 3.555180549621582 -2.5
-5.085361003875732 1.6977441310882568 -2.5
-5.205483436584473 1.2830370664596558 -2.5
-5.343881607055664 0.4314013719558716 -2.5
