ply
format ascii 1.0
element vertex 726
property float x
property float y
property float z
end_header
-10.262617111206055 -14.867938995361328 4.840744495391846
-10.266186714172363 -14.873129844665527 4.415607929229736
-11.48013687133789 -24.193920135498047 2.268157720565796
7.132314205169678 -24.623579025268555 1.8854244947433472
20.411235809326172 -15.33803653717041 1.8777812719345093
7.131352424621582 -24.620277404785156 1.599812626838684
-2.953056573867798 -24.32056999206543 1.2567250728607178
-7.929286956787109 -16.7106876373291 0.12810638546943665
11.922656059265137 -17.27287483215332 0.14536070823669434
11.814311027526855 -17.115917205810547 -0.08642639219760895
11.767309188842773 -17.047821044921875 -0.31565290689468384
-7.861347675323486 -16.5675048828125 -0.48273712396621704
11.760116577148438 -17.037391662597656 -0.5449696183204651
11.75291919708252 -17.0269718170166 -0.7741397023200989
-7.824018478393555 -16.488842010498047 -0.8855248689651489
-7.823002815246582 -16.486698150634766 -1.0882244110107422
11.738534927368164 -17.006132125854492 -1.2322648763656616
-19.558612823486328 -12.368124961853027 -1.6375106573104858
-22.388368606567383 -16.82376480102539 -1.9816879034042358
-11.363378524780273 -19.681957244873047 -1.6081907749176025
-7.821987152099609 -16.48455047607422 -1.2911392450332642
9.813359260559082 -20.68124008178711 -1.6198409795761108
11.73134708404541 -16.995708465576172 -1.4613327980041504
20.492177963256836 -15.398866653442383 -1.8138431310653687
-28.613719940185547 -7.052680492401123 -2.4138433933258057
-25.37834930419922 -13.319580078125 -2.347599983215332
-22.591552734375 -16.976449966430664 -2.31465482711792
-21.495771408081055 -19.043607711791992 -2.3522469997406006
-18.223047256469727 -22.319189071655273 -2.3600711822509766
-16.394023895263672 -23.750839233398438 -2.3638253211975098
-10.270575523376465 -27.08126449584961 -2.3723442554473877
-5.962001800537109 -20.583017349243164 -1.7552181482315063
-5.803290843963623 -28.426361083984375 -2.3763785362243652
-0.8202002048492432 -20.353519439697266 -1.668474555015564
8.0635986328125 -27.838773727416992 -2.3739545345306396
10.264863014221191 -27.066225051879883 -2.3710262775421143
11.72414493560791 -16.985292434692383 -1.6904805898666382
21.45331573486328 -19.0059814453125 -2.347599983215332
24.224262237548828 -15.31850528717041 -2.347599983215332
-26.512313842773438 -4.308686256408691 -2.5
-26.079627990722656 -6.428071022033691 -2.5
-25.47272491455078 -8.50405216217041 -2.4994990825653076
-22.333642959594727 -11.721601486206055 -2.347599983215332
-17.472421646118164 -18.19070816040039 -2.347599983215332
-15.955995559692383 -19.542583465576172 -2.348188638687134
-14.351240158081055 -20.791362762451172 -2.3513808250427246
-11.535990715026855 -19.980926513671875 -2.1474146842956543
-7.81994104385376 -16.480249404907227 -1.6978178024291992
-6.865732192993164 -18.103496551513672 -1.8020856380462646
-7.058125019073486 -24.367450714111328 -2.361217975616455
-5.077944278717041 -24.873363494873047 -2.362832546234131
-3.06158185005188 -25.21440887451172 -2.36405873298645
-0.8249902129173279 -20.472421646118164 -1.9070101976394653
3.061513662338257 -25.21383285522461 -2.3640048503875732
8.984614372253418 -23.690492630004883 -2.3582308292388916
12.977861404418945 -15.8949556350708 -1.9099023342132568
17.472412109375 -18.19072151184082 -2.347599983215332
18.879507064819336 -16.725786209106445 -2.347599983215332
22.687206268310547 -14.346518516540527 -2.498378276824951
25.47783088684082 -8.505746841430664 -2.5
26.07964324951172 -6.428066253662109 -2.5
26.5123233795166 -4.308681488037109 -2.5
26.77305793762207 -2.1613476276397705 -2.5
-23.977617263793945 -4.882812390860636e-06 -2.5
-23.899824142456055 -1.929384708404541 -2.5
-23.667049407958984 -3.846269369125366 -2.5
-22.743593215942383 -7.592919826507568 -2.5
-19.03020477294922 -12.033984184265137 -2.347599983215332
-18.000165939331055 -13.526240348815918 -2.347599983215332
-14.240062713623047 -17.440921783447266 -2.347599983215332
-12.790488243103027 -18.53022003173828 -2.347599983215332
-4.512729167938232 -22.104793548583984 -2.3522756099700928
-2.7206835746765137 -22.40678596496582 -2.3533830642700195
-0.8446093797683716 -20.959218978881836 -2.187068223953247
0.9090771079063416 -22.558481216430664 -2.353950023651123
6.272079944610596 -21.65373420715332 -2.350510597229004
9.652392387390137 -20.341997146606445 -2.347599983215332
11.257948875427246 -19.499330520629883 -2.347599983215332
10.974946022033691 -15.899897575378418 -2.014370918273926
16.8533878326416 -14.930795669555664 -2.347599983215332
19.15052604675293 -14.390673637390137 -2.4976298809051514
21.2310791015625 -11.142924308776855 -2.5
22.74359893798828 -7.592929363250732 -2.5
23.28081512451172 -5.738217830657959 -2.5
-21.648906707763672 4.882812390860636e-06 -2.5
-21.36854362487793 -3.4727439880371094 -2.5
-21.019813537597656 -5.180932521820068 -2.5
-20.53475570678711 -6.855502605438232 -2.5
-19.16912078857422 -10.060742378234863 -2.5
-18.297422409057617 -11.570600509643555 -2.5
-16.905057907104492 -12.703325271606445 -2.441932439804077
-15.216591835021973 -13.480741500854492 -2.347599983215332
-12.85707950592041 -15.747075080871582 -2.347599983215332
-10.164594650268555 -17.605581283569336 -2.347599983215332
-2.4504148960113525 -20.180952072143555 -2.347599983215332
-0.8185693025588989 -20.312685012817383 -2.347599983215332
0.8185693025588989 -20.31269073486328 -2.347599983215332
2.4504199028015137 -20.180952072143555 -2.347599983215332
5.655932426452637 -19.526533126831055 -2.347599983215332
7.208827972412109 -19.00810432434082 -2.347599983215332
10.164599418640137 -17.605581283569336 -2.347599983215332
10.917363166809082 -15.816473960876465 -2.2193384170532227
12.857094764709473 -15.747079849243164 -2.347599983215332
16.19391632080078 -14.3465576171875 -2.498377561569214
17.307050704956055 -13.005399703979492 -2.5
20.534759521484375 -6.855512619018555 -2.5
21.01980972290039 -5.180927753448486 -2.5
21.578691482543945 -1.7420165538787842 -2.5
-19.72798728942871 4.882812390860636e-06 -2.5
-19.664012908935547 -1.587441325187683 -2.5
-19.472518920898438 -3.164599657058716 -2.5
-18.71271514892578 -6.247216701507568 -2.5
-18.149335861206055 -7.732709884643555 -2.5
-16.67389678955078 -10.543935775756836 -2.5
-15.77138614654541 -11.851425170898438 -2.5
-14.745145797729492 -13.063060760498047 -2.496365785598755
-11.716269493103027 -14.34984302520752 -2.347599983215332
-5.154086589813232 -17.7939453125 -2.347599983215332
-2.232983350753784 -18.390283584594727 -2.347599983215332
0.7459423542022705 -18.51033592224121 -2.347599983215332
6.569179534912109 -17.321517944335938 -2.347599983215332
9.262685775756836 -16.043441772460938 -2.347599983215332
12.015356063842773 -14.716147422790527 -2.4075255393981934
18.14933967590332 -7.732705116271973 -2.5
18.712709426879883 -6.247211933135986 -2.5
19.154720306396484 -4.721215724945068 -2.5
19.472503662109375 -3.164599657058716 -2.5
-18.11605453491211 0.0 -2.5
-17.8814640045166 -2.9060254096984863 -2.5
-16.666406631469727 -7.100893497467041 -2.5
-16.040966033935547 -8.418940544128418 -2.5
-13.560053825378418 -12.013168334960938 -2.5
-9.864486694335938 -14.291166305541992 -2.396364212036133
-6.032436370849609 -15.906220436096191 -2.347599983215332
-4.732954025268555 -16.34004783630371 -2.347599983215332
-3.402783155441284 -16.66789436340332 -2.347599983215332
-2.050527334213257 -16.88765525817871 -2.347599983215332
-0.6849951148033142 -16.997900009155273 -2.347599983215332
2.050537109375 -16.88765525817871 -2.347599983215332
3.402778148651123 -16.66790008544922 -2.347599983215332
4.732954025268555 -16.340044021606445 -2.347599983215332
7.292783260345459 -15.36922836303711 -2.347599983215332
11.457416534423828 -14.032787322998047 -2.5
12.549418449401855 -13.065351486206055 -2.5
13.560053825378418 -12.013168334960938 -2.5
14.482744216918945 -10.88308048248291 -2.5
16.040966033935547 -8.418940544128418 -2.5
16.666400909423828 -7.100878715515137 -2.5
17.183740615844727 -5.736772537231445 -2.5
17.881454467773438 -2.906015634536743 -2.5
-16.7437686920166 4.882812390860636e-06 -2.5
-16.526933670043945 -2.6858935356140137 -2.5
-15.882060050964355 -5.302216529846191 -2.5
-15.403915405273438 -6.56298303604126 -2.5
-14.825859069824219 -7.781210899353027 -2.5
-14.151659965515137 -8.948969841003418 -2.5
-10.58951187133789 -12.969799041748047 -2.5
-6.925956726074219 -14.596152305603027 -2.4122424125671387
-5.575473308563232 -14.70131778717041 -2.347599983215332
-4.374433517456055 -15.102279663085938 -2.347599983215332
-3.145024299621582 -15.40529727935791 -2.347599983215332
-1.895205020904541 -15.608417510986328 -2.347599983215332
-0.633105456829071 -15.710302352905273 -2.347599983215332
0.633105456829071 -15.710302352905273 -2.347599983215332
1.895205020904541 -15.608417510986328 -2.347599983215332
5.586225509643555 -14.729013442993164 -2.3520240783691406
8.358979225158691 -14.47817325592041 -2.4961469173431396
9.511537551879883 -13.7798433303833 -2.5
10.589506149291992 -12.969794273376465 -2.5
12.532885551452637 -11.103163719177246 -2.5
13.3856782913208 -10.058676719665527 -2.5
15.882064819335938 -5.302211761474609 -2.5
-15.5610933303833 -4.882812390860636e-06 -2.5
-15.510634422302246 -1.2521581649780273 -2.5
-15.108905792236328 -3.7240185737609863 -2.5
-14.76024341583252 -4.927685260772705 -2.5
-13.152084350585938 -8.316874504089355 -2.5
-12.440204620361328 -9.348197937011719 -2.5
-11.6476411819458 -10.318915367126465 -2.5
-10.779545783996582 -11.22269058227539 -2.5
-6.670907974243164 -14.05868148803711 -2.5
-5.506503582000732 -14.519457817077637 -2.494774103164673
-4.257758617401123 -14.699477195739746 -2.458648681640625
-3.0041210651397705 -14.715150833129883 -2.4128575325012207
-1.7874364852905273 -14.720800399780273 -2.3823726177215576
-0.593334972858429 -14.723578453063965 -2.367368698120117
0.5933446884155273 -14.723573684692383 -2.36736798286438
3.0041258335113525 -14.715150833129883 -2.4128572940826416
5.507856369018555 -14.523027420043945 -2.495386838912964
7.780541896820068 -13.476298332214355 -2.5
8.839706420898438 -12.806523323059082 -2.5
10.779536247253418 -11.222700119018555 -2.5
11.6476411819458 -10.318915367126465 -2.5
12.440199851989746 -9.348197937011719 -2.5
15.10891056060791 -3.724013566970825 -2.5
15.359575271606445 -2.496171712875366 -2.5
15.510615348815918 -1.2521483898162842 -2.5
-14.531044960021973 4.882812390860636e-06 -2.5
-14.483935356140137 -1.1692724227905273 -2.5
-14.342880249023438 -2.330942392349243 -2.5
-13.368266105651855 -5.695683479309082 -2.5
-11.616747856140137 -8.729413986206055 -2.5
-9.19009780883789 -11.255829811096191 -2.5
-4.042802810668945 -13.957338333129883 -2.5
-1.7496386766433716 -14.409574508666992 -2.497309446334839
-0.5841357111930847 -14.495209693908691 -2.4958581924438477
2.9065868854522705 -14.237387657165527 -2.5
4.042797565460205 -13.957338333129883 -2.5
6.229345798492432 -13.12808609008789 -2.5
8.254579544067383 -11.958823204040527 -2.5
11.616738319396973 -8.729423522949219 -2.5
12.281498908996582 -7.766362190246582 -2.5
14.108808517456055 -3.4775195121765137 -2.5
14.342880249023438 -2.330947160720825 -2.5
-13.581488609313965 -1.096411108970642 -2.5
-11.516283988952637 -7.282455921173096 -2.5
-10.892949104309082 -8.185526847839355 -2.5
-9.4388427734375 -9.826855659484863 -2.5
-7.74026346206665 -11.213706016540527 -2.5
-6.812836647033691 -11.800185203552246 -2.5
-5.84121561050415 -12.310126304626465 -2.5
-3.790903329849243 -13.087699890136719 -2.5
-2.7254881858825684 -13.350297927856445 -2.5
-1.6423925161361694 -13.526317596435547 -2.5
-0.5486425757408142 -13.614619255065918 -2.5
0.5486474633216858 -13.614619255065918 -2.5
1.642397403717041 -13.526323318481445 -2.5
2.725478410720825 -13.35030746459961 -2.5
3.7908935546875 -13.0877046585083 -2.5
7.740268230438232 -11.213701248168945 -2.5
8.617485046386719 -10.554516792297363 -2.5
9.438822746276855 -9.826879501342773 -2.5
10.198959350585938 -9.035492897033691 -2.5
10.892934799194336 -8.185517311096191 -2.5
12.5353364944458 -5.340805530548096 -2.5
12.924443244934082 -4.314814567565918 -2.5
-12.7818603515625 -1.0318554639816284 -2.5
-11.797308921813965 -5.026362419128418 -2.5
-10.838247299194336 -6.853696346282959 -2.5
-10.251615524291992 -7.703583717346191 -2.5
-9.598485946655273 -8.503520011901855 -2.5
-8.8831148147583 -9.248300552368164 -2.5
-7.2845458984375 -10.553485870361328 -2.5
-6.411728382110596 -11.105429649353027 -2.5
-4.547260761260986 -11.990121841430664 -2.5
-1.5456981658935547 -12.729941368103027 -2.5
-0.5163525342941284 -12.813041687011719 -2.5
0.5163476467132568 -12.813036918640137 -2.5
2.565014600753784 -12.564282417297363 -2.5
3.567704916000366 -12.317148208618164 -2.5
6.411718368530273 -11.105429649353027 -2.5
8.110126495361328 -9.93310546875 -2.5
11.797308921813965 -5.026362419128418 -2.5
12.163505554199219 -4.060776233673096 -2.5
12.450815200805664 -3.068857431411743 -2.5
12.657387733459473 -2.0570263862609863 -2.5
12.781865119934082 -1.0318652391433716 -2.5
-11.95071792602539 -1.9421874284744263 -2.5
-11.755693435668945 -2.897524356842041 -2.5
-10.720664024353027 -5.626645565032959 -2.5
-9.679262161254883 -7.273496150970459 -2.5
-9.062602043151855 -8.028764724731445 -2.5
-8.387177467346191 -8.731972694396973 -2.5
-7.657338619232178 -9.378544807434082 -2.5
-6.877851486206055 -9.9642915725708 -2.5
-5.190395355224609 -10.938539505004883 -2.5
-3.3685302734375 -11.629477500915527 -2.5
-0.4875195324420929 -12.097695350646973 -2.5
0.4875146448612213 -12.097684860229492 -2.5
1.4593993425369263 -12.019227981567383 -2.5
2.421816349029541 -11.862821578979492 -2.5
3.368520498275757 -11.62948226928711 -2.5
4.293374061584473 -11.320722579956055 -2.5
6.053759574890137 -10.4854097366333 -2.5
8.387163162231445 -8.731972694396973 -2.5
9.062602043151855 -8.028764724731445 -2.5
9.679266929626465 -7.273486137390137 -2.5
10.72066879272461 -5.626635551452637 -2.5
11.13866138458252 -4.745732307434082 -2.5
11.484414100646973 -3.834057569503784 -2.5
11.755682945251465 -2.897524356842041 -2.5
12.068246841430664 -0.9742528796195984 -2.5
-11.427343368530273 -0.9225097298622131 -2.5
-11.316054344177246 -1.8390477895736694 -2.5
-11.131376266479492 -2.743647336959839 -2.5
-10.874516487121582 -3.630439281463623 -2.5
-9.165224075317383 -6.887221336364746 -2.5
-8.581303596496582 -7.602377891540527 -2.5
-7.250673770904541 -8.880473136901855 -2.5
-5.732250690460205 -9.928564071655273 -2.5
-4.914736270904541 -10.357611656188965 -2.5
-4.065371036529541 -10.719496726989746 -2.5
-2.293203115463257 -11.232827186584473 -2.5
-0.4616406261920929 -11.455219268798828 -2.5
1.3818944692611694 -11.3809175491333 -2.5
2.2931933403015137 -11.232816696166992 -2.5
3.189624071121216 -11.01186466217041 -2.5
4.914745807647705 -10.357622146606445 -2.5
5.732255935668945 -9.928559303283691 -2.5
6.512582778930664 -9.435102462768555 -2.5
7.250678539276123 -8.880468368530273 -2.5
7.941742897033691 -8.268237113952637 -2.5
9.1652193069458 -6.887216567993164 -2.5
10.151312828063965 -5.327822208404541 -2.5
10.874502182006836 -3.630449056625366 -2.5
11.427338600158691 -0.9225097298622131 -2.5
-10.883706092834473 9.765624781721272e-06 -2.5
-10.742758750915527 -1.7458739280700684 -2.5
-10.567436218261719 -2.6046483516693115 -2.5
-10.323583602905273 -3.446523427963257 -2.5
-9.198798179626465 -5.816967487335205 -2.5
-8.146562576293945 -7.217231273651123 -2.5
-7.539413928985596 -7.849350452423096 -2.5
-4.665756702423096 -9.832890510559082 -2.5
-3.8594188690185547 -10.176435470581055 -2.5
-3.0280418395996094 -10.453984260559082 -2.5
-2.1770312786102295 -10.663749694824219 -2.5
-0.4382421672344208 -10.874873161315918 -2.5
0.4382373094558716 -10.874868392944336 -2.5
1.3118798732757568 -10.80434513092041 -2.5
3.028032064437866 -10.453984260559082 -2.5
3.8594090938568115 -10.176435470581055 -2.5
4.665761470794678 -9.832880973815918 -2.5
5.441855430603027 -9.42556095123291 -2.5
6.18264627456665 -8.957104682922363 -2.5
6.883344650268555 -8.430571556091309 -2.5
7.539394378662109 -7.849350452423096 -2.5
8.146567344665527 -7.217226505279541 -2.5
9.198793411254883 -5.816967487335205 -2.5
9.637045860290527 -5.057905197143555 -2.5
10.01278305053711 -4.266035079956055 -2.5
10.323583602905273 -3.446523427963257 -2.5
10.567431449890137 -2.6046435832977295 -2.5
10.74276351928711 -1.7458739280700684 -2.5
10.848407745361328 -0.875781238079071 -2.5
-10.055410385131836 -2.478442430496216 -2.5
-9.527636528015137 -4.059340953826904 -2.5
-9.170097351074219 -4.812836647033691 -2.5
-8.75308609008789 -5.535126686096191 -2.5
-6.549829006195068 -8.022089958190918 -2.5
-5.883090496063232 -8.523110389709473 -2.5
-2.8813230991363525 -9.947461128234863 -2.5
-0.41701170802116394 -10.3479585647583 -2.5
0.41700682044029236 -10.3479585647583 -2.5
1.248315453529358 -10.280844688415527 -2.5
2.071542978286743 -10.147050857543945 -2.5
3.6724021434783936 -9.683359146118164 -2.5
4.439687252044678 -9.356454849243164 -2.5
5.883080959320068 -8.523110389709473 -2.5
7.174096584320068 -7.469038009643555 -2.5
7.751840591430664 -6.867534160614014 -2.5
8.279311180114746 -6.221498966217041 -2.5
8.75308609008789 -5.535117149353027 -2.5
9.1701021194458 -4.812831878662109 -2.5
10.055415153503418 -2.4784374237060547 -2.5
10.222235679626465 -1.6612744331359863 -2.5
-9.843280792236328 -0.794628918170929 -2.5
-9.747416496276855 -1.5841162204742432 -2.5
-8.744150161743164 -4.589292049407959 -2.5
-7.894736289978027 -5.932514667510986 -2.5
-7.391767501831055 -6.548540115356445 -2.5
-6.245590686798096 -7.649462699890137 -2.5
-5.609814167022705 -8.127216339111328 -2.5
-4.937646389007568 -8.552250862121582 -2.5
-4.233461856842041 -8.921835899353027 -2.5
-1.9753222465515137 -9.6757173538208 -2.5
-1.1903369426727295 -9.803305625915527 -2.5
-0.3976464867591858 -9.867289543151855 -2.5
0.3976367115974426 -9.867294311523438 -2.5
1.190332055091858 -9.803296089172363 -2.5
1.9753124713897705 -9.675722122192383 -2.5
2.747485399246216 -9.485404968261719 -2.5
3.501826047897339 -9.233569145202637 -2.5
4.233461856842041 -8.921845436096191 -2.5
4.937646389007568 -8.552260398864746 -2.5
5.609809398651123 -8.127211570739746 -2.5
6.840854167938232 -7.122089862823486 -2.5
9.367079734802246 -3.127187490463257 -2.5
9.747421264648438 -1.5841064453125 -2.5
-9.43460464477539 -4.882812390860636e-06 -2.5
-9.160444259643555 -2.2578563690185547 -2.5
-8.35391616821289 -4.384462833404541 -2.5
-5.359467506408691 -7.76452112197876 -2.5
-2.6248779296875 -9.06209945678711 -2.5
1.8871630430221558 -9.24393081665039 -2.5
2.624872922897339 -9.062094688415527 -2.5
4.044540882110596 -8.523691177368164 -2.5
5.359462738037109 -7.7645263671875 -2.5
8.353930473327637 -4.384477615356445 -2.5
8.679633140563965 -3.6980466842651367 -2.5
9.160444259643555 -2.2578563690185547 -2.5
9.312421798706055 -1.5134228467941284 -2.5
9.404008865356445 -0.75916987657547 -2.5
-9.029287338256836 0.0 -2.5
-8.912348747253418 -1.448403239250183 -2.5
-8.766908645629883 -2.1608543395996094 -2.5
-8.56459903717041 -2.8592822551727295 -2.5
-8.306747436523438 -3.539174795150757 -2.5
-7.631454944610596 -4.825839519500732 -2.5
-7.218398094177246 -5.424277305603027 -2.5
-6.758510589599609 -5.987514495849609 -2.5
-4.514643669128418 -7.819580078125 -2.5
-1.806093692779541 -8.846792221069336 -2.5
-1.0883642435073853 -8.9634370803833 -2.5
-0.36357420682907104 -9.021947860717773 -2.5
0.36357420682907104 -9.021952629089355 -2.5
1.088354468345642 -8.9634370803833 -2.5
2.512094736099243 -8.672782897949219 -2.5
3.2018213272094727 -8.442519187927246 -2.5
4.514638423919678 -7.81957483291626 -2.5
5.129213809967041 -7.430947303771973 -2.5
5.710522174835205 -6.994125843048096 -2.5
6.254794597625732 -6.511933326721191 -2.5
6.758505821228027 -5.987514495849609 -2.5
7.2183837890625 -5.424267292022705 -2.5
7.631454944610596 -4.825839519500732 -2.5
7.99502420425415 -4.196113109588623 -2.5
8.56459903717041 -2.8592772483825684 -2.5
8.912353515625 -1.4483983516693115 -2.5
9.0 -0.7265527248382568 -2.5
-8.627079963684082 -0.6964501738548279 -2.5
-8.40365219116211 -2.0713231563568115 -2.5
-8.209731101989746 -2.7408056259155273 -2.5
-7.663749694824219 -4.02224588394165 -2.5
-7.315248966217041 -4.625888347625732 -2.5
-6.91930627822876 -5.199511528015137 -2.5
-6.478471755981445 -5.739433288574219 -2.5
-5.473910808563232 -6.704330921173096 -2.5
-4.916689395904541 -7.12304162979126 -2.5
-4.327578067779541 -7.495580673217773 -2.5
-3.710390567779541 -7.819501876831055 -2.5
-2.408017635345459 -8.313427925109863 -2.5
-1.0432665348052979 -8.592041015625 -2.5
0.3485058546066284 -8.6481294631958 -2.5
1.0432665348052979 -8.592045783996582 -2.5
3.069159984588623 -8.092700004577637 -2.5
3.710400342941284 -7.819497108459473 -2.5
5.99563455581665 -6.242114067077637 -2.5
6.478476524353027 -5.739423751831055 -2.5
6.919301509857178 -5.199516296386719 -2.5
7.315244197845459 -4.62588357925415 -2.5
7.663759708404541 -4.02224588394165 -2.5
7.962563514709473 -3.392529249191284 -2.5
8.40365219116211 -2.0713183879852295 -2.5
8.543070793151855 -1.3883788585662842 -2.5
-8.067235946655273 -1.9884130954742432 -2.5
-5.755629539489746 -5.992236137390137 -2.5
-5.254780292510986 -6.43594217300415 -2.5
-4.719862937927246 -6.837880611419678 -2.5
-2.946303606033325 -7.768744945526123 -2.5
-2.3116209506988525 -7.980634689331055 -2.5
-0.33455565571784973 -8.301928520202637 -2.5
0.33455565571784973 -8.301933288574219 -2.5
1.6619482040405273 -8.140761375427246 -2.5
2.3116209506988525 -7.980629920959473 -2.5
2.946303606033325 -7.768740177154541 -2.5
6.219130516052246 -5.509667873382568 -2.5
7.356967449188232 -3.8612353801727295 -2.5
7.881073951721191 -2.6310887336730957 -2.5
8.28173828125 -0.6685693264007568 -2.5
-7.986821174621582 4.882812390860636e-06 -2.5
-7.883388519287109 -1.2811815738677979 -2.5
-7.347704887390137 -3.130566358566284 -2.5
-7.071977615356445 -3.711660146713257 -2.5
-6.38500452041626 -4.798017501831055 -2.5
-5.532660961151123 -5.760107517242432 -2.5
-3.993408203125 -6.916781902313232 -2.5
-3.42388653755188 -7.215683460235596 -2.5
-2.832163095474243 -7.467797756195068 -2.5
-1.5975682735443115 -7.825395107269287 -2.5
-0.3216015696525574 -7.980331897735596 -2.5
4.537026405334473 -6.573012351989746 -2.5
5.051220417022705 -6.186625957489014 -2.5
5.532651424407959 -5.760112285614014 -2.5
6.384994983673096 -4.798012733459473 -2.5
6.750370979309082 -4.2686767578125 -2.5
7.575790882110596 -2.529169797897339 -2.5
7.883378505706787 -1.2811717987060547 -2.5
7.960917949676514 -0.6426659822463989 -2.5
-7.686957836151123 0.0 -2.5
-7.587426662445068 -1.2330809831619263 -2.5
-7.463593482971191 -1.8396142721176147 -2.5
-6.806469440460205 -3.5723094940185547 -2.5
-6.145283222198486 -4.617880821228027 -2.5
-5.75377893447876 -5.097402095794678 -2.5
-5.324951171875 -5.54385232925415 -2.5
-4.861591815948486 -5.954365253448486 -2.5
-3.8434863090515137 -6.6571044921875 -2.5
-2.725834846496582 -7.187436580657959 -2.5
-1.53759765625 -7.531606197357178 -2.5
-0.926562488079071 -7.630918025970459 -2.5
-0.30952146649360657 -7.680727481842041 -2.5
0.30952146649360657 -7.680722713470459 -2.5
0.926562488079071 -7.630918025970459 -2.5
1.5375927686691284 -7.531606197357178 -2.5
2.725830078125 -7.187426567077637 -2.5
3.29534649848938 -6.944789886474609 -2.5
4.366694450378418 -6.326250076293945 -2.5
4.861577033996582 -5.954360008239746 -2.5
5.324941158294678 -5.543857097625732 -2.5
5.75377893447876 -5.097402095794678 -2.5
6.496938228607178 -4.108422756195068 -2.5
6.806464672088623 -3.5723094940185547 -2.5
7.291367053985596 -2.434208869934082 -2.5
7.587416648864746 -1.2330809831619263 -2.5
7.662035942077637 -0.6185449361801147 -2.5
-7.310956954956055 -1.1881542205810547 -2.5
-7.19164514541626 -1.7725830078125 -2.5
-7.025688171386719 -2.345522403717041 -2.5
-6.814174652099609 -2.90325665473938 -2.5
-5.130932331085205 -5.341855525970459 -2.5
-4.684443473815918 -5.737402439117432 -2.5
-3.703442335128784 -6.414525985717773 -2.5
-3.1752734184265137 -6.691742897033691 -2.5
-0.8927978277206421 -7.352866172790527 -2.5
0.2982421815395355 -7.400859355926514 -2.5
1.4815624952316284 -7.257177352905273 -2.5
2.060722589492798 -7.114433288574219 -2.5
3.1752684116363525 -6.691742897033691 -2.5
3.703432559967041 -6.414540767669678 -2.5
4.684438228607178 -5.737397193908691 -2.5
5.544126033782959 -4.911660194396973 -2.5
5.921371936798096 -4.449618816375732 -2.5
7.19164514541626 -1.7725878953933716 -2.5
7.382856369018555 -0.5960009694099426 -2.5
-6.936972618103027 -1.7098193168640137 -2.5
-6.776899337768555 -2.262465715408325 -2.5
-6.5728759765625 -2.8004393577575684 -2.5
-6.326220512390137 -3.320263624191284 -2.5
-6.038535118103027 -3.81853985786438 -2.5
-4.5185546875 -5.534233093261719 -2.5
-3.0628318786621094 -6.454775333404541 -2.5
-2.533510684967041 -6.6802978515625 -2.5
-1.987758755683899 -6.862499713897705 -2.5
-0.2876855432987213 -7.13878870010376 -2.5
0.28768065571784973 -7.13878870010376 -2.5
0.8611816167831421 -7.092494964599609 -2.5
1.429101586341858 -7.000195026397705 -2.5
3.062822103500366 -6.454780101776123 -2.5
4.058583736419678 -5.87987756729126 -2.5
4.949228286743164 -5.152695178985596 -2.5
5.347792625427246 -4.737739086151123 -2.5
5.711684226989746 -4.292055606842041 -2.5
6.038535118103027 -3.818544864654541 -2.5
6.776904106140137 -2.262465715408325 -2.5
7.052070140838623 -1.1460741758346558 -2.5
-6.898412704467773 -4.882812390860636e-06 -2.5
-6.80908203125 -1.1065869331359863 -2.5
-6.697954177856445 -1.6509032249450684 -2.5
-6.543388366699219 -2.184511661529541 -2.5
-6.346396446228027 -2.7039451599121094 -2.5
-5.83047342300415 -3.686967611312866 -2.5
-5.163535118103027 -4.57449197769165 -2.5
-4.778700828552246 -4.975146293640137 -2.5
-4.362871170043945 -5.343539714813232 -2.5
-3.9187450408935547 -5.67727518081665 -2.5
-2.9572949409484863 -6.232367992401123 -2.5
-2.4462060928344727 -6.450121879577637 -2.5
-0.8315087556838989 -6.848110198974609 -2.5
0.2777685523033142 -6.892812252044678 -2.5
0.8315136432647705 -6.848105430603027 -2.5
1.9192577600479126 -6.626044750213623 -2.5
2.4462060928344727 -6.450117111206055 -2.5
3.4492039680480957 -5.974199295043945 -2.5
3.9187400341033936 -5.67727518081665 -2.5
4.778691291809082 -4.975146293640137 -2.5
5.514877796173096 -4.144155025482178 -2.5
5.830468654632568 -3.686967611312866 -2.5
6.543393611907959 -2.184506893157959 -2.5
6.80907678604126 -1.1065820455551147 -2.5
-6.666850566864014 0.0 -2.5
-6.133359432220459 -2.6131787300109863 -2.5
-5.90319299697876 -3.0982420444488525 -2.5
-5.634750843048096 -3.5631980895996094 -2.5
-5.329760551452637 -4.005058288574219 -2.5
-4.216415882110596 -5.164165019989014 -2.5
-3.7871923446655273 -5.4866943359375 -2.5
-3.3334226608276367 -5.773642539978027 -2.5
-2.858022451400757 -6.023154258728027 -2.5
-2.3640966415405273 -6.233598709106445 -2.5
-0.80360347032547 -6.618232250213623 -2.5
0.2684423625469208 -6.661435604095459 -2.5
0.8035937547683716 -6.618227481842041 -2.5
1.3335448503494263 -6.53209924697876 -2.5
1.8548290729522705 -6.403623104095459 -2.5
2.364091634750366 -6.233603477478027 -2.5
3.3334226608276367 -5.773637771606445 -2.5
3.7871971130371094 -5.486699104309082 -2.5
4.216406345367432 -5.164165019989014 -2.5
4.618276119232178 -4.808139324188232 -2.5
4.990200042724609 -4.420932292938232 -2.5
5.329755783081055 -4.005048751831055 -2.5
5.634746074676514 -3.5632030963897705 -2.5
5.90319299697876 -3.0982322692871094 -2.5
6.323744773864746 -2.1111717224121094 -2.5
6.645219802856445 -0.5364550948143005 -2.5
-6.448559284210205 0.0 -2.5
-6.427660942077637 -0.5188964605331421 -2.5
-6.365053653717041 -1.0344189405441284 -2.5
-6.261181354522705 -1.5432469844818115 -2.5
-6.11669397354126 -2.042050838470459 -2.5
-5.932543754577637 -2.5276219844818115 -2.5
-5.450263500213623 -3.446542978286743 -2.5
-2.286694288253784 -6.029501914978027 -2.5
-1.289882779121399 -6.318242073059082 -2.5
-0.25965818762779236 -6.443334579467773 -2.5
0.7772900462150574 -6.401547908782959 -2.5
1.2898730039596558 -6.318242073059082 -2.5
2.286694288253784 -6.029511451721191 -2.5
2.7644433975219727 -5.825952053070068 -2.5
3.663198232650757 -5.307060241699219 -2.5
4.078354358673096 -4.995092868804932 -2.5
-6.24242639541626 4.882812390860636e-06 -2.5
-5.921162128448486 -1.976772427558899 -2.5
-5.527387619018555 -2.900995969772339 -2.5
-5.276034832000732 -3.33636212348938 -2.5
-4.990458965301514 -3.7500829696655273 -2.5
-3.5461180210113525 -5.137402057647705 -2.5
-3.121210813522339 -5.406088829040527 -2.5
1.2486474514007568 -6.116259574890137 -2.5
2.2135887145996094 -5.836757659912109 -2.5
3.546093702316284 -5.137407302856445 -2.5
4.672519207000732 -4.139487266540527 -2.5
4.990454196929932 -3.7500877380371094 -2.5
5.742900371551514 -2.4468164443969727 -2.5
5.921162128448486 -1.9767675399780273 -2.5
6.06102991104126 -1.4939111471176147 -2.5
6.161581993103027 -1.0013525485992432 -2.5
-5.969072341918945 -0.9700732231140137 -2.5
-5.736156940460205 -1.9150097370147705 -2.5
-5.563457012176514 -2.370371103286743 -2.5
-5.354687213897705 -2.810356378555298 -2.5
-5.111176490783691 -3.23211407661438 -2.5
-4.834536075592041 -3.6329100131988525 -2.5
-4.526523113250732 -4.010146617889404 -2.5
-3.435297727584839 -4.976884841918945 -2.5
-3.023681640625 -5.237172603607178 -2.5
-2.592460870742798 -5.4635009765625 -2.5
-1.6824853420257568 -5.808608055114746 -2.5
-0.2435009777545929 -6.042465686798096 -2.5
2.1444334983825684 -5.654394626617432 -2.5
2.592460870742798 -5.4635009765625 -2.5
3.8246288299560547 -4.684326171875 -2.5
4.189159870147705 -4.361381530761719 -2.5
4.834531307220459 -3.6329100131988525 -2.5
5.354677677154541 -2.810351610183716 -2.5
5.563461780548096 -2.370366096496582 -2.5
5.871654987335205 -1.447231411933899 -2.5
-5.843510627746582 -0.4717382788658142 -2.5
-5.692162990570068 -1.4029979705810547 -2.5
-5.560805320739746 -1.8564696311950684 -2.5
-5.191000938415527 -2.7244482040405273 -2.5
-4.686748027801514 -3.521860361099243 -2.5
-4.061113357543945 -4.22805643081665 -2.5
-3.3302929401397705 -4.824755668640137 -2.5
-2.9312744140625 -5.077085018157959 -2.5
-2.5132226943969727 -5.296494007110596 -2.5
-2.0788769721984863 -5.481543064117432 -2.5
-0.7066503763198853 -5.819770336151123 -2.5
-0.23606444895267487 -5.857758522033691 -2.5
0.7066503763198853 -5.819770336151123 -2.5
1.6310546398162842 -5.631044864654541 -2.5
2.5132079124450684 -5.296489238739014 -2.5
4.061108112335205 -4.22805643081665 -2.5
4.686748027801514 -3.521860361099243 -2.5
4.954941272735596 -3.133310556411743 -2.5
5.190996170043945 -2.724443197250366 -2.5
5.393393516540527 -2.297914981842041 -2.5
5.560815334320068 -1.8564696311950684 -2.5
5.692162990570068 -1.4029979705810547 -2.5
5.843510627746582 -0.4717333912849426 -2.5
-5.687026023864746 4.882812390860636e-06 -2.5
-5.668583869934082 -0.4576171636581421 -2.5
-5.231943130493164 -2.229116201400757 -2.5
-4.546454906463623 -3.416435480117798 -2.5
-3.9395408630371094 -4.101493835449219 -2.5
-3.5967283248901367 -4.405190467834473 -2.5
-2.0166406631469727 -5.317455768585205 -2.5
-1.5822314023971558 -5.462485313415527 -2.5
-0.685498058795929 -5.645551681518555 -2.5
-0.22898925840854645 -5.68240213394165 -2.5
0.6854931712150574 -5.645556449890137 -2.5
1.5822265148162842 -5.462485313415527 -2.5
2.0166406631469727 -5.317461013793945 -2.5
2.437983274459839 -5.137944221496582 -2.5
2.843510627746582 -4.925107479095459 -2.5
3.5967283248901367 -4.405195236206055 -2.5
3.9395360946655273 -4.101493835449219 -2.5
5.521772384643555 -1.3609960079193115 -2.5
-5.502260684967041 -0.4441894292831421 -2.5
-5.448671817779541 -0.885498046875 -2.5
-5.236073970794678 -1.7480664253234863 -2.5
-5.078427791595459 -2.163710832595825 -2.5
-4.413051605224609 -3.3161864280700684 -2.5
-3.8239500522613525 -3.981142520904541 -2.5
-3.135805606842041 -4.542993068695068 -2.5
-1.535805583000183 -5.302206993103027 -2.5
-1.104189395904541 -5.408593654632568 -2.5
-0.22227539122104645 -5.515673637390137 -2.5
1.9574755430221558 -5.161435604095459 -2.5
2.3664402961730957 -4.987196922302246 -2.5
2.760077953338623 -4.780595779418945 -2.5
3.135805606842041 -4.543002605438232 -2.5
3.8239500522613525 -3.981152296066284 -2.5
4.131889343261719 -3.6605420112609863 -2.5
4.413051605224609 -3.3161864280700684 -2.5
4.887856483459473 -2.5653467178344727 -2.5
5.078427791595459 -2.1637158393859863 -2.5
5.236073970794678 -1.7480566501617432 -2.5
5.359750747680664 -1.3210595846176147 -2.5
-5.361264705657959 0.0 -2.5
-5.291831016540527 -0.8600097298622131 -2.5
-4.932255744934082 -2.101435422897339 -2.5
-4.747162818908691 -2.4914989471435547 -2.5
-4.01296854019165 -3.555180549621582 -2.5
-3.713876962661743 -3.8665525913238525 -2.5
-1.9011279344558716 -5.012870788574219 -2.5
-1.491601586341858 -5.149589538574219 -2.5
-0.6462304592132568 -5.322167873382568 -2.5
1.0723974704742432 -5.252910137176514 -2.5
1.4915966987609863 -5.149589538574219 -2.5
1.9011279344558716 -5.012870788574219 -2.5
4.531289100646973 -2.865410089492798 -2.5
4.932255744934082 -2.101435422897339 -2.5
5.08535623550415 -1.6977343559265137 -2.5
5.205478191375732 -1.2830321788787842 -2.5
