ply
format ascii 1.0
element vertex 719
property float x
property float y
property float z
end_header
12.312373161315918 -15.079867362976074 5.216393947601318
12.375834465026855 -15.1575927734375 4.551947593688965
12.40782642364502 -15.196782112121582 4.335127353668213
1.081118106842041 -26.827856063842773 1.9747021198272705
19.61672019958496 -20.423198699951172 2.0827133655548096
11.250244140625 -23.709388732910156 1.3461837768554688
-28.040815353393555 -9.361391067504883 -1.7628933191299438
-23.50067901611328 -14.860941886901855 -1.6581164598464966
-26.536399841308594 -8.859135627746582 -1.9796485900878906
-13.526556968688965 -19.59664535522461 -1.6849626302719116
-28.385765075683594 -4.613120079040527 -2.3555281162261963
-25.378393173217773 -13.319623947143555 -2.347599983215332
-24.25399398803711 -15.337299346923828 -2.3504810333251953
-22.98984718322754 -17.275775909423828 -2.355466365814209
-21.556406021118164 -19.097309112548828 -2.3588805198669434
-14.432514190673828 -24.997865676879883 -2.3642845153808594
-8.05526351928711 -27.810014724731445 -2.3715009689331055
-1.1677782535552979 -28.978450775146484 -2.375498056411743
0.6198388338088989 -15.381059646606445 -1.2608567476272583
3.4971094131469727 -28.801420211791992 -2.3763976097106934
5.802475452423096 -28.422426223754883 -2.3760502338409424
10.278124809265137 -27.101186752319336 -2.374084711074829
9.232797622680664 -19.457719802856445 -1.7640620470046997
14.471689224243164 -25.06568717956543 -2.3707001209259033
16.42348289489746 -23.793519973754883 -2.3680715560913086
18.26229476928711 -22.367259979248047 -2.3651535511016846
19.61064910888672 -20.4168701171875 -2.3187756538391113
24.22426414489746 -15.318520545959473 -2.347599983215332
25.37834930419922 -13.319584846496582 -2.347599983215332
27.18632698059082 -9.076117515563965 -2.347599983215332
-26.773061752319336 -2.161323308944702 -2.5
-23.924720764160156 -7.987241268157959 -2.347599983215332
-23.204423904418945 -9.886488914489746 -2.347599983215332
-22.333646774291992 -11.7216157913208 -2.347599983215332
-18.879507064819336 -16.725767135620117 -2.347599983215332
-17.483745574951172 -18.202484130859375 -2.3491194248199463
-15.973783493041992 -19.564350128173828 -2.3508031368255615
-7.547582626342773 -19.901351928710938 -1.9810470342636108
-7.054780006408691 -24.355932235717773 -2.3601009845733643
-5.075229167938232 -24.86003303527832 -2.3615646362304688
8.994868278503418 -23.717533111572266 -2.360921621322632
9.302704811096191 -19.60506248474121 -2.0197389125823975
17.484588623046875 -18.20340347290039 -2.3492367267608643
20.16415786743164 -15.152377128601074 -2.347599983215332
21.318021774291992 -13.480708122253418 -2.347599983215332
23.204418182373047 -9.886488914489746 -2.347599983215332
26.07964324951172 -6.428071022033691 -2.5
26.512319564819336 -4.308686256408691 -2.5
-23.97759246826172 1.4648437172581907e-05 -2.5
-23.89984893798828 -1.9293895959854126 -2.5
-23.280824661254883 -5.738207817077637 -2.5
-21.509912490844727 -9.164525985717773 -2.4377851486206055
-19.93685531616211 -10.463685989379883 -2.347599983215332
-18.00015640258789 -13.5262451171875 -2.347599983215332
-16.853397369384766 -14.930795669555664 -2.347599983215332
-15.597333908081055 -16.23853874206543 -2.347599983215332
-6.04442834854126 -8.75687026977539 -1.1094094514846802
-7.581000804901123 -19.98946762084961 -2.229036331176758
-6.274028301239014 -21.66048240661621 -2.351243495941162
-4.513139724731445 -22.106792449951172 -2.352487087249756
-0.6118798851966858 -15.183881759643555 -1.5844188928604126
2.720707893371582 -22.40708351135254 -2.3534133434295654
4.513696193695068 -22.109506607055664 -2.352773427963257
7.99465799331665 -21.080190658569336 -2.3506617546081543
10.877236366271973 -15.758315086364746 -1.996431827545166
19.030231475830078 -12.033998489379883 -2.347599983215332
19.936840057373047 -10.46365737915039 -2.347599983215332
22.013601303100586 -9.379125595092773 -2.4948692321777344
23.28081512451172 -5.738227367401123 -2.5
23.899808883666992 -1.9293944835662842 -2.5
-21.57870101928711 -1.7420018911361694 -2.5
-21.368558883666992 -3.472719669342041 -2.5
-19.14836311340332 -10.049848556518555 -2.497288227081299
-17.56583023071289 -11.107973098754883 -2.4000401496887207
-16.25200080871582 -12.212602615356445 -2.347599983215332
-14.08251953125 -14.661449432373047 -2.347599983215332
-12.85707950592041 -15.747084617614746 -2.347599983215332
-4.066362380981445 -19.9183349609375 -2.347599983215332
-1.8510204553604126 -15.244555473327637 -1.7733603715896606
0.6198828220367432 -15.3825044631958 -1.7778042554855347
2.4504051208496094 -20.180952072143555 -2.347599983215332
4.066357135772705 -19.918344497680664 -2.347599983215332
5.655932426452637 -19.52653694152832 -2.347599983215332
14.082504272460938 -14.661459922790527 -2.347599983215332
15.2166109085083 -13.48073673248291 -2.347599983215332
16.252016067504883 -12.2125825881958 -2.347599983215332
17.615575790405273 -11.139418601989746 -2.4068374633789062
19.169139862060547 -10.060747146606445 -2.5
19.916528701782227 -8.485649108886719 -2.5
20.534770965576172 -6.855502605438232 -2.5
21.01980972290039 -5.180932521820068 -2.5
21.578691482543945 -1.7420116662979126 -2.5
-19.472509384155273 -3.1645848751068115 -2.5
-18.71271514892578 -6.24722146987915 -2.5
-18.149330139160156 -7.732709884643555 -2.5
-15.72509765625 -11.816655158996582 -2.4926629066467285
-14.0554780960083 -12.452065467834473 -2.3796048164367676
-5.242529392242432 -9.080327033996582 -1.3287034034729004
-5.154072284698486 -17.7939395904541 -2.347599983215332
-1.8510204553604126 -15.244555473327637 -1.9460304975509644
-0.6134619116783142 -15.22311019897461 -1.9306914806365967
0.6198974251747131 -15.3827486038208 -1.950934886932373
5.154086589813232 -17.793949127197266 -2.347599983215332
10.5236177444458 -15.246078491210938 -2.347599983215332
11.69381332397461 -14.322270393371582 -2.3430938720703125
12.832963943481445 -13.360551834106445 -2.347599983215332
14.02660083770752 -12.42647933959961 -2.374716281890869
15.714765548706055 -11.808881759643555 -2.491023302078247
16.673892974853516 -10.543930053710938 -2.5
18.149328231811523 -7.732719421386719 -2.5
18.71271514892578 -6.247201919555664 -2.5
19.154720306396484 -4.721225261688232 -2.5
19.472503662109375 -3.1645946502685547 -2.5
19.66400909423828 -1.5874364376068115 -2.5
-18.116058349609375 0.0 -2.5
-18.05730438232422 -1.4577245712280273 -2.5
-17.589643478393555 -4.335464000701904 -2.5
-17.183753967285156 -5.736772537231445 -2.5
-16.666391372680664 -7.100893497467041 -2.5
-16.04097557067871 -8.41896915435791 -2.5
-15.311508178710938 -9.682416915893555 -2.5
-13.560063362121582 -12.013158798217773 -2.5
-5.217221736907959 -9.036478996276855 -1.43994140625
-4.486152172088623 -9.45438003540039 -1.4441250562667847
-1.8510204553604126 -15.244555473327637 -2.119185209274292
-0.6134667992591858 -15.223100662231445 -2.10248064994812
2.050532102584839 -16.887670516967773 -2.347599983215332
4.73293924331665 -16.34005355834961 -2.347599983215332
6.032431602478027 -15.90621566772461 -2.347599983215332
7.292792797088623 -15.369223594665527 -2.347599983215332
8.505854606628418 -14.732572555541992 -2.347599983215332
9.663749694824219 -14.00035572052002 -2.347599983215332
14.482748985290527 -10.883070945739746 -2.5
15.311498641967773 -9.682416915893555 -2.5
16.040966033935547 -8.418950080871582 -2.5
16.66638946533203 -7.100893497467041 -2.5
17.88145637512207 -2.906020402908325 -2.5
18.05730628967285 -1.4577343463897705 -2.5
-16.689472198486328 -1.3473095893859863 -2.5
-16.52693748474121 -2.6858935356140137 -2.5
-15.882075309753418 -5.302221775054932 -2.5
-15.40392017364502 -6.563012599945068 -2.5
-14.151664733886719 -8.948979377746582 -2.5
-11.598803520202637 -12.075629234313965 -2.5
-6.705468654632568 -8.212719917297363 -1.5830450057983398
-5.948207855224609 -8.61746597290039 -1.5634174346923828
-5.207958698272705 -9.020453453063965 -1.5551944971084595
-4.467006683349609 -9.41402816772461 -1.555815577507019
-4.374423503875732 -15.102299690246582 -2.347599983215332
-3.145014524459839 -15.405306816101074 -2.347599983215332
0.619921863079071 -15.383207321166992 -2.298720598220825
6.744389533996582 -14.213510513305664 -2.349003791809082
8.065468788146973 -13.969789505004883 -2.4084980487823486
9.439437866210938 -13.675375938415527 -2.481046676635742
12.532885551452637 -11.103178024291992 -2.5
14.151655197143555 -8.948979377746582 -2.5
14.825859069824219 -7.781205654144287 -2.5
15.882055282592773 -5.302202224731445 -2.5
16.257211685180664 -4.007055759429932 -2.5
-15.561088562011719 -4.882812390860636e-06 -2.5
-15.510629653930664 -1.252138614654541 -2.5
-13.152079582214355 -8.316879272460938 -2.5
-12.440204620361328 -9.348207473754883 -2.5
-11.6476411819458 -10.318921089172363 -2.5
-10.779536247253418 -11.222700119018555 -2.5
-6.68655252456665 -8.189555168151855 -1.6985551118850708
-5.942856311798096 -8.609721183776855 -1.6807286739349365
-4.459340572357178 -9.397866249084473 -1.67118501663208
-5.453920841217041 -14.380834579467773 -2.4709548950195312
-4.20681619644165 -14.5236177444458 -2.4292328357696533
-2.9861814975738525 -14.627338409423828 -2.398455858230591
-0.5935009717941284 -14.727543830871582 -2.3680033683776855
2.9847068786621094 -14.620043754577637 -2.3972601890563965
4.203891277313232 -14.51353931427002 -2.4275457859039307
9.841537475585938 -12.053695678710938 -2.5
10.779541015625 -11.222709655761719 -2.5
11.647631645202637 -10.318921089172363 -2.5
12.440204620361328 -9.348197937011719 -2.5
13.778656959533691 -7.231586933135986 -2.5
14.315874099731445 -6.099428653717041 -2.5
14.76025390625 -4.927690505981445 -2.5
15.359569549560547 -2.496166944503784 -2.5
9.172919273376465 -0.7405126690864563 -1.4784902334213257
-14.531059265136719 4.882812390860636e-06 -2.5
-14.483935356140137 -1.1692626476287842 -2.5
-13.783246994018555 -4.601528167724609 -2.5
-13.36827564239502 -5.695698261260986 -2.5
-12.281508445739746 -7.766362190246582 -2.5
-11.616747856140137 -8.729437828063965 -2.5
-5.152782917022705 -13.586771965026855 -2.5
-2.905268430709839 -14.230941772460938 -2.498868227005005
-1.749355435371399 -14.407270431518555 -2.496907949447632
0.5841454863548279 -14.495433807373047 -2.4958953857421875
1.7493163347244263 -14.4068603515625 -2.496837615966797
4.042792797088623 -13.957338333129883 -2.5
5.152788162231445 -13.58678150177002 -2.5
6.229350566864014 -13.128090858459473 -2.5
7.265522480010986 -12.58426284790039 -2.5
8.254579544067383 -11.958823204040527 -2.5
10.06600570678711 -10.479848861694336 -2.5
10.8766450881958 -9.635883331298828 -2.5
11.616743087768555 -8.729409217834473 -2.5
12.281494140625 -7.766362190246582 -2.5
12.866605758666992 -6.75292444229126 -2.5
13.368270874023438 -5.695688247680664 -2.5
13.78323745727539 -4.601508617401123 -2.5
-13.625673294067383 9.765624781721272e-06 -2.5
-13.581483840942383 -1.0964062213897705 -2.5
-13.229741096496582 -3.2608447074890137 -2.5
-11.516283988952637 -7.282475471496582 -2.5
-9.438822746276855 -9.82686996459961 -2.5
-6.643798828125 -8.137191772460938 -1.927417516708374
-5.199814319610596 -9.006332397460938 -1.9080935716629028
-3.790903329849243 -13.087699890136719 -2.5
-2.7254834175109863 -13.35030746459961 -2.5
-1.6423876285552979 -13.526323318481445 -2.5
-0.5486523509025574 -13.614633560180664 -2.5
2.7254834175109863 -13.35030746459961 -2.5
3.790898323059082 -13.087709426879883 -2.5
5.841220378875732 -12.310121536254883 -2.5
6.812836647033691 -11.800180435180664 -2.5
7.740268230438232 -11.213715553283691 -2.5
8.617494583129883 -10.554516792297363 -2.5
9.438822746276855 -9.826879501342773 -2.5
10.198954582214355 -9.035502433776855 -2.5
12.06493091583252 -6.332162857055664 -2.5
12.924448013305664 -4.314809322357178 -2.5
13.449223518371582 -2.1857080459594727 -2.5
-12.781874656677246 -1.0318554639816284 -2.5
-12.657387733459473 -2.0570263862609863 -2.5
-12.450819969177246 -3.068862199783325 -2.5
-11.354609489440918 -5.95937967300415 -2.5
-10.8382568359375 -6.853705883026123 -2.5
-10.251615524291992 -7.703598499298096 -2.5
-9.598485946655273 -8.503520011901855 -2.5
-8.883110046386719 -9.248305320739746 -2.5
-5.93737268447876 -8.601781845092773 -2.0376620292663574
-5.200302600860596 -9.007192611694336 -2.0276525020599365
-2.565019369125366 -12.564291954040527 -2.5
-0.5163378715515137 -12.813060760498047 -2.5
2.5650243759155273 -12.564301490783691 -2.5
3.567704916000366 -12.31716251373291 -2.5
5.497314453125 -11.585346221923828 -2.5
6.411718368530273 -11.10543441772461 -2.5
7.2845458984375 -10.55349063873291 -2.5
10.25161075592041 -7.703588485717773 -2.5
11.354598999023438 -5.9593505859375 -2.5
11.797304153442383 -5.026371955871582 -2.5
12.163500785827637 -4.060776233673096 -2.5
12.450819969177246 -3.068862199783325 -2.5
12.65738296508789 -2.0570361614227295 -2.5
-11.755698204040527 -2.897514581680298 -2.5
-11.484423637390137 -3.8340673446655273 -2.5
-10.720673561096191 -5.626645565032959 -2.5
-10.233149528503418 -6.471059322357178 -2.5
-9.679266929626465 -7.273510456085205 -2.5
-9.062617301940918 -8.028764724731445 -2.5
-5.198349475860596 -9.003813743591309 -2.1467463970184326
-4.439248085021973 -9.355522155761719 -2.1382007598876953
-4.293383598327637 -11.320727348327637 -2.5
-2.421811580657959 -11.86282730102539 -2.5
-1.4593993425369263 -12.019232749938965 -2.5
0.4875146448612213 -12.097700119018555 -2.5
1.4593944549560547 -12.019232749938965 -2.5
2.421811580657959 -11.86282730102539 -2.5
3.368520498275757 -11.629496574401855 -2.5
4.293378829956055 -11.320727348327637 -2.5
5.190400123596191 -10.938539505004883 -2.5
6.877856254577637 -9.9642915725708 -2.5
7.6573486328125 -9.378530502319336 -2.5
8.387163162231445 -8.731977462768555 -2.5
10.233149528503418 -6.4710693359375 -2.5
10.720678329467773 -5.626645565032959 -2.5
11.138651847839355 -4.745737075805664 -2.5
11.484414100646973 -3.834057569503784 -2.5
11.755688667297363 -2.897524356842041 -2.5
8.996899604797363 -0.7263036966323853 -1.8637540340423584
-11.427338600158691 -0.9224950671195984 -2.5
-11.13138198852539 -2.7436375617980957 -2.5
-10.547133445739746 -4.493715763092041 -2.5
-10.15133285522461 -5.327826976776123 -2.5
-9.1652193069458 -6.887221336364746 -2.5
-8.581317901611328 -7.602377891540527 -2.5
-7.941747665405273 -8.268237113952637 -2.5
-6.512582778930664 -9.435102462768555 -2.5
-5.196269512176514 -9.000200271606445 -2.2662389278411865
-4.438769340515137 -9.354506492614746 -2.257880449295044
-4.065366268157959 -10.71950626373291 -2.5
-3.189628839492798 -11.011879920959473 -2.5
-1.3818944692611694 -11.380932807922363 -2.5
-0.461616188287735 -11.455209732055664 -2.5
0.4616406261920929 -11.455219268798828 -2.5
2.2931933403015137 -11.232827186584473 -2.5
4.914755821228027 -10.35763168334961 -2.5
6.512587547302246 -9.435111999511719 -2.5
7.941742897033691 -8.2682466506958 -2.5
8.581308364868164 -7.602387428283691 -2.5
9.165214538574219 -6.887221336364746 -2.5
10.151323318481445 -5.327826976776123 -2.5
11.13137149810791 -2.743647336959839 -2.5
8.987744331359863 -0.7255712747573853 -1.9662814140319824
-10.883720397949219 -4.882812390860636e-06 -2.5
-10.742768287658691 -1.7458593845367432 -2.5
-8.700898170471191 -6.538315296173096 -2.5
-6.182641506195068 -8.957104682922363 -2.5
-5.441850662231445 -9.42556095123291 -2.5
-4.437675476074219 -9.352221488952637 -2.377789258956909
-3.8594090938568115 -10.176440238952637 -2.5
-2.1770215034484863 -10.663744926452637 -2.5
-1.3118847608566284 -10.804349899291992 -2.5
-0.438232421875 -10.874868392944336 -2.5
1.3118896484375 -10.804360389709473 -2.5
2.177016496658325 -10.6637544631958 -2.5
3.028027296066284 -10.453998565673828 -2.5
4.665766716003418 -9.8328857421875 -2.5
6.883344650268555 -8.430571556091309 -2.5
7.539403915405273 -7.849350452423096 -2.5
8.70089340209961 -6.538305282592773 -2.5
10.323588371276855 -3.446528196334839 -2.5
10.5674409866333 -2.6046533584594727 -2.5
10.742758750915527 -1.7458739280700684 -2.5
-10.32277774810791 -0.8333398103713989 -2.5
-10.055419921875 -2.4784326553344727 -2.5
-9.823383331298828 -3.2795164585113525 -2.5
-9.527631759643555 -4.059350490570068 -2.5
-8.753090858459473 -5.535121917724609 -2.5
-7.751850605010986 -6.867524147033691 -2.5
-6.549818992614746 -8.022085189819336 -2.5
-5.883070945739746 -8.523110389709473 -2.5
-5.178173542022705 -8.968862533569336 -2.5
-2.8813230991363525 -9.94747543334961 -2.5
-2.071547746658325 -10.147065162658691 -2.5
-1.2483105659484863 -10.280835151672363 -2.5
-0.4170019328594208 -10.347963333129883 -2.5
0.41701170802116394 -10.347953796386719 -2.5
2.071537971496582 -10.147055625915527 -2.5
2.8813133239746094 -9.947465896606445 -2.5
5.178178787231445 -8.9688720703125 -2.5
7.174096584320068 -7.469038009643555 -2.5
8.279306411743164 -6.221508502960205 -2.5
9.527641296386719 -4.059350490570068 -2.5
10.055415153503418 -2.478452205657959 -2.5
9.003662109375 -0.7268505692481995 -2.180535316467285
-9.58834457397461 -2.3633153438568115 -2.5
-9.36708927154541 -3.127192258834839 -2.5
-9.085087776184082 -3.870795726776123 -2.5
-8.744145393371582 -4.589292049407959 -2.5
-8.346518516540527 -5.278012752532959 -2.5
-6.245585918426514 -7.649467468261719 -2.5
-5.609809398651123 -8.127211570739746 -2.5
-4.937655925750732 -8.55226993560791 -2.5
-4.233461856842041 -8.92184066772461 -2.5
-2.7474756240844727 -9.485404968261719 -2.5
-1.975307583808899 -9.675726890563965 -2.5
-1.190332055091858 -9.803315162658691 -2.5
-0.39763182401657104 -9.867300033569336 -2.5
0.3976415991783142 -9.867289543151855 -2.5
1.1903417110443115 -9.803305625915527 -2.5
1.9753124713897705 -9.675726890563965 -2.5
2.7474803924560547 -9.485404968261719 -2.5
4.233461856842041 -8.921859741210938 -2.5
4.93765115737915 -8.552260398864746 -2.5
5.609819412231445 -8.127211570739746 -2.5
6.245585918426514 -7.649457931518555 -2.5
6.840854167938232 -7.122104167938232 -2.5
7.391767501831055 -6.548549652099609 -2.5
7.894736289978027 -5.932514667510986 -2.5
8.346498489379883 -5.278032302856445 -2.5
9.085073471069336 -3.870795726776123 -2.5
9.367084503173828 -3.127192258834839 -2.5
9.588349342346191 -2.3633251190185547 -2.5
-9.312431335449219 -1.5134081840515137 -2.5
-8.949071884155273 -2.9876317977905273 -2.5
-8.353920936584473 -4.384477615356445 -2.5
-7.97402811050415 -5.042475700378418 -2.5
-5.966860294342041 -7.308090686798096 -2.5
-5.359462738037109 -7.7645263671875 -2.5
-4.717299461364746 -8.170599937438965 -2.5
-4.044550895690918 -8.52370548248291 -2.5
-3.3455517292022705 -8.821517944335938 -2.5
-0.3798877000808716 -9.426947593688965 -2.5
0.3798877000808716 -9.426947593688965 -2.5
2.624868154525757 -9.062113761901855 -2.5
5.359462738037109 -7.7645263671875 -2.5
7.542421817779541 -5.667768478393555 -2.5
8.679643630981445 -3.698061466217041 -2.5
-9.029292106628418 -4.882812390860636e-06 -2.5
-9.000004768371582 -0.7265429496765137 -2.5
-8.912358283996582 -1.44839346408844 -2.5
-8.306753158569336 -3.5391650199890137 -2.5
-7.99502420425415 -4.196127891540527 -2.5
-7.631459712982178 -4.825844764709473 -2.5
-7.218398094177246 -5.424292087554932 -2.5
-6.758520126342773 -5.987524509429932 -2.5
-3.870781183242798 -8.157514572143555 -2.5
-3.2018115520477295 -8.442523956298828 -2.5
-2.5121045112609863 -8.6727876663208 -2.5
-1.8060888051986694 -8.8468017578125 -2.5
-0.3635644316673279 -9.021967887878418 -2.5
1.0883642435073853 -8.963452339172363 -2.5
1.8060888051986694 -8.8468017578125 -2.5
3.2018213272094727 -8.442523956298828 -2.5
3.870781183242798 -8.157514572143555 -2.5
4.514638423919678 -7.819584846496582 -2.5
5.710522174835205 -6.994125843048096 -2.5
7.218393325805664 -5.424272537231445 -2.5
7.631450176239014 -4.825854301452637 -2.5
8.306753158569336 -3.539174795150757 -2.5
8.7669038772583 -2.1608543395996094 -2.5
8.912348747253418 -1.448403239250183 -2.5
9.000009536743164 -0.7265625 -2.5
-8.62709903717041 -0.6964452862739563 -2.5
-8.543070793151855 -1.3883788585662842 -2.5
-8.403661727905273 -2.0713133811950684 -2.5
-8.20974063873291 -2.7408056259155273 -2.5
-7.962573051452637 -3.392534017562866 -2.5
-5.473916053771973 -6.70434045791626 -2.5
-4.327578067779541 -7.495580673217773 -2.5
-3.069155216217041 -8.0927095413208 -2.5
-0.34849607944488525 -8.6481294631958 -2.5
0.3485058546066284 -8.648149490356445 -2.5
1.0432665348052979 -8.592055320739746 -2.5
1.7312548160552979 -8.48024845123291 -2.5
3.069164991378784 -8.0927095413208 -2.5
4.327582836151123 -7.495580673217773 -2.5
4.916684627532959 -7.123051643371582 -2.5
5.995629787445068 -6.242124080657959 -2.5
6.919301509857178 -5.199516296386719 -2.5
7.663759708404541 -4.022260665893555 -2.5
8.209731101989746 -2.7408056259155273 -2.5
8.543075561523438 -1.388393521308899 -2.5
8.627084732055664 -0.6964501738548279 -2.5
-8.28173828125 -0.6685644388198853 -2.5
-8.20108413696289 -1.3328124284744263 -2.5
-8.067245483398438 -1.9884130954742432 -2.5
-7.643813133239746 -3.256723642349243 -2.5
-7.356977462768555 -3.8612449169158936 -2.5
-7.022417068481445 -4.440707683563232 -2.5
-6.642314434051514 -4.991381645202637 -2.5
-5.25478982925415 -6.435952186584473 -2.5
-4.719862937927246 -6.837914943695068 -2.5
-3.5618650913238525 -7.506479263305664 -2.5
-1.6619482040405273 -8.140766143798828 -2.5
1.0014941692352295 -8.248100280761719 -2.5
2.946298837661743 -7.768754482269287 -2.5
4.719868183135986 -6.837904930114746 -2.5
5.755620002746582 -5.992250919342041 -2.5
8.067240715026855 -1.9884130954742432 -2.5
-7.98681640625 4.882812390860636e-06 -2.5
-7.960927486419678 -0.6426708698272705 -2.5
-7.754735946655273 -1.9113622903823853 -2.5
-6.750375747680664 -4.268686294555664 -2.5
-5.051225662231445 -6.186635494232178 -2.5
-4.537035942077637 -6.573022365570068 -2.5
-3.993412971496582 -6.916791915893555 -2.5
-3.423881769180298 -7.215678691864014 -2.5
-2.2220702171325684 -7.671479225158691 -2.5
-0.3215966820716858 -7.980336666107178 -2.5
0.9627001881599426 -7.928569316864014 -2.5
1.5975682735443115 -7.825405120849609 -2.5
2.832163095474243 -7.467817306518555 -2.5
3.993408203125 -6.916781902313232 -2.5
6.384999752044678 -4.798022270202637 -2.5
6.750370979309082 -4.268686294555664 -2.5
7.347700119018555 -3.130571126937866 -2.5
7.575786113739014 -2.5291748046875 -2.5
7.754741191864014 -1.9113818407058716 -2.5
7.883383750915527 -1.2811815738677979 -2.5
7.960912704467773 -0.6426806449890137 -2.5
-7.662040710449219 -0.6185400485992432 -2.5
-7.58743143081665 -1.233071208000183 -2.5
-7.463598251342773 -1.8396190404891968 -2.5
-7.29137659072876 -2.4342236518859863 -2.5
-7.071850299835205 -3.0130419731140137 -2.5
-6.806474685668945 -3.572319269180298 -2.5
-6.496953010559082 -4.108422756195068 -2.5
-6.14529275894165 -4.617895603179932 -2.5
-4.861591815948486 -5.954370021820068 -2.5
-4.366694450378418 -6.326244831085205 -2.5
-1.5375927686691284 -7.5316162109375 -2.5
-0.3095166087150574 -7.680737018585205 -2.5
0.30952146649360657 -7.680727481842041 -2.5
0.9265722632408142 -7.630912780761719 -2.5
2.1386375427246094 -7.383471488952637 -2.5
2.725834846496582 -7.187426567077637 -2.5
3.8434863090515137 -6.6571044921875 -2.5
5.324941158294678 -5.543871879577637 -2.5
5.753774166107178 -5.097416877746582 -2.5
6.806469440460205 -3.5723094940185547 -2.5
7.071845531463623 -3.013051748275757 -2.5
7.463598251342773 -1.8396190404891968 -2.5
-7.406879901885986 0.0 -2.5
-7.191655158996582 -1.7725781202316284 -2.5
-6.5584716796875 -3.442153215408325 -2.5
-6.260219573974609 -3.9587254524230957 -2.5
-5.921371936798096 -4.449624061584473 -2.5
-4.684438228607178 -5.737407207489014 -2.5
-2.060722589492798 -7.114438533782959 -2.5
-1.4815576076507568 -7.257192134857178 -2.5
-0.8927978277206421 -7.352875709533691 -2.5
0.2982421815395355 -7.40087366104126 -2.5
2.060717821121216 -7.114428520202637 -2.5
2.626513719558716 -6.925551414489746 -2.5
3.1752734184265137 -6.691742897033691 -2.5
4.207587718963623 -6.095736980438232 -2.5
4.684443473815918 -5.737407207489014 -2.5
5.130918025970459 -5.341860294342041 -2.5
5.921371936798096 -4.449624061584473 -2.5
6.260214805603027 -3.9587254524230957 -2.5
7.19164514541626 -1.7726025581359863 -2.5
7.310956954956055 -1.1881444454193115 -2.5
7.382856369018555 -0.5960107445716858 -2.5
-6.936982154846191 -1.7098095417022705 -2.5
-6.776904106140137 -2.262465715408325 -2.5
-6.038539886474609 -3.81853985786438 -2.5
-5.347812175750732 -4.737749099731445 -2.5
-4.949233055114746 -5.152690410614014 -2.5
-4.518564224243164 -5.534233093261719 -2.5
-1.9877392053604126 -6.862514495849609 -2.5
-0.28767576813697815 -7.138783931732178 -2.5
3.5722997188568115 -6.187397480010986 -2.5
4.518564224243164 -5.534233093261719 -2.5
5.347792625427246 -4.737749099731445 -2.5
6.038530349731445 -3.8185300827026367 -2.5
6.776899337768555 -2.262455940246582 -2.5
6.936982154846191 -1.7098290920257568 -2.5
7.052070140838623 -1.146083950996399 -2.5
7.121420860290527 -0.574902355670929 -2.5
-6.543398380279541 -2.184506893157959 -2.5
-6.108246803283691 -3.2058544158935547 -2.5
-5.514897346496582 -4.144174575805664 -2.5
-5.163535118103027 -4.574487209320068 -2.5
-4.778710842132568 -4.975161075592041 -2.5
-3.9187450408935547 -5.677279949188232 -2.5
-3.449208974838257 -5.974184513092041 -2.5
-2.4462010860443115 -6.450131893157959 -2.5
-1.9192577600479126 -6.626059532165527 -2.5
-1.3798534870147705 -6.758998870849609 -2.5
0.8315087556838989 -6.848110198974609 -2.5
1.379858374595642 -6.758998870849609 -2.5
3.9187400341033936 -5.677279949188232 -2.5
4.778696060180664 -4.975161075592041 -2.5
5.163530349731445 -4.574496746063232 -2.5
5.514882564544678 -4.144155025482178 -2.5
5.830468654632568 -3.6869773864746094 -2.5
6.108237266540527 -3.2058544158935547 -2.5
6.543393611907959 -2.184506893157959 -2.5
6.697954177856445 -1.6509032249450684 -2.5
6.80907678604126 -1.106591820716858 -2.5
6.876039981842041 -0.5550878643989563 -2.5
-6.666860103607178 -4.882812390860636e-06 -2.5
-6.473124980926514 -1.5954785346984863 -2.5
-6.323744773864746 -2.1111767292022705 -2.5
-4.990200042724609 -4.420932292938232 -2.5
-4.618295669555664 -4.808149337768555 -2.5
-4.216415882110596 -5.164174556732178 -2.5
-3.7872068881988525 -5.486703872680664 -2.5
-3.333437442779541 -5.773657321929932 -2.5
-2.858027219772339 -6.023169040679932 -2.5
-2.364091634750366 -6.233598709106445 -2.5
-1.854824185371399 -6.403617858886719 -2.5
-1.3335399627685547 -6.532114028930664 -2.5
-0.2684375047683716 -6.661440372467041 -2.5
2.3640966415405273 -6.233608245849609 -2.5
4.216411113739014 -5.164174556732178 -2.5
4.990204811096191 -4.420942306518555 -2.5
5.634750843048096 -3.5631980895996094 -2.5
6.133354187011719 -2.6131885051727295 -2.5
6.473110198974609 -1.595483422279358 -2.5
6.580507755279541 -1.0694433450698853 -2.5
6.645219802856445 -0.5364648103713989 -2.5
-6.448569297790527 4.882812390860636e-06 -2.5
-5.155253887176514 -3.8739306926727295 -2.5
-4.826835632324219 -4.276186466217041 -2.5
-4.078364372253418 -4.995082855224609 -2.5
-3.6632080078125 -5.307065486907959 -2.5
-2.764457941055298 -5.825971603393555 -2.5
-1.7940917015075684 -6.193950176239014 -2.5
-0.7772900462150574 -6.401547908782959 -2.5
-0.2596484422683716 -6.443334579467773 -2.5
0.25965818762779236 -6.443334579467773 -2.5
2.286694288253784 -6.029516696929932 -2.5
2.7644481658935547 -5.825952053070068 -2.5
3.2242870330810547 -5.58462381362915 -2.5
4.078364372253418 -4.995092868804932 -2.5
4.46707010269165 -4.650717735290527 -2.5
5.155253887176514 -3.8739209175109863 -2.5
5.709926605224609 -2.9968016147613525 -2.5
6.11669397354126 -2.042055606842041 -2.5
6.427651405334473 -0.5189013481140137 -2.5
-6.242436408996582 -4.882812390860636e-06 -2.5
-6.061025142669678 -1.4939111471176147 -2.5
-5.92117166519165 -1.976772427558899 -2.5
-5.742905139923096 -2.446830987930298 -2.5
-5.527397155761719 -2.9010009765625 -2.5
-5.27603006362915 -3.33636212348938 -2.5
-4.324282169342041 -4.502045631408691 -2.5
-3.121220588684082 -5.406088829040527 -2.5
-2.676084041595459 -5.639711856842041 -2.5
-2.2135937213897705 -5.836772441864014 -2.5
-1.7367382049560547 -5.995952129364014 -2.5
-1.2486376762390137 -6.116264343261719 -2.5
1.2486474514007568 -6.116264343261719 -2.5
1.7367528676986694 -5.995952129364014 -2.5
3.9479832649230957 -4.835414886474609 -2.5
4.324272155761719 -4.502055644989014 -2.5
4.990448951721191 -3.7500927448272705 -2.5
5.27603006362915 -3.336371898651123 -2.5
5.527387619018555 -2.9010009765625 -2.5
5.742900371551514 -2.4468212127685547 -2.5
5.921162128448486 -1.976782202720642 -2.5
6.061025142669678 -1.4939062595367432 -2.5
6.161586761474609 -1.0013623237609863 -2.5
-6.047387599945068 -4.882812390860636e-06 -2.5
-6.027773380279541 -0.48661619424819946 -2.5
-5.969062328338623 -0.9700683355331421 -2.5
-5.563461780548096 -2.370375871658325 -2.5
-5.354692459106445 -2.810356378555298 -2.5
-4.526537895202637 -4.010151386260986 -2.5
-4.189159870147705 -4.361381530761719 -2.5
-3.435312509536743 -4.976899147033691 -2.5
-3.023696184158325 -5.237192153930664 -2.5
-2.592470645904541 -5.463510513305664 -2.5
-2.1444334983825684 -5.654399394989014 -2.5
-1.209633708000183 -5.925160884857178 -2.5
-0.2434960901737213 -6.04247522354126 -2.5
0.24350585043430328 -6.04247522354126 -2.5
1.209633708000183 -5.9251708984375 -2.5
1.6824804544448853 -5.808618068695068 -2.5
3.435302734375 -4.976889610290527 -2.5
3.824638605117798 -4.684330940246582 -2.5
4.189155101776123 -4.361381530761719 -2.5
4.52651834487915 -4.01016092300415 -2.5
4.834536075592041 -3.6329150199890137 -2.5
5.354682445526123 -2.810356378555298 -2.5
5.563461780548096 -2.370375871658325 -2.5
5.871645450592041 -1.4472460746765137 -2.5
5.969057559967041 -0.9700781106948853 -2.5
-5.862519264221191 4.882812390860636e-06 -2.5
-5.843520164489746 -0.4717431664466858 -2.5
-5.786611080169678 -0.9404101371765137 -2.5
-5.692172527313232 -1.402993083000183 -2.5
-5.191005706787109 -2.7244579792022705 -2.5
-4.954941272735596 -3.133315324783325 -2.5
-4.686752796173096 -3.5218701362609863 -2.5
-4.388164043426514 -3.8875732421875 -2.5
-3.7077293395996094 -4.5411376953125 -2.5
-2.931269407272339 -5.077104568481445 -2.5
-2.0788817405700684 -5.481557369232178 -2.5
-1.6310595273971558 -5.631049633026123 -2.5
0.2360546886920929 -5.857758522033691 -2.5
1.1726561784744263 -5.744038105010986 -2.5
1.6310546398162842 -5.631049633026123 -2.5
2.5132176876068115 -5.296498775482178 -2.5
2.931264638900757 -5.077094554901123 -2.5
4.686748027801514 -3.521860361099243 -2.5
4.954941272735596 -3.1333250999450684 -2.5
5.191000938415527 -2.7244482040405273 -2.5
5.560815334320068 -1.85647451877594 -2.5
5.843505859375 -0.4717382788658142 -2.5
-5.668588638305664 -0.45762205123901367 -2.5
-5.613379001617432 -0.9122655987739563 -2.5
-5.521772384643555 -1.3609960079193115 -2.5
-4.546450138092041 -3.41644024848938 -2.5
-4.256806373596191 -3.7712059020996094 -2.5
-3.9395458698272705 -4.101499080657959 -2.5
-3.596733331680298 -4.405200004577637 -2.5
-3.230605363845825 -4.680336952209473 -2.5
-2.016650438308716 -5.317455768585205 -2.5
0.6854931712150574 -5.645571231842041 -2.5
2.43798828125 -5.137944221496582 -2.5
2.843515634536743 -4.925112247467041 -2.5
3.230595588684082 -4.68032693862915 -2.5
3.939531087875366 -4.101499080657959 -2.5
4.256796836853027 -3.771196126937866 -2.5
4.546445369720459 -3.41644024848938 -2.5
5.035610198974609 -2.642885684967041 -2.5
5.231943130493164 -2.2291259765625 -2.5
5.668588638305664 -0.45762205123901367 -2.5
-5.502265453338623 -0.4441796839237213 -2.5
-5.359760761260986 -1.3210644721984863 -2.5
-4.887866020202637 -2.5653467178344727 -2.5
-3.491201162338257 -4.275951862335205 -2.5
-3.135810375213623 -4.543002605438232 -2.5
-2.366464853286743 -4.987202167510986 -2.5
-1.957485318183899 -5.161440372467041 -2.5
-0.22227050364017487 -5.515688419342041 -2.5
0.22228515148162842 -5.515688419342041 -2.5
0.6653759479522705 -5.479907035827637 -2.5
1.1041698455810547 -5.408588886260986 -2.5
1.5358006954193115 -5.302221775054932 -2.5
3.135810375213623 -4.543002605438232 -2.5
3.8239500522613525 -3.981157064437866 -2.5
4.131899356842041 -3.6605420112609863 -2.5
4.665580749511719 -2.9503369331359863 -2.5
5.359750747680664 -1.3210742473602295 -2.5
-5.343891620635986 -0.4314013719558716 -2.5
-5.291840553283691 -0.8600097298622131 -2.5
-5.085366249084473 -1.6977490186691284 -2.5
-4.747172832489014 -2.491508722305298 -2.5
-4.531293869018555 -2.865424633026123 -2.5
-4.286030292510986 -3.2207469940185547 -2.5
-4.012978553771973 -3.555180549621582 -2.5
-3.713881731033325 -3.866567373275757 -2.5
-3.3907127380371094 -4.152865886688232 -2.5
-3.0455565452575684 -4.412240982055664 -2.5
-2.298334836959839 -4.843637466430664 -2.5
-1.9011377096176147 -5.012885570526123 -2.5
-1.491601586341858 -5.149604320526123 -2.5
-1.0723925828933716 -5.252914905548096 -2.5
-0.21587401628494263 -5.356928825378418 -2.5
0.2158837914466858 -5.356918811798096 -2.5
1.491601586341858 -5.149594783782959 -2.5
1.9011279344558716 -5.012876033782959 -2.5
3.713881731033325 -3.866567373275757 -2.5
4.01296854019165 -3.555180549621582 -2.5
4.747162818908691 -2.491508722305298 -2.5
5.08535623550415 -1.6977441310882568 -2.5
5.205478191375732 -1.2830419540405273 -2.5
