ply
format ascii 1.0
element vertex 911
property float x
property float y
property float z
end_header
-5.261620998382568 18.165185928344727 5.067415714263916
-6.309287071228027 16.636220932006836 4.767467021942139
-7.07021951675415 14.900146484375 4.419148921966553
-7.737509727478027 13.401786804199219 4.146520137786865
-8.501405715942383 12.31639575958252 4.0100016593933105
-9.129804611206055 11.18197250366211 3.8680334091186523
-11.92586898803711 12.416142463684082 4.612982273101807
-17.44940948486328 15.458837509155273 6.246475696563721
3.3860106468200684 4.905498027801514 1.5265313386917114
-1.037685513496399 25.74964714050293 6.600009441375732
-6.309287071228027 16.636220932006836 4.556763648986816
-7.820531845092773 13.54556655883789 4.005783557891846
-8.501410484313965 12.316386222839355 3.8327739238739014
-11.476357460021973 11.948163986206055 4.242917537689209
-17.5003662109375 15.50399398803711 5.9878411293029785
-10.115693092346191 7.601454734802246 3.2406272888183594
-11.127646446228027 5.840234279632568 3.2185258865356445
-2.7914769649505615 22.989765167236328 5.658376216888428
-6.141406059265137 16.193544387817383 4.231574058532715
-9.129804611206055 11.18197250366211 3.527095317840576
-11.657963752746582 12.137235641479492 4.11189079284668
-17.500410079956055 15.504003524780273 5.712541580200195
-10.113637924194336 7.599921703338623 3.0910003185272217
3.3858299255371094 4.905224323272705 1.3864409923553467
-1.039333462715149 25.790517807006836 6.004247188568115
-4.127148151397705 20.216073989868164 4.799651145935059
-5.261620998382568 18.165185928344727 4.399269104003906
-6.196664810180664 16.33928680419922 4.064996242523193
-7.070214748382568 14.900156021118164 3.836477041244507
-7.820537090301514 13.545576095581055 3.6384196281433105
-9.129804611206055 11.18197250366211 3.358027935028076
-11.925864219665527 12.416142463684082 4.004753112792969
-17.5003604888916 15.503984451293945 5.438704490661621
3.385732412338257 4.905087947845459 1.3169467449188232
6.0135498046875 12.67332935333252 3.0996673107147217
-1.0393383502960205 25.790496826171875 5.703503131866455
-4.127148151397705 20.216073989868164 4.559246063232422
-6.227709770202637 16.421112060546875 3.8807263374328613
-7.820527076721191 13.545576095581055 3.4561755657196045
-8.612783432006836 12.477734565734863 3.3502283096313477
-17.500385284423828 15.504003524780273 5.166297435760498
-10.111166954040527 7.598056316375732 2.7947521209716797
3.385634660720825 4.904960632324219 1.2478888034820557
-1.039333462715149 25.790517807006836 5.404226779937744
-2.7914745807647705 22.989765167236328 4.848804950714111
-4.066098690032959 19.917020797729492 4.256105899810791
-7.820537090301514 13.545576095581055 3.274822950363159
-8.612783432006836 12.477734565734863 3.1744346618652344
-9.129804611206055 11.18197250366211 3.0224504470825195
-11.925864219665527 12.416142463684082 3.6045477390289307
-17.500370025634766 15.503984451293945 4.895207405090332
6.00405740737915 12.653339385986328 2.770745277404785
-5.261620998382568 18.165185928344727 3.741380453109741
-7.820531845092773 13.54556655883789 3.094313859939575
-8.612783432006836 12.477734565734863 2.9994561672210693
-11.925864219665527 12.416142463684082 3.4058618545532227
-17.500350952148438 15.503973960876465 4.625372409820557
3.385444164276123 4.904667854309082 1.1105272769927979
5.999911785125732 12.6445894241333 2.6080129146575928
-4.127143383026123 20.216083526611328 3.844804048538208
-7.07021951675415 14.900146484375 3.0732457637786865
-9.129804611206055 11.18197250366211 2.6899797916412354
-11.925854682922363 12.416142463684082 3.208042621612549
-16.902456283569336 14.974287033081055 4.207874774932861
-10.116400718688965 7.602001667022705 2.3580315113067627
-11.073735237121582 5.811943054199219 2.3304383754730225
3.385248899459839 4.904394626617432 1.0422723293304443
5.995751857757568 12.635839462280273 2.4461660385131836
-1.0393383502960205 25.790496826171875 4.514394283294678
-2.755378246307373 22.692529678344727 3.9980504512786865
-5.261620998382568 18.165185928344727 3.3076653480529785
-6.302206993103027 16.617557525634766 3.1083874702453613
-8.612783432006836 12.477734565734863 2.6517467498779297
-11.925859451293945 12.416132926940918 3.011040687561035
-17.270389556884766 15.300243377685547 4.035445690155029
5.991630554199219 12.627128601074219 2.285163640975952
-2.755380868911743 22.69251823425293 3.7374823093414307
-7.07021951675415 14.900146484375 2.696525812149048
-7.820537090301514 13.545576095581055 2.557316780090332
-8.612777709960938 12.477734565734863 2.4789235591888428
-9.129804611206055 11.18197250366211 2.3602406978607178
-11.925848960876465 12.416132926940918 2.8147997856140137
5.987514495849609 12.6184663772583 2.1249678134918213
-1.039333462715149 25.790517807006836 3.9270195960998535
-2.766674757003784 22.785547256469727 3.4921159744262695
-4.127148151397705 20.216073989868164 3.1391661167144775
-7.07021951675415 14.900146484375 2.5092124938964844
-7.820537090301514 13.545576095581055 2.379673480987549
-9.129804611206055 11.18197250366211 2.1962873935699463
1.1890941858291626 29.50700569152832 4.158652305603027
-1.0393383502960205 25.790496826171875 3.634855270385742
-2.766677141189575 22.785547256469727 3.2323057651519775
-5.261620998382568 18.165185928344727 2.6632330417633057
-6.309291839599609 16.636240005493164 2.505594491958618
-8.612783432006836 12.477734565734863 2.1351072788238525
-11.925854682922363 12.416142463684082 2.4243993759155273
-17.50037956237793 15.504003524780273 3.292490243911743
3.3844969272613525 4.903310298919678 0.77178955078125
5.979360103607178 12.601269721984863 1.8068008422851562
-1.039331078529358 25.79050636291504 3.3435966968536377
-7.820537090301514 13.545576095581055 2.0261332988739014
-9.129804611206055 11.18197250366211 1.869991421699524
-11.925864219665527 12.416142463684082 2.230133533477783
3.3843114376068115 4.903027057647705 0.7047131061553955
-1.0393383502960205 25.790496826171875 3.053173065185547
-2.7666821479797363 22.785547256469727 2.715043306350708
-4.127148151397705 20.216073989868164 2.440633773803711
-5.261620998382568 18.165185928344727 2.23703932762146
-6.309291839599609 16.636240005493164 2.1046266555786133
-8.612783432006836 12.477734565734863 1.793428659439087
-9.129804611206055 11.18197250366211 1.7075653076171875
5.971259593963623 12.58421802520752 1.4913140535354614
-5.261620998382568 18.165185928344727 2.0248053073883057
-7.820537090301514 13.545576095581055 1.6746151447296143
-8.612783432006836 12.477734565734863 1.623279333114624
3.3839354515075684 4.902499675750732 0.571091890335083
-1.039333462715149 25.790517807006836 2.474531412124634
-4.127148151397705 20.216073989868164 1.9780813455581665
-5.261620998382568 18.165185928344727 1.8130706548690796
-2.782402276992798 22.91510772705078 1.9551100730895996
-4.127143383026123 20.216083526611328 1.747571349143982
-5.261620998382568 18.165185928344727 1.601790428161621
-6.227700233459473 16.421112060546875 1.4874926805496216
-7.07021951675415 14.900146484375 1.3968756198883057
-11.92586898803711 12.416142463684082 1.4581457376480103
-17.500391006469727 15.50399398803711 1.9802557229995728
3.3835644721984863 4.901953220367432 0.4380670189857483
-1.039331078529358 25.79050636291504 1.8983477354049683
-5.261620998382568 18.165185928344727 1.390905737876892
-6.119096755981445 16.134735107421875 1.2691298723220825
-9.129799842834473 11.18197250366211 1.0616991519927979
-11.569560050964355 12.045205116271973 1.2283437252044678
3.3833837509155273 4.901689529418945 0.37173643708229065
5.955258846282959 12.550477981567383 0.8670339584350586
-4.127148151397705 20.216073989868164 1.2877886295318604
-5.2020263671875 17.959413528442383 1.1669933795928955
-7.820531845092773 13.54556655883789 0.9762212634086609
-9.129799842834473 11.18197250366211 0.9009896516799927
-11.925848960876465 12.416132926940918 1.0745102167129517
-17.500370025634766 15.503984451293945 1.4592535495758057
3.383193254470825 4.901415824890137 0.3055047392845154
5.951283931732178 12.542109489440918 0.7121200561523438
1.2024096250534058 29.837533950805664 1.531805396080017
-1.039343237876892 25.790496826171875 1.324038028717041
-2.7241649627685547 22.435487747192383 1.159315824508667
-4.127148151397705 20.216073989868164 1.058404803276062
-5.261620998382568 18.165185928344727 0.9701135158538818
-6.210371017456055 16.375410079956055 0.8983825445175171
-7.07021951675415 14.900146484375 0.846006453037262
-7.820537090301514 13.545576095581055 0.8023330569267273
-9.129804611206055 11.18197250366211 0.7405028939247131
3.383012533187866 4.90115213394165 0.23935577273368835
7.890278339385986 20.804988861083984 0.8943072557449341
1.1915991306304932 29.569433212280273 1.1894137859344482
-1.031396508216858 25.593778610229492 1.0294946432113647
-2.755380868911743 22.69251823425293 0.9187518358230591
-4.127148151397705 20.216073989868164 0.8292791843414307
-5.26162576675415 18.165185928344727 0.7601019144058228
-6.27615213394165 16.548866271972656 0.7113540768623352
3.3828320503234863 4.90087890625 0.17327269911766052
5.94335412979126 12.525409698486328 0.40339842438697815
7.890278339385986 20.804988861083984 0.6474364995956421
1.2024047374725342 29.837533950805664 0.8688861131668091
-1.036440372467041 25.71872901916504 0.7489327788352966
-2.7914721965789795 22.989774703979492 0.673846423625946
-4.127148151397705 20.216073989868164 0.6003585457801819
-6.27615213394165 16.548866271972656 0.514988362789154
-7.07021951675415 14.900146484375 0.4798797369003296
-8.584799766540527 12.437216758728027 0.4397231936454773
-9.129799842834473 11.18197250366211 0.42003387212753296
-11.92586898803711 12.416142463684082 0.500927746295929
-17.500391006469727 15.50399398803711 0.6802944540977478
5.939414024353027 12.51708984375 0.24951323866844177
1.2071484327316284 29.955219268798828 0.5399081110954285
-1.0364452600479126 25.71872901916504 0.4635418653488159
-5.261620998382568 18.165185928344727 0.3405880630016327
-6.27615213394165 16.548866271972656 0.31874480843544006
-7.070214748382568 14.900156021118164 0.29701536893844604
-7.820531845092773 13.54556655883789 0.28168365359306335
-8.612783432006836 12.477734565734863 0.2730486989021301
-11.925854682922363 12.416142463684082 0.310045450925827
-17.5003662109375 15.503984451293945 0.421060174703598
3.382456064224243 4.900331974029541 0.04123931750655174
5.935473442077637 12.5087890625 0.09589355438947678
7.890278339385986 20.804988861083984 0.1541101038455963
1.2071484327316284 29.955219268798828 0.20763610303401947
-2.7914721965789795 22.989774703979492 0.16039611399173737
-6.27615213394165 16.548866271972656 0.12257934361696243
-7.820537090301514 13.545576095581055 0.10832885652780533
-9.129799842834473 11.18197250366211 0.09998077154159546
5.931538105010986 12.500497817993164 -0.05749862641096115
-2.7914769649505615 22.989765167236328 -0.09623931348323822
-6.27615213394165 16.548866271972656 -0.07355254888534546
-7.07021951675415 14.900146484375 -0.06853728741407394
-7.820531845092773 13.54556655883789 -0.06499908119440079
5.92760705947876 12.492206573486328 -0.2107003778219223
7.890278339385986 20.804988861083984 -0.3390617370605469
-1.036440372467041 25.71872901916504 -0.39222899079322815
-2.7914745807647705 22.989765167236328 -0.35289427638053894
-4.127153396606445 20.216073989868164 -0.31440964341163635
-6.27615213394165 16.548866271972656 -0.26970261335372925
-17.500391006469727 15.50399398803711 -0.35627228021621704
1.2071533203125 29.95521354675293 -0.7891926169395447
-2.7914721965789795 22.989774703979492 -0.6096368432044983
-4.127148151397705 20.216073989868164 -0.5431524515151978
-7.070214748382568 14.900156021118164 -0.4341549575328827
-7.820537090301514 13.545576095581055 -0.41174161434173584
-7.843671798706055 11.363495826721191 -0.3634783923625946
-11.925854682922363 12.416142463684082 -0.4531988501548767
-17.5003662109375 15.50399398803711 -0.6154710054397583
3.381718635559082 4.899277210235596 -0.222747802734375
5.919765472412109 12.47567367553711 -0.5166906714439392
7.890278339385986 20.804988861083984 -0.8325692415237427
7.207978248596191 24.884912490844727 -0.969399094581604
1.2064135074615479 29.937002182006836 -1.121071696281433
-2.7914769649505615 22.989765167236328 -0.866533637046814
-4.127148151397705 20.216073989868164 -0.77203369140625
-6.27615213394165 16.548866271972656 -0.6622544527053833
-7.07021951675415 14.900146484375 -0.6171047687530518
-9.129799842834473 11.18197250366211 -0.5401453971862793
-11.92586898803711 12.416152000427246 -0.6441717147827148
3.381537914276123 4.899003982543945 -0.2888227701187134
10.669572830200195 18.48027229309082 -1.0353617668151855
5.915849685668945 12.467411994934082 -0.6695536375045776
7.890278339385986 20.804988861083984 -1.0795997381210327
-1.0266870260238647 25.476728439331055 -1.2371177673339844
-4.127148151397705 20.216073989868164 -1.001102089881897
-7.820531845092773 13.54556655883789 -0.7588946223258972
-9.129804611206055 11.18197250366211 -0.7004112005233765
-17.434873580932617 15.445956230163574 -1.1301498413085938
3.381352424621582 4.898749828338623 -0.3549615442752838
10.669577598571777 18.480262756347656 -1.2725248336791992
5.911923885345459 12.459159851074219 -0.8223782181739807
7.211423397064209 19.01498031616211 -1.2127331495285034
1.2024072408676147 29.837533950805664 -1.7807555198669434
-1.039333462715149 25.790517807006836 -1.539222240447998
-4.075424671173096 19.962724685668945 -1.2149981260299683
-6.27615213394165 16.548866271972656 -1.055450439453125
-7.820531845092773 13.54556655883789 -0.932729184627533
-7.843671798706055 11.363495826721191 -0.8233978152275085
-17.100971221923828 15.150156021118164 -1.3624236583709717
3.381171703338623 4.898476600646973 -0.42118117213249207
10.669572830200195 18.48027229309082 -1.5100017786026
5.908002853393555 12.450898170471191 -0.9752021431922913
7.211423397064209 19.01498031616211 -1.4390517473220825
1.2024023532867432 29.837533950805664 -2.113076686859131
-2.755378246307373 22.692529678344727 -1.6175624132156372
-4.110414981842041 20.134140014648438 -1.4541184902191162
-5.205976486206055 17.973066329956055 -1.3240875005722046
-7.027241230010986 14.809589385986328 -1.1599482297897339
-9.129804611206055 11.18197250366211 -1.021499752998352
-11.607836723327637 12.08504867553711 -1.1857436895370483
14.33499526977539 3.53326153755188 -1.209290862083435
22.91309356689453 17.218095779418945 -2.347599983215332
19.85441780090332 20.670663833618164 -2.347599983215332
18.126745223999023 22.201250076293945 -2.347599983215332
10.669572830200195 18.48027229309082 -1.747851014137268
5.90408182144165 12.442626953125 -1.128064513206482
7.211423397064209 19.01498031616211 -1.6657229661941528
5.819797039031982 20.092313766479492 -1.713370680809021
5.732993125915527 28.0821475982666 -2.347599983215332
1.1540722846984863 28.63809585571289 -2.347599983215332
-1.0393383502960205 25.790496826171875 -2.114163875579834
-2.755380868911743 22.69251823425293 -1.8723580837249756
-4.127148151397705 20.216073989868164 -1.6900146007537842
-5.261620998382568 18.165185928344727 -1.5490328073501587
-6.27615213394165 16.548866271972656 -1.4496923685073853
-7.000185489654541 14.752577781677246 -1.337491750717163
-7.72252893447876 13.375800132751465 -1.2650748491287231
-7.843671798706055 11.363495826721191 -1.13096284866333
-11.683759689331055 12.164101600646973 -1.3814955949783325
-22.913095474243164 17.21808624267578 -2.347599983215332
14.3413667678833 2.3307127952575684 -1.3523297309875488
25.477840423583984 8.505751609802246 -2.5
23.78348159790039 12.482539176940918 -2.5
20.16414451599121 15.152411460876465 -2.347599983215332
5.900156021118164 12.434374809265137 -1.280999779701233
7.211423397064209 19.01498031616211 -1.8928133249282837
5.8197922706604 20.092323303222656 -1.9469538927078247
5.04519510269165 24.713037490844727 -2.347599983215332
1.0156152248382568 25.202314376831055 -2.347599983215332
-1.0055859088897705 24.953060150146484 -2.324382781982422
-2.755380868911743 22.69251823425293 -2.127610206604004
-4.127148151397705 20.216073989868164 -1.9204137325286865
-6.27615213394165 16.548866271972656 -1.647328495979309
-7.07021951675415 14.900146484375 -1.5350326299667358
-7.787045955657959 13.487558364868164 -1.4495528936386108
-9.035840034484863 11.06689453125 -1.3297704458236694
-11.925859451293945 12.416142463684082 -1.6023622751235962
-20.16415023803711 15.152382850646973 -2.347599983215332
-21.318031311035156 13.480692863464355 -2.347599983215332
-22.333662033081055 11.72158145904541 -2.347599983215332
-24.71079444885254 10.528281211853027 -2.5
-26.773061752319336 2.1613574028015137 -2.5
23.977596282958984 1.9531249563442543e-05 -2.5
23.89981460571289 1.9294140338897705 -2.5
14.069755554199219 2.286562442779541 -1.4862149953842163
13.807631492614746 3.4033007621765137 -1.482724905014038
22.743621826171875 7.592948913574219 -2.5
22.05889320373535 9.3984375 -2.5
19.030221939086914 12.034013748168945 -2.347599983215332
16.853395462036133 14.930839538574219 -2.347599983215332
15.597323417663574 16.238554000854492 -2.347599983215332
14.240090370178223 17.440956115722656 -2.347599983215332
3.380605459213257 4.897665977478027 -0.6204862594604492
10.395153999328613 18.00497055053711 -2.1676852703094482
7.05114221572876 18.592363357543945 -2.073239803314209
5.71246337890625 19.72176742553711 -2.140791654586792
2.713986873626709 22.351757049560547 -2.347599983215332
0.9066283702850342 22.497655868530273 -2.347599983215332
-2.714003801345825 22.35173797607422 -2.347599983215332
-6.27615213394165 16.548866271972656 -1.8453702926635742
-7.843676567077637 11.363495826721191 -1.4396456480026245
-9.115038871765137 11.163896560668945 -1.5026906728744507
-11.92586898803711 12.416142463684082 -1.7949975728988647
-16.8533935546875 14.930800437927246 -2.347599983215332
-19.03023910522461 12.0339937210083 -2.347599983215332
-23.280853271484375 5.738203048706055 -2.5
-23.667098999023438 3.8462791442871094 -2.5
21.578685760498047 1.742040991783142 -2.5
14.049330711364746 2.2832422256469727 -1.6436920166015625
13.6847505569458 3.372997999191284 -1.6276007890701294
16.25198745727539 12.212626457214355 -2.347599983215332
15.216591835021973 13.480761528015137 -2.347599983215332
3.3804197311401367 4.897392272949219 -0.6871911287307739
7.05114221572876 18.592363357543945 -2.2962520122528076
5.655915260314941 19.526561737060547 -2.347599983215332
0.8185693025588989 20.312694549560547 -2.347599983215332
-0.8185790777206421 20.31270408630371 -2.347599983215332
-4.066367149353027 19.918338775634766 -2.347599983215332
-7.820531845092773 13.54556655883789 -1.8062207698822021
-15.216596603393555 13.480761528015137 -2.347599983215332
-16.252016067504883 12.212607383728027 -2.347599983215332
-17.18202018737793 10.865262985229492 -2.347599983215332
-18.000591278076172 9.447441101074219 -2.347599983215332
-19.916547775268555 8.485644340515137 -2.5
-21.019819259643555 5.180908203125 -2.5
-21.36854362487793 3.4727439880371094 -2.5
19.727983474731445 1.9531249563442543e-05 -2.5
19.663997650146484 1.5874511003494263 -2.5
13.66507339477539 3.368154287338257 -1.783511757850647
13.866435050964355 12.284589767456055 -2.347599983215332
12.832968711853027 13.360546112060547 -2.347599983215332
11.716276168823242 14.349853515625 -2.347599983215332
3.3802294731140137 4.897128582000732 -0.7540611028671265
9.262678146362305 16.043447494506836 -2.347599983215332
6.569179534912109 17.321542739868164 -2.347599983215332
5.154072284698486 17.793973922729492 -2.347599983215332
3.7055418491363525 18.150985717773438 -2.347599983215332
0.7459325790405273 18.51034164428711 -2.347599983215332
-2.2329931259155273 18.39031219482422 -2.347599983215332
-3.705556631088257 18.1509952545166 -2.347599983215332
-5.15408182144165 17.793964385986328 -2.347599983215332
-7.07021951675415 14.900146484375 -2.089986801147461
-7.820527076721191 13.545576095581055 -1.9820919036865234
-9.129804611206055 11.18197250366211 -1.8293440341949463
-13.866425514221191 12.284619331359863 -2.347599983215332
-18.71271514892578 6.247226238250732 -2.5
-19.154726028442383 4.72122049331665 -2.5
-19.472509384155273 3.16460919380188 -2.5
18.11604881286621 0.0 -2.5
13.99623966217041 2.2746288776397705 -1.9568090438842773
13.652777671813965 3.365126848220825 -1.9404575824737549
17.18372917175293 5.736777305603027 -2.5
16.66639518737793 7.100908279418945 -2.5
16.012617111206055 8.404082298278809 -2.495581865310669
14.3781099319458 9.09218692779541 -2.347599983215332
12.733442306518555 11.280858993530273 -2.347599983215332
11.784419059753418 12.268877029418945 -2.347599983215332
3.3800487518310547 4.896855354309082 -0.821110188961029
4.650361061096191 12.262030601501465 -1.8097506761550903
4.732934474945068 16.340028762817383 -2.347599983215332
3.402763605117798 16.667909622192383 -2.347599983215332
2.050532102584839 16.88765525817871 -2.347599983215332
0.684985339641571 16.99789047241211 -2.347599983215332
-3.402787923812866 16.667909622192383 -2.347599983215332
-4.732954025268555 16.340078353881836 -2.347599983215332
-7.820531845092773 13.54556655883789 -2.158453941345215
-7.879130840301514 11.414873123168945 -1.914062738418579
-11.784423828125 12.26888656616211 -2.347599983215332
-13.59987735748291 10.219667434692383 -2.347599983215332
-14.378129959106445 9.092167854309082 -2.347599983215332
-15.063115119934082 7.905722618103027 -2.347599983215332
-17.183744430541992 5.736767292022705 -2.5
-17.58963394165039 4.33544921875 -2.5
-18.057313919067383 1.4577538967132568 -2.5
15.882060050964355 5.302206993103027 -2.5
14.789867401123047 7.762333869934082 -2.493931531906128
11.768872261047363 10.426347732543945 -2.347599983215332
10.891737937927246 11.339521408081055 -2.347599983215332
9.943974494934082 12.179169654846191 -2.347599983215332
3.3798534870147705 4.896582126617432 -0.8883584141731262
6.488466739654541 11.238398551940918 -1.9375786781311035
4.37441873550415 15.102294921875 -2.347599983215332
3.145009756088257 15.405312538146973 -2.347599983215332
-0.633105456829071 15.710341453552246 -2.347599983215332
-1.8952245712280273 15.608437538146973 -2.347599983215332
-4.374438285827637 15.102304458618164 -2.347599983215332
-5.57546854019165 14.70131778717041 -2.347599983215332
-10.891742706298828 11.339521408081055 -2.347599983215332
-11.768877029418945 10.4263277053833 -2.347599983215332
-13.922080039978027 7.306874752044678 -2.347599983215332
-15.403915405273438 6.56298828125 -2.5
15.561083793640137 9.765624781721272e-06 -2.5
15.510634422302246 1.2521581649780273 -2.5
15.359564781188965 2.496171712875366 -2.5
14.76025390625 4.927695274353027 -2.5
14.315868377685547 6.099452972412109 -2.5
13.743314743041992 7.213066101074219 -2.493588924407959
10.93758773803711 9.689892768859863 -2.347599983215332
10.122421264648438 10.538564682006836 -2.347599983215332
9.241591453552246 11.3189058303833 -2.347599983215332
3.3796727657318115 4.896318435668945 -0.9558219909667969
5.57424783706665 11.747529029846191 -2.0890114307403564
4.650361061096191 12.262030601501465 -2.1068928241729736
1.7613329887390137 14.5059175491333 -2.347599983215332
-0.5884032845497131 14.600634574890137 -2.347599983215332
-1.7613476514816284 14.505966186523438 -2.347599983215332
-2.922866106033325 14.317206382751465 -2.347599983215332
-4.065449237823486 14.035585403442383 -2.347599983215332
-9.129799842834473 11.18197250366211 -2.3191990852355957
-11.681845664978027 8.778359413146973 -2.347599983215332
-12.938715934753418 6.790761470794678 -2.347599983215332
-14.31588363647461 6.099433422088623 -2.5
-14.760258674621582 4.927704811096191 -2.5
-15.10891056060791 3.7240233421325684 -2.5
-15.359580039978027 2.4961912631988525 -2.5
-15.510634422302246 1.2521581649780273 -2.5
14.531044960021973 9.765624781721272e-06 -2.5
14.483935356140137 1.169287085533142 -2.5
14.342875480651855 2.330947160720825 -2.5
14.108803749084473 3.4775195121765137 -2.5
13.783222198486328 4.601523399353027 -2.5
13.368266105651855 5.695712566375732 -2.5
12.83590316772461 6.73681640625 -2.494033098220825
11.532816886901855 7.292939186096191 -2.347599983215332
10.9085693359375 8.197295188903809 -2.347599983215332
10.213613510131836 9.048466682434082 -2.347599983215332
9.452392578125 9.840995788574219 -2.347599983215332
5.533051490783691 11.660693168640137 -2.2205564975738525
1.644741177558899 13.54574203491211 -2.347599983215332
-4.838671684265137 12.75853443145752 -2.347599983215332
-5.849618911743164 12.32779312133789 -2.347599983215332
-6.822617053985596 11.817138671875 -2.347599983215332
-8.629873275756836 10.56966781616211 -2.347599983215332
-10.90859317779541 8.197275161743164 -2.347599983215332
-11.532816886901855 7.292939186096191 -2.347599983215332
-12.08226490020752 6.341269493103027 -2.347599983215332
-14.108808517456055 3.4775195121765137 -2.5
-14.342880249023438 2.3309569358825684 -2.5
-14.483940124511719 1.1692675352096558 -2.5
13.229721069335938 3.260859251022339 -2.5
12.924443244934082 4.314824104309082 -2.5
12.040180206298828 6.319179534912109 -2.4948713779449463
9.577231407165527 8.484686851501465 -2.347599983215332
6.397519588470459 11.080849647521973 -2.347599983215332
5.48513650894165 11.559706687927246 -2.347599983215332
3.5597949028015137 12.28988265991211 -2.347599983215332
1.54226553440094 12.701757431030273 -2.347599983215332
0.5152001976966858 12.784696578979492 -2.347599983215332
-0.5152196884155273 12.78466796875 -2.347599983215332
-2.5593554973602295 12.536455154418945 -2.347599983215332
-5.485151290893555 11.559697151184082 -2.347599983215332
-8.092172622680664 9.911112785339355 -2.347599983215332
-8.863447189331055 9.227831840515137 -2.347599983215332
-9.577231407165527 8.48470687866211 -2.347599983215332
-10.22890567779541 7.686562538146973 -2.347599983215332
-10.814252853393555 6.838534832000732 -2.347599983215332
-12.5353364944458 5.340829849243164 -2.5
-13.229736328125 3.2608299255371094 -2.5
-13.449223518371582 2.185732364654541 -2.5
-13.581488609313965 1.0964257717132568 -2.5
12.65737247467041 2.0570311546325684 -2.5
12.450810432434082 3.068857431411743 -2.5
10.177538871765137 6.435898303985596 -2.347599983215332
9.626665115356445 7.233994007110596 -2.347599983215332
8.341596603393555 8.684531211853027 -2.347599983215332
7.615727424621582 9.327588081359863 -2.347599983215332
3.379096508026123 4.895488262176514 -1.1596816778182983
6.020864009857178 10.428457260131836 -2.347599983215332
5.162192344665527 10.879130363464355 -2.347599983215332
4.270053386688232 11.259238243103027 -2.347599983215332
3.3502049446105957 11.56630802154541 -2.347599983215332
2.408647298812866 11.798368453979492 -2.347599983215332
-0.4848681390285492 12.031991958618164 -2.347599983215332
-1.451479434967041 11.953954696655273 -2.347599983215332
-3.350224494934082 11.56631851196289 -2.347599983215332
-6.020864009857178 10.428457260131836 -2.347599983215332
-6.840493202209473 9.910146713256836 -2.347599983215332
-8.341591835021973 8.684540748596191 -2.347599983215332
-9.626679420471191 7.233983993530273 -2.347599983215332
-10.177557945251465 6.435888290405273 -2.347599983215332
-11.32107925415039 5.941777229309082 -2.4926199913024902
-11.797308921813965 5.0263671875 -2.5
-12.1635103225708 4.060781002044678 -2.5
-12.65738296508789 2.0570409297943115 -2.5
-12.781869888305664 1.0318554639816284 -2.5
12.068242073059082 0.9742773175239563 -2.5
11.950722694396973 1.94216787815094 -2.5
11.755682945251465 2.897538900375366 -2.5
9.089203834533691 6.830117225646973 -2.347599983215332
7.190541744232178 8.806825637817383 -2.347599983215332
5.684706687927246 9.846230506896973 -2.347599983215332
4.873989105224609 10.271747589111328 -2.347599983215332
2.274179697036743 11.139687538146973 -2.347599983215332
1.370424747467041 11.286542892456055 -2.347599983215332
0.4578027129173279 11.360243797302246 -2.347599983215332
-1.3704442977905273 11.286542892456055 -2.347599983215332
-2.274179697036743 11.139687538146973 -2.347599983215332
-4.031655311584473 10.630615234375 -2.347599983215332
-4.873999118804932 10.271728515625 -2.347599983215332
-6.458583831787109 9.356874465942383 -2.347599983215332
-7.87588357925415 8.199677467346191 -2.347599983215332
-8.510150909423828 7.53933572769165 -2.347599983215332
-9.089218139648438 6.83010721206665 -2.347599983215332
-9.60934066772461 6.076571941375732 -2.347599983215332
-10.69827651977539 5.614892482757568 -2.494776964187622
-11.13866138458252 4.745741844177246 -2.5
-11.484418869018555 3.834062337875366 -2.5
-11.755693435668945 2.897538900375366 -2.5
11.316054344177246 1.8390429019927979 -2.5
10.874506950378418 3.630449056625366 -2.5
10.547109603881836 4.493730545043945 -2.5
8.606498718261719 6.467382431030273 -2.347599983215332
8.058188438415527 7.13894510269165 -2.347599983215332
7.457616806030273 7.764218807220459 -2.347599983215332
6.808676719665527 8.339120864868164 -2.347599983215332
3.378715753555298 4.894921779632568 -1.2969955205917358
3.8175389766693115 10.066044807434082 -2.347599983215332
2.99517560005188 10.340604782104492 -2.347599983215332
2.1534032821655273 10.548086166381836 -2.347599983215332
1.2976512908935547 10.68715763092041 -2.347599983215332
-2.153393507003784 10.548124313354492 -2.347599983215332
-3.8175487518310547 10.066054344177246 -2.347599983215332
-4.615156173706055 9.72623062133789 -2.347599983215332
-6.115585803985596 8.859941482543945 -2.347599983215332
-8.05819320678711 7.138955116271973 -2.347599983215332
-9.099013328552246 5.753867149353027 -2.347599983215332
-10.13846206665039 5.321093559265137 -2.496833086013794
-10.547119140625 4.493720531463623 -2.5
-10.87451171875 3.63042950630188 -2.5
-11.131376266479492 2.743642568588257 -2.5
-11.316054344177246 1.839052677154541 -2.5
-11.427343368530273 0.9225292801856995 -2.5
10.848407745361328 0.875781238079071 -2.5
10.012773513793945 4.266074180603027 -2.5
9.637041091918945 5.057919979095459 -2.5
7.649950981140137 6.777285099029541 -2.347599983215332
7.079804420471191 7.370859146118164 -2.347599983215332
3.3785252571105957 4.894648551940918 -1.366132378578186
5.110102653503418 8.850996017456055 -2.347599983215332
3.624135732650757 9.556083679199219 -2.347599983215332
2.044306516647339 10.013681411743164 -2.347599983215332
1.231909155845642 10.145731925964355 -2.347599983215332
-1.2319140434265137 10.145712852478027 -2.347599983215332
-8.638051986694336 5.462372779846191 -2.347599983215332
-10.74276351928711 1.7458983659744263 -2.5
10.322768211364746 0.8333593606948853 -2.5
10.222235679626465 1.6612889766693115 -2.5
10.055415153503418 2.478447198867798 -2.5
9.823373794555664 3.279541015625 -2.5
9.527626991271973 4.059365272521973 -2.5
9.170092582702637 4.812841892242432 -2.5
8.237519264221191 5.209101676940918 -2.3527474403381348
7.774594783782959 5.842246055603027 -2.347599983215332
6.150546550750732 7.533066272735596 -2.347599983215332
-1.1722314357757568 9.65414047241211 -2.347599983215332
-2.705683469772339 9.341073989868164 -2.347599983215332
-3.448549747467041 9.093056678771973 -2.347599983215332
-4.169052600860596 8.786093711853027 -2.347599983215332
-7.279286861419678 6.448896408081055 -2.347599983215332
-7.774609088897705 5.842246055603027 -2.347599983215332
-8.219501495361328 5.197704792022705 -2.347599983215332
-9.1701021194458 4.812841892242432 -2.5
-9.527641296386719 4.059335708618164 -2.5
-9.823383331298828 3.2795116901397705 -2.5
-10.222241401672363 1.6612792015075684 -2.5
-10.322772979736328 0.8333398103713989 -2.5
9.8753023147583 9.765624781721272e-06 -2.5
9.84328556060791 0.794628918170929 -2.5
9.747416496276855 1.5841211080551147 -2.5
8.744145393371582 4.589296817779541 -2.5
7.413471698760986 5.570878982543945 -2.347599983215332
5.864858150482178 7.183154106140137 -2.347599983215332
3.3781347274780273 4.894082069396973 -1.5054595470428467
3.2883543968200684 8.670683860778809 -2.347599983215332
1.854897379875183 9.085898399353027 -2.347599983215332
1.1177685260772705 9.205693244934082 -2.347599983215332
-0.37340331077575684 9.265790939331055 -2.347599983215332
-1.1177783012390137 9.205702781677246 -2.347599983215332
-3.2883543968200684 8.670702934265137 -2.347599983215332
-3.975405216217041 8.377978324890137 -2.347599983215332
-5.267846584320068 7.631786823272705 -2.347599983215332
-5.864858150482178 7.183154106140137 -2.347599983215332
-6.941166877746582 6.149364948272705 -2.347599983215332
-8.744145393371582 4.589286804199219 -2.5
-9.36708927154541 3.127187490463257 -2.5
-9.588339805603027 2.363330125808716 -2.5
-9.747416496276855 1.584130883216858 -2.5
9.312417030334473 1.5134179592132568 -2.5
8.679633140563965 3.69805645942688 -2.5
7.082631587982178 5.322275161743164 -2.347599983215332
6.631401062011719 5.874931335449219 -2.347599983215332
5.603125095367432 6.862607479095459 -2.347599983215332
3.377939462661743 4.893798828125 -1.575689673423767
3.797978401184082 8.004081726074219 -2.347599983215332
1.7721190452575684 8.680429458618164 -2.347599983215332
1.0678857564926147 8.794882774353027 -2.347599983215332
-0.35673826932907104 8.852304458618164 -2.347599983215332
-1.067895531654358 8.794873237609863 -2.347599983215332
-3.141611337661743 8.283759117126465 -2.347599983215332
-3.7979931831359863 8.004101753234863 -2.347599983215332
-4.429726600646973 7.672538757324219 -2.347599983215332
-6.137167930603027 6.389492034912109 -2.347599983215332
-7.08263635635376 5.322265625 -2.347599983215332
-8.353925704956055 4.384472370147705 -2.5
-8.94906234741211 2.987626791000366 -2.5
-9.160449028015137 2.2578516006469727 -2.5
-9.312421798706055 1.5134179592132568 -2.5
8.999995231628418 0.7265625 -2.5
8.306737899780273 3.539199113845825 -2.5
7.995019435882568 4.196132659912109 -2.5
7.619394302368164 4.818222522735596 -2.4960520267486572
6.77834939956665 5.093613147735596 -2.347599983215332
6.346508502960205 5.622519493103027 -2.347599983215332
5.873500823974609 6.114980220794678 -2.347599983215332
4.239418983459473 7.342909812927246 -2.347599983215332
3.6348142623901367 7.660233974456787 -2.347599983215332
3.006640672683716 7.927870750427246 -2.347599983215332
2.358959913253784 8.1441011428833 -2.347599983215332
1.6959813833236694 8.307509422302246 -2.347599983215332
1.022006869316101 8.417040824890137 -2.347599983215332
-3.006645441055298 7.927861213684082 -2.347599983215332
-3.634829044342041 7.660243988037109 -2.347599983215332
-4.239423751831055 7.342900276184082 -2.347599983215332
-5.873510837554932 6.114980220794678 -2.347599983215332
-7.616244792938232 4.816230297088623 -2.49501633644104
-7.995034217834473 4.196123123168945 -2.5
-8.306742668151855 3.5391697883605957 -2.5
-8.912358283996582 1.4484081268310547 -2.5
-8.999995231628418 0.7265625 -2.5
8.655156135559082 9.765624781721272e-06 -2.5
8.403647422790527 2.0713183879852295 -2.5
8.209726333618164 2.7408103942871094 -2.5
7.663749694824219 4.022255897521973 -2.5
7.309814453125 4.622460842132568 -2.4981462955474854
5.140219688415527 6.295644283294678 -2.347599983215332
4.06374979019165 7.038652420043945 -2.347599983215332
2.261220693588257 7.806640625 -2.347599983215332
1.625707983970642 7.963290691375732 -2.347599983215332
-2.26123046875 7.806650161743164 -2.347599983215332
-3.4842236042022705 7.342832088470459 -2.347599983215332
-4.063764572143555 7.038661956787109 -2.347599983215332
-5.140224456787109 6.295644283294678 -2.347599983215332
-5.630141258239746 5.86160135269165 -2.347599983215332
-7.962563514709473 3.3925487995147705 -2.5
-8.209731101989746 2.7408201694488525 -2.5
-8.627089500427246 0.6964550614356995 -2.5
8.308671951293945 9.765624781721272e-06 -2.5
8.201079368591309 1.332802653312683 -2.5
7.881078720092773 2.631103515625 -2.5
7.643803596496582 3.256718635559082 -2.5
7.35696268081665 3.8612499237060547 -2.5
5.840014457702637 5.173828125 -2.347599983215332
5.404755592346191 5.626962661743164 -2.347599983215332
4.934453010559082 6.043622970581055 -2.347599983215332
3.3447265625 7.048886775970459 -2.347599983215332
2.7666893005371094 7.295175552368164 -2.347599983215332
2.1706981658935547 7.494150161743164 -2.347599983215332
1.5606298446655273 7.644511699676514 -2.347599983215332
-1.5606396198272705 7.644511699676514 -2.347599983215332
-2.7666990756988525 7.295175552368164 -2.347599983215332
-3.344736337661743 7.048896312713623 -2.347599983215332
-3.9010887145996094 6.756894588470459 -2.347599983215332
-4.43215799331665 6.421083927154541 -2.347599983215332
-4.934457778930664 6.043593406677246 -2.347599983215332
-5.404760837554932 5.626962661743164 -2.347599983215332
-5.840019226074219 5.173818111419678 -2.347599983215332
-7.020360946655273 4.439394474029541 -2.4992685317993164
-7.356972694396973 3.8612303733825684 -2.5
-7.643813133239746 3.256728410720825 -2.5
-7.881083965301514 2.631093740463257 -2.5
-8.067245483398438 1.9884082078933716 -2.5
-8.20108413696289 1.3328124284744263 -2.5
-8.281733512878418 0.6685839891433716 -2.5
7.960912704467773 0.6426953077316284 -2.5
7.883383750915527 1.2811717987060547 -2.5
7.754735946655273 1.9113671779632568 -2.5
7.575780868530273 2.529169797897339 -2.5
6.750380516052246 4.268691539764404 -2.5
6.36550760269165 4.783437252044678 -2.4923927783966064
3.3064305782318115 4.790205001831055 -1.821919560432434
3.7499608993530273 6.495156288146973 -2.347599983215332
2.659501791000366 7.012578010559082 -2.347599983215332
0.9040136337280273 7.445263385772705 -2.347599983215332
-0.30199217796325684 7.493866920471191 -2.347599983215332
-0.9040282964706421 7.445263385772705 -2.347599983215332
-1.5001903772354126 7.348378658294678 -2.347599983215332
-3.2151708602905273 6.775849342346191 -2.347599983215332
-3.7499754428863525 6.495136737823486 -2.347599983215332
-4.260454177856445 6.172333717346191 -2.347599983215332
-5.195385456085205 5.408994197845459 -2.347599983215332
-6.29528284072876 4.730605125427246 -2.464873790740967
-6.750380516052246 4.268691539764404 -2.5
-7.575786113739014 2.5291600227355957 -2.5
-7.960912704467773 0.6426953077316284 -2.5
7.662031173706055 0.6185742020606995 -2.5
7.463593482971191 1.8396093845367432 -2.5
7.071835994720459 3.0130467414855957 -2.5
6.806459903717041 3.57232403755188 -2.5
4.565219402313232 5.591396331787109 -2.347599983215332
3.6091699600219727 6.251298904418945 -2.347599983215332
2.5596630573272705 6.74929666519165 -2.347599983215332
2.0082664489746094 6.93337869644165 -2.347599983215332
0.2906543016433716 7.21251916885376 -2.347599983215332
-0.2906591594219208 7.212509632110596 -2.347599983215332
-0.8700829744338989 7.165732383728027 -2.347599983215332
-3.0944628715515137 6.521445274353027 -2.347599983215332
-3.60918927192688 6.251298904418945 -2.347599983215332
-5.403032302856445 4.786669731140137 -2.347599983215332
-6.4969482421875 4.10842752456665 -2.5
-7.463598251342773 1.8396093845367432 -2.5
-7.587416648864746 1.2331054210662842 -2.5
7.406874656677246 1.9531249563442543e-05 -2.5
7.382856369018555 0.5960156321525574 -2.5
7.310952186584473 1.1881444454193115 -2.5
7.025688171386719 2.345527410507202 -2.5
6.558456897735596 3.442148447036743 -2.5
5.213759422302246 4.619003772735596 -2.35103178024292
4.818134784698486 5.016220569610596 -2.347599983215332
3.477665901184082 6.023525238037109 -2.347599983215332
2.4663963317871094 6.503378868103027 -2.347599983215332
0.28006836771965027 6.949726581573486 -2.347599983215332
-0.8383837938308716 6.904648303985596 -2.347599983215332
-1.9351073503494263 6.680751800537109 -2.347599983215332
-2.9817137718200684 6.283837795257568 -2.347599983215332
-3.477675676345825 6.023525238037109 -2.347599983215332
-5.206152439117432 4.612265586853027 -2.347599983215332
-6.260214805603027 3.958730459213257 -2.5
-6.558461666107178 3.442138671875 -2.5
-7.382851600646973 0.5960058569908142 -2.5
7.144584655761719 9.765624781721272e-06 -2.5
7.052065372467041 1.1460741758346558 -2.5
6.776904106140137 2.2624707221984863 -2.5
6.038530349731445 3.818554639816284 -2.5
4.647519588470459 4.838593482971191 -2.347599983215332
4.243105411529541 5.196875095367432 -2.347599983215332
3.3545165061950684 5.810214519500732 -2.347599983215332
2.876113176345825 6.061298847198486 -2.347599983215332
0.8086816072463989 6.660146236419678 -2.347599983215332
0.2701416015625 6.703622817993164 -2.347599983215332
-0.8086913824081421 6.660136699676514 -2.347599983215332
-2.8761279582977295 6.06130838394165 -2.347599983215332
-4.647533893585205 4.838603496551514 -2.347599983215332
-5.150292873382568 4.562763690948486 -2.407665252685547
-6.326215744018555 3.320263624191284 -2.5
-6.5728759765625 2.8004491329193115 -2.5
-6.776904106140137 2.262460947036743 -2.5
-6.936982154846191 1.7098242044448853 -2.5
-7.052065372467041 1.146083950996399 -2.5
6.876035213470459 0.5550878643989563 -2.5
6.809067249298096 1.106591820716858 -2.5
6.697954177856445 1.65090811252594 -2.5
6.346396446228027 2.7039451599121094 -2.5
6.108232498168945 3.2058496475219727 -2.5
5.14846658706665 4.561161994934082 -2.4927096366882324
2.2970898151397705 6.056943416595459 -2.347599983215332
-0.7808251976966858 6.4306640625 -2.347599983215332
-1.8022607564926147 6.222138404846191 -2.347599983215332
-2.777026414871216 5.852450847625732 -2.347599983215332
-3.238945245742798 5.610019207000732 -2.347599983215332
-4.096919059753418 5.017802715301514 -2.347599983215332
-4.487387657165527 4.671864986419678 -2.347599983215332
-6.543388366699219 2.184501886367798 -2.5
-6.697958946228027 1.65090811252594 -2.5
-6.876049518585205 0.5550976395606995 -2.5
6.666840553283691 9.765624781721272e-06 -2.5
6.645224571228027 0.5364745855331421 -2.5
6.473114967346191 1.59548819065094 -2.5
6.323740005493164 2.1111814975738525 -2.5
6.133354187011719 2.6131932735443115 -2.5
5.90319299697876 3.0982518196105957 -2.5
5.634736061096191 3.5632030963897705 -2.5
5.329745769500732 4.005077838897705 -2.5
4.979926586151123 4.411835670471191 -2.4948558807373047
4.336738109588623 4.515038967132568 -2.347599983215332
3.9593846797943115 4.849374771118164 -2.347599983215332
3.2780468463897705 4.749082088470459 -2.1639010906219482
3.1302099227905273 5.421709060668945 -2.347599983215332
2.6837987899780273 5.656005859375 -2.347599983215332
1.7417528629302979 6.013261795043945 -2.347599983215332
0.7546093463897705 6.214785099029541 -2.347599983215332
0.2520849406719208 6.255361080169678 -2.347599983215332
-0.2520849406719208 6.255361080169678 -2.347599983215332
-0.7546191215515137 6.214785099029541 -2.347599983215332
-1.2522460222244263 6.133915901184082 -2.347599983215332
-2.219980478286743 5.853613376617432 -2.347599983215332
-2.6838035583496094 5.656005859375 -2.347599983215332
-3.55633282661438 5.152235984802246 -2.347599983215332
-3.9593799114227295 4.849384784698486 -2.347599983215332
-5.90319299697876 3.0982322692871094 -2.5
-6.133359432220459 2.6131834983825684 -2.5
-6.473114967346191 1.59548819065094 -2.5
-6.580507755279541 1.0694531202316284 -2.5
5.709917068481445 2.9967968463897705 -2.5
5.450263500213623 3.446542978286743 -2.5
5.155249118804932 3.8739452362060547 -2.5
4.310708045959473 4.487939357757568 -2.4124934673309326
3.8297460079193115 4.690605163574219 -2.347599983215332
3.272294759750366 4.740742206573486 -2.233219861984253
2.147289991378784 5.661952972412109 -2.347599983215332
0.729907214641571 6.011318206787109 -2.347599983215332
0.24382811784744263 6.050546646118164 -2.347599983215332
-0.2438330054283142 6.050556659698486 -2.347599983215332
-0.7299121022224426 6.011318206787109 -2.347599983215332
-1.6847362518310547 5.816376686096191 -2.347599983215332
-3.0277295112609863 5.244189262390137 -2.347599983215332
-3.439892530441284 4.983554363250732 -2.347599983215332
-3.8297507762908936 4.690595626831055 -2.347599983215332
-5.709921836853027 2.9967968463897705 -2.5
-6.261181354522705 1.54324209690094 -2.5
-6.365058422088623 1.0344433784484863 -2.5
-6.427646160125732 0.5189062356948853 -2.5
6.161581993103027 1.0013476610183716 -2.5
6.061025142669678 1.4939062595367432 -2.5
5.742900371551514 2.446835994720459 -2.5
4.990448951721191 3.7500975131988525 -2.5
4.296137809753418 4.472773551940918 -2.4837357997894287
3.7073142528533936 4.540644645690918 -2.347599983215332
3.2665088176727295 4.732363224029541 -2.302889585494995
2.512929677963257 5.295937538146973 -2.347599983215332
1.6308691501617432 5.630458831787109 -2.347599983215332
1.172519564628601 5.743427753448486 -2.347599983215332
0.7065673470497131 5.819140434265137 -2.347599983215332
0.23603026568889618 5.857128620147705 -2.347599983215332
-0.23603515326976776 5.857128620147705 -2.347599983215332
-0.7065722346305847 5.819150447845459 -2.347599983215332
-1.63088858127594 5.630449295043945 -2.347599983215332
-3.3299314975738525 4.824238300323486 -2.347599983215332
-4.261186599731445 4.436377048492432 -2.4635238647460938
-4.669204235076904 4.136562347412109 -2.4982240200042725
-4.990463733673096 3.7500975131988525 -2.5
-5.742905139923096 2.4468164443969727 -2.5
-5.921162128448486 1.9767870903015137 -2.5
-6.06102991104126 1.4939160346984863 -2.5
-6.222182273864746 0.5023046731948853 -2.5
5.969072341918945 0.9700781106948853 -2.5
5.563461780548096 2.370371103286743 -2.5
5.111181735992432 3.232119083404541 -2.5
4.52651834487915 4.010175704956055 -2.5
3.603579044342041 4.413593769073486 -2.355508804321289
1.5799120664596558 5.454531192779541 -2.347599983215332
-2.0137059688568115 5.309706687927246 -2.347599983215332
-2.4344286918640137 5.130468845367432 -2.347599983215332
-2.839370012283325 4.917929649353027 -2.347599983215332
-3.225883722305298 4.673495769500732 -2.347599983215332
-3.591484308242798 4.398779392242432 -2.347599983215332
-4.17837381362915 4.350156307220459 -2.4935572147369385
-4.834531307220459 3.632929563522339 -2.5
-5.111186504364014 3.232119083404541 -2.5
-5.354687213897705 2.810351610183716 -2.5
-5.736156940460205 1.9149999618530273 -2.5
5.862514495849609 9.765624781721272e-06 -2.5
5.843505859375 0.471748024225235 -2.5
5.560815334320068 1.856484293937683 -2.5
5.393383502960205 2.297919988632202 -2.5
4.686743259429932 3.521865129470825 -2.5
4.388159275054932 3.887578010559082 -2.5
3.5926709175109863 4.400224685668945 -2.422424077987671
3.1272802352905273 4.530644416809082 -2.347599983215332
1.5316210985183716 5.287802696228027 -2.347599983215332
1.101171851158142 5.393896579742432 -2.347599983215332
0.22166015207767487 5.500683307647705 -2.347599983215332
-0.6635791063308716 5.465009689331055 -2.347599983215332
-1.1011767387390137 5.393896579742432 -2.347599983215332
-2.752578020095825 4.767597675323486 -2.347599983215332
-3.1272802352905273 4.530644416809082 -2.347599983215332
-3.5749754905700684 4.378544807434082 -2.410487651824951
-4.388159275054932 3.887578010559082 -2.5
-4.686748027801514 3.521865129470825 -2.5
-4.954941272735596 3.133310556411743 -2.5
-5.191000938415527 2.7244627475738525 -2.5
-5.393403053283691 2.297910213470459 -2.5
5.687021255493164 -9.765624781721272e-06 -2.5
5.6685791015625 0.4576171636581421 -2.5
5.613383769989014 0.9122655987739563 -2.5
5.035610198974609 2.642900228500366 -2.5
3.9361865520477295 4.098007678985596 -2.497875690460205
3.58172345161438 4.386816501617432 -2.489567756652832
2.670166015625 4.624882698059082 -2.347599983215332
1.89370596408844 4.993300437927246 -2.347599983215332
0.6437060236930847 5.301405906677246 -2.347599983215332
-1.4857763051986694 5.129501819610596 -2.347599983215332
-1.893715739250183 4.993310451507568 -2.347599983215332
-2.289365291595459 4.824746131896973 -2.347599983215332
-2.670170783996582 4.624882698059082 -2.347599983215332
-3.9354541301727295 4.097246170043945 -2.497403621673584
-4.256792068481445 3.7712109088897705 -2.5
-4.546450138092041 3.416435480117798 -2.5
-5.035610198974609 2.642900228500366 -2.5
-5.394350528717041 1.8009082078933716 -2.5
5.502245903015137 0.44419920444488525 -2.5
5.448671817779541 0.885498046875 -2.5
5.236073970794678 1.7480664253234863 -2.5
5.078427791595459 2.1637401580810547 -2.5
4.887866020202637 2.5653514862060547 -2.5
4.665580749511719 2.9503417015075684 -2.5
4.131894588470459 3.6605467796325684 -2.5
3.8233447074890137 3.980546712875366 -2.4996068477630615
3.4831933975219727 4.266152381896973 -2.4942679405212402
1.8381445407867432 4.846796989440918 -2.347599983215332
