ply
format ascii 1.0
element vertex 717
property float x
property float y
property float z
end_header
-25.12301254272461 -4.082866191864014 5.329103469848633
-14.1485595703125 -24.50601577758789 2.081165075302124
-3.244765520095825 -26.723154067993164 1.9798355102539062
-14.152270317077637 -24.512401580810547 1.7665990591049194
-14.160317420959473 -24.5263671875 1.4527544975280762
-14.160317420959473 -24.526376724243164 1.1382601261138916
-3.2447705268859863 -26.72314453125 0.783129870891571
-14.160317420959473 -24.5263671875 0.5100347995758057
-3.2447803020477295 -26.72314453125 0.4846639931201935
-14.160317420959473 -24.526376724243164 0.1961483657360077
-14.160317420959473 -24.5263671875 -0.11768920719623566
-3.2447705268859863 -26.72314453125 -0.7088497877120972
-14.160317420959473 -24.526376724243164 -1.0596808195114136
-3.2447705268859863 -26.72314453125 -1.3061132431030273
-27.0131778717041 -6.658144474029541 -1.659096360206604
-21.859516143798828 -11.472763061523438 -1.4721856117248535
-3.2447705268859863 -26.72314453125 -1.6052955389022827
21.548593521118164 -16.1927433013916 -1.607389211654663
-26.945512771606445 -6.641464710235596 -1.963782787322998
-13.001044273376465 -5.539218425750732 -1.0
-21.860912322998047 -11.473495483398438 -1.7470364570617676
-21.5093994140625 -16.163232803344727 -1.903886318206787
-3.2447705268859863 -26.72314453125 -1.904873013496399
26.623790740966797 -11.343310356140137 -2.0478200912475586
-28.371498107910156 -4.610800743103027 -2.354348659515381
-26.89864730834961 -6.629921913146973 -2.2691588401794434
-13.930864334106445 -4.650795936584473 -1.2029616832733154
-12.789111137390137 -5.448930740356445 -1.1386486291885376
-21.86223030090332 -11.474199295043945 -2.022338628768921
-24.247583389282227 -15.33324146270752 -2.3498592376708984
-18.223670959472656 -22.319950103759766 -2.36015248298645
-16.388568878173828 -23.742919921875 -2.3630380630493164
-11.046884536743164 -19.133758544921875 -1.8096623420715332
-12.39693832397461 -26.125946044921875 -2.3686206340789795
-3.2339794635772705 -26.634305953979492 -2.1975927352905273
1.1685888767242432 -28.998661041259766 -2.3771591186523438
3.498793840408325 -28.815185546875 -2.3775370121002197
5.8040771484375 -28.43031120300293 -2.376709461212158
10.2816743850708 -27.11057472229004 -2.3749077320098877
12.419804573059082 -26.174217224121094 -2.3729946613311768
18.2593994140625 -22.363719940185547 -2.3647797107696533
21.5311222076416 -19.074920654296875 -2.356114387512207
26.367841720581055 -11.23427677154541 -2.347599983215332
27.186323165893555 -9.076151847839355 -2.347599983215332
-26.860151290893555 2.9296874345163815e-05 -2.5
-25.95917510986328 -6.398359298706055 -2.488450527191162
-12.703940391540527 -5.412641525268555 -1.2852625846862793
-20.16415023803711 -15.152372360229492 -2.347599983215332
-18.879501342773438 -16.725770950317383 -2.347599983215332
-14.363530158996582 -20.809160232543945 -2.3533949851989746
-11.15941333770752 -19.328641891479492 -2.0773143768310547
-8.988969802856445 -23.701982498168945 -2.3593742847442627
-1.0226659774780273 -25.377275466918945 -2.363898992538452
1.0227001905441284 -25.378192901611328 -2.363983631134033
3.061577081680298 -25.21440315246582 -2.36405873298645
5.845986366271973 -20.182714462280273 -1.955715537071228
8.996376991271973 -23.72150421142578 -2.361318588256836
8.262626647949219 -17.413026809692383 -1.7939162254333496
12.664887428283691 -21.936220169067383 -2.3575592041015625
14.37435531616211 -20.82486343383789 -2.355170488357544
17.481063842773438 -18.199726104736328 -2.348762273788452
18.205272674560547 -13.680390357971191 -2.1195664405822754
21.318035125732422 -13.480692863464355 -2.347599983215332
25.47784423828125 -8.50576114654541 -2.5
26.07964515686035 -6.428066253662109 -2.5
26.773061752319336 -2.1613574028015137 -2.5
-23.977602005004883 4.882812390860636e-06 -2.5
-23.89984893798828 -1.9293749332427979 -2.5
-23.667055130004883 -3.846259593963623 -2.5
-23.280834197998047 -5.738198280334473 -2.5
-12.61874008178711 -5.376338005065918 -1.430120825767517
-19.030223846435547 -12.0339937210083 -2.347599983215332
-18.00015640258789 -13.526240348815918 -2.347599983215332
-16.8533935546875 -14.930790901184082 -2.347599983215332
-11.840399742126465 -14.501815795898438 -1.951985478401184
-11.1411714553833 -19.297040939331055 -2.3232457637786865
-9.657343864440918 -20.35245132446289 -2.348806142807007
-3.099189281463623 -15.180878639221191 -1.615466594696045
-0.9089990258216858 -22.556299209594727 -2.353722333908081
2.720874071121216 -22.408466339111328 -2.353555679321289
15.597304344177246 -16.238525390625 -2.347599983215332
16.853397369384766 -14.930800437927246 -2.347599983215332
18.00015640258789 -13.526259422302246 -2.347599983215332
19.030214309692383 -12.033974647521973 -2.347599983215332
20.332942962646484 -10.671552658081055 -2.3942418098449707
23.28082275390625 -5.738212585449219 -2.5
23.899824142456055 -1.9293993711471558 -2.5
-21.648881912231445 2.9296874345163815e-05 -2.5
-21.578685760498047 -1.7419970035552979 -2.5
-17.604286193847656 -11.132275581359863 -2.4052958488464355
-16.25200653076172 -12.212587356567383 -2.347599983215332
-15.216601371765137 -13.480731964111328 -2.347599983215332
-13.395209312438965 -13.945868492126465 -2.2330174446105957
-11.840399742126465 -14.501815795898438 -2.161951780319214
-11.548291206359863 -16.7305850982666 -2.347599983215332
-10.164604187011719 -17.6055850982666 -2.347599983215332
-3.0992674827575684 -15.181259155273438 -1.7892818450927734
0.8185693025588989 -20.312685012817383 -2.347599983215332
2.4504101276397705 -20.18095588684082 -2.347599983215332
4.066362380981445 -19.918338775634766 -2.347599983215332
5.831118106842041 -15.375380516052246 -1.8989388942718506
7.28860330581665 -15.360331535339355 -1.9633660316467285
8.721410751342773 -15.105839729309082 -2.0142788887023926
11.548291206359863 -16.7305850982666 -2.347599983215332
12.85708999633789 -15.747079849243164 -2.347599983215332
14.082514762878418 -14.66146469116211 -2.347599983215332
15.216615676879883 -13.480731964111328 -2.347599983215332
16.25200080871582 -12.212597846984863 -2.347599983215332
17.92919921875 -11.33773422241211 -2.449687957763672
19.91653823852539 -8.485634803771973 -2.5
21.36854362487793 -3.472724437713623 -2.5
-19.72798728942871 1.4648437172581907e-05 -2.5
-13.758344650268555 -4.593212604522705 -1.838100552558899
-12.565991401672363 -5.353871822357178 -1.7309150695800781
-16.673887252807617 -10.543935775756836 -2.5
-15.728744506835938 -11.819384574890137 -2.4932405948638916
-11.71627426147461 -14.349823951721191 -2.347599983215332
-10.523608207702637 -15.24608325958252 -2.347599983215332
-6.569184303283691 -17.321514129638672 -2.347599983215332
-5.154086589813232 -17.7939453125 -2.347599983215332
-2.232983350753784 -18.39029312133789 -2.347599983215332
-0.7459423542022705 -18.51034164428711 -2.347599983215332
3.7055516242980957 -18.150976181030273 -2.347599983215332
5.154077053070068 -17.793954849243164 -2.347599983215332
5.813481330871582 -15.328896522521973 -2.07753849029541
10.523608207702637 -15.24608325958252 -2.347599983215332
11.716283798217773 -14.34984302520752 -2.347599983215332
12.832968711853027 -13.360527038574219 -2.347599983215332
14.047080039978027 -12.444619178771973 -2.3781819343566895
18.14934539794922 -7.732714653015137 -2.5
19.154726028442383 -4.72122049331665 -2.5
19.472509384155273 -3.1645898818969727 -2.5
19.664018630981445 -1.5874462127685547 -2.5
-18.057313919067383 -1.4577245712280273 -2.5
-17.881454467773438 -2.906010627746582 -2.5
-12.333148956298828 -6.472939491271973 -1.9221330881118774
-15.311503410339355 -9.682421684265137 -2.5
-10.933032035827637 -13.39053726196289 -2.3855814933776855
-9.663744926452637 -14.000361442565918 -2.347599983215332
-8.505854606628418 -14.732558250427246 -2.347599983215332
-3.099433422088623 -15.182021141052246 -2.1383228302001953
-2.050527334213257 -16.887676239013672 -2.347599983215332
2.050532102584839 -16.887664794921875 -2.347599983215332
3.402773380279541 -16.66790008544922 -2.347599983215332
4.732944011688232 -16.34004783630371 -2.347599983215332
5.802890300750732 -15.300966262817383 -2.258265972137451
7.232021331787109 -15.241073608398438 -2.328028440475464
10.878388404846191 -13.323613166809082 -2.373656749725342
12.38597583770752 -12.89517593383789 -2.467437744140625
15.31151294708252 -9.682412147521973 -2.5
16.04096221923828 -8.418964385986328 -2.5
17.589618682861328 -4.335464000701904 -2.5
17.881460189819336 -2.9060254096984863 -2.5
-16.743755340576172 1.4648437172581907e-05 -2.5
-16.689462661743164 -1.3472949266433716 -2.5
-16.52692413330078 -2.6858787536621094 -2.5
-13.755355834960938 -4.592206954956055 -2.165233612060547
-12.505976676940918 -5.328305721282959 -2.0296759605407715
-13.385673522949219 -10.05868148803711 -2.5
-11.598808288574219 -12.075644493103027 -2.5
-10.589516639709473 -12.969794273376465 -2.5
-9.464325904846191 -13.711444854736328 -2.487590789794922
-8.082719802856445 -13.99966812133789 -2.41365122795105
-6.754311561584473 -14.234403610229492 -2.3524587154388428
-5.575478553771973 -14.701308250427246 -2.347599983215332
-1.8952001333236694 -15.608417510986328 -2.347599983215332
-0.633105456829071 -15.710311889648438 -2.347599983215332
1.8952001333236694 -15.608417510986328 -2.347599983215332
3.145014524459839 -15.405302047729492 -2.347599983215332
5.575473308563232 -14.70131778717041 -2.347599983215332
8.05300235748291 -13.948212623596191 -2.4047770500183105
9.425102233886719 -13.654619216918945 -2.477281093597412
10.585917472839355 -12.965399742126465 -2.4991517066955566
11.598808288574219 -12.075634956359863 -2.5
13.385692596435547 -10.05868148803711 -2.5
14.151659965515137 -8.948965072631836 -2.5
14.825859069824219 -7.781220436096191 -2.5
15.403915405273438 -6.562997817993164 -2.5
15.882060050964355 -5.302216529846191 -2.5
16.689477920532227 -1.3473193645477295 -2.5
-15.35958480834961 -2.496171712875366 -2.5
-12.507060050964355 -5.328759670257568 -2.184122323989868
-9.841543197631836 -12.05370044708252 -2.5
-8.839701652526855 -12.806523323059082 -2.5
-6.658959865570068 -14.033456802368164 -2.4955155849456787
-5.455986022949219 -14.386249542236328 -2.4718878269195557
-2.9862890243530273 -14.627861022949219 -2.3985414505004883
-0.5932519435882568 -14.721532821655273 -2.3670387268066406
0.5930712819099426 -14.717138290405273 -2.366332530975342
1.7823584079742432 -14.678974151611328 -2.3756039142608643
2.981879711151123 -14.60619068145752 -2.394991397857666
5.441733360290527 -14.348671913146973 -2.4654290676116943
7.780556678771973 -13.476298332214355 -2.5
9.841537475585938 -12.05370044708252 -2.5
10.779545783996582 -11.222704887390137 -2.5
11.6476411819458 -10.318915367126465 -2.5
13.778661727905273 -7.231601238250732 -2.5
15.10891056060791 -3.7240185737609863 -2.5
15.35958480834961 -2.496171712875366 -2.5
-14.531054496765137 0.0 -2.5
-14.108808517456055 -3.4775047302246094 -2.5
-12.866616249084473 -6.752939224243164 -2.5
-10.876654624938965 -9.635859489440918 -2.5
-10.06600570678711 -10.479814529418945 -2.5
-9.19009780883789 -11.255820274353027 -2.5
-8.254579544067383 -11.958807945251465 -2.5
-7.26553201675415 -12.584228515625 -2.5
-6.229360103607178 -13.128095626831055 -2.5
-5.152788162231445 -13.586767196655273 -2.5
-4.042788028717041 -13.9573335647583 -2.5
-2.905287981033325 -14.231063842773438 -2.4988908767700195
-1.7493358850479126 -14.407060623168945 -2.4968724250793457
0.5841015577316284 -14.49462890625 -2.495757579803467
1.7491796016693115 -14.40584945678711 -2.496661901473999
2.9048924446105957 -14.229082107543945 -2.498540163040161
4.042788028717041 -13.957343101501465 -2.5
5.152778148651123 -13.586767196655273 -2.5
8.2545747756958 -11.958818435668945 -2.5
9.19009780883789 -11.255829811096191 -2.5
10.066020011901855 -10.479843139648438 -2.5
10.876649856567383 -9.635869026184082 -2.5
11.61673355102539 -8.729423522949219 -2.5
12.866605758666992 -6.7529296875 -2.5
13.368270874023438 -5.695688247680664 -2.5
14.483940124511719 -1.169277310371399 -2.5
-13.449233055114746 -2.1857030391693115 -2.5
-13.229745864868164 -3.2608349323272705 -2.5
-12.924452781677246 -4.314789772033691 -2.5
-12.535346031188965 -5.340805530548096 -2.5
-11.516283988952637 -7.282470703125 -2.5
-9.438833236694336 -9.826865196228027 -2.5
-8.617485046386719 -10.554511070251465 -2.5
-5.841220378875732 -12.310126304626465 -2.5
-2.725478410720825 -13.350302696228027 -2.5
2.7254881858825684 -13.350312232971191 -2.5
3.790898323059082 -13.087714195251465 -2.5
4.831733226776123 -12.74022388458252 -2.5
7.74026346206665 -11.213701248168945 -2.5
10.198965072631836 -9.03548812866211 -2.5
10.892934799194336 -8.185517311096191 -2.5
11.516283988952637 -7.282451152801514 -2.5
12.924443244934082 -4.314824104309082 -2.5
13.229731559753418 -3.2608447074890137 -2.5
13.44921875 -2.1857128143310547 -2.5
13.581493377685547 -1.0964159965515137 -2.5
-12.823447227478027 4.882812390860636e-06 -2.5
-12.781869888305664 -1.0318456888198853 -2.5
-12.450824737548828 -3.06884765625 -2.5
-11.797324180603027 -5.026371955871582 -2.5
-10.8382568359375 -6.853701114654541 -2.5
-10.251601219177246 -7.703574180603027 -2.5
-9.598481178283691 -8.50350570678711 -2.5
-8.110121726989746 -9.933095932006836 -2.5
-7.2845458984375 -10.553476333618164 -2.5
-6.411718368530273 -11.105429649353027 -2.5
-5.497314453125 -11.585341453552246 -2.5
-2.565004825592041 -12.564287185668945 -2.5
-1.5456883907318115 -12.729950904846191 -2.5
4.5472412109375 -11.99013614654541 -2.5
6.411718368530273 -11.105448722839355 -2.5
7.2845458984375 -10.553495407104492 -2.5
8.11013126373291 -9.93310546875 -2.5
10.251605987548828 -7.703593730926514 -2.5
10.838252067565918 -6.853701114654541 -2.5
11.354594230651855 -5.9593505859375 -2.5
12.450819969177246 -3.068852424621582 -2.5
-11.138671875 -4.745737075805664 -2.5
-10.720664024353027 -5.626626014709473 -2.5
-8.387163162231445 -8.731963157653809 -2.5
-6.877851486206055 -9.964277267456055 -2.5
-5.190395355224609 -10.938525199890137 -2.5
-2.421806573867798 -11.862821578979492 -2.5
-1.4593944549560547 -12.019238471984863 -2.5
0.4875146448612213 -12.097695350646973 -2.5
1.459389567375183 -12.019238471984863 -2.5
2.421811580657959 -11.862841606140137 -2.5
3.368520498275757 -11.62948226928711 -2.5
5.190395355224609 -10.938544273376465 -2.5
6.877846717834473 -9.964296340942383 -2.5
7.657338619232178 -9.378535270690918 -2.5
8.387167930603027 -8.7319917678833 -2.5
9.6792573928833 -7.273505687713623 -2.5
10.233144760131836 -6.471044540405273 -2.5
11.138667106628418 -4.745732307434082 -2.5
11.755688667297363 -2.897514581680298 -2.5
-11.31606388092041 -1.8390331268310547 -2.5
-10.874491691589355 -3.630444288253784 -2.5
-10.547109603881836 -4.493705749511719 -2.5
-9.689687728881836 -6.127397537231445 -2.5
-8.581313133239746 -7.602382659912109 -2.5
-7.250673770904541 -8.88045883178711 -2.5
-5.732250690460205 -9.928564071655273 -2.5
-4.065375804901123 -10.719501495361328 -2.5
-1.3818846940994263 -11.380927085876465 -2.5
0.46162596344947815 -11.455214500427246 -2.5
1.3818895816802979 -11.380927085876465 -2.5
3.189624071121216 -11.01186466217041 -2.5
4.065371036529541 -10.719501495361328 -2.5
4.914751052856445 -10.357617378234863 -2.5
6.512587547302246 -9.435107231140137 -2.5
9.165224075317383 -6.887226581573486 -2.5
9.689697265625 -6.127392292022705 -2.5
11.131376266479492 -2.7436375617980957 -2.5
11.316054344177246 -1.839028239250183 -2.5
-10.742777824401855 -1.7458691596984863 -2.5
-10.323583602905273 -3.4465136528015137 -2.5
-10.012797355651855 -4.266049861907959 -2.5
-8.700902938842773 -6.538300514221191 -2.5
-8.146562576293945 -7.217216491699219 -2.5
-7.539403915405273 -7.849355220794678 -2.5
-6.883344650268555 -8.430556297302246 -2.5
-5.441850662231445 -9.425556182861328 -2.5
-4.665756702423096 -9.832880973815918 -2.5
-1.3118749856948853 -10.80434513092041 -2.5
-0.43824705481529236 -10.874873161315918 -2.5
1.3118798732757568 -10.80434513092041 -2.5
3.028032064437866 -10.453993797302246 -2.5
3.8594090938568115 -10.176435470581055 -2.5
4.665771484375 -9.832890510559082 -2.5
5.441850662231445 -9.425565719604492 -2.5
6.883344650268555 -8.43056583404541 -2.5
8.146567344665527 -7.217236042022705 -2.5
8.700888633728027 -6.538300514221191 -2.5
9.637045860290527 -5.057929515838623 -2.5
10.323588371276855 -3.446523427963257 -2.5
10.5674409866333 -2.6046385765075684 -2.5
-10.32277774810791 -0.8333300352096558 -2.5
-10.222241401672363 -1.6612695455551147 -2.5
-10.055424690246582 -2.4784374237060547 -2.5
-9.823378562927246 -3.2795214653015137 -2.5
-9.527641296386719 -4.059345722198486 -2.5
-7.174096584320068 -7.46902322769165 -2.5
-5.883080959320068 -8.523115158081055 -2.5
-4.439677715301514 -9.3564453125 -2.5
-3.672416925430298 -9.683368682861328 -2.5
-1.2483203411102295 -10.28084945678711 -2.5
0.4170019328594208 -10.3479585647583 -2.5
2.8813183307647705 -9.947470664978027 -2.5
5.883076190948486 -8.523115158081055 -2.5
7.17410135269165 -7.469042778015137 -2.5
9.823378562927246 -3.279531240463257 -2.5
10.32277774810791 -0.8333446979522705 -2.5
-9.875307083129883 9.765624781721272e-06 -2.5
-9.747421264648438 -1.5841064453125 -2.5
-9.085078239440918 -3.870781183242798 -2.5
-8.744145393371582 -4.589282035827637 -2.5
-8.346503257751465 -5.278002738952637 -2.5
-6.245575904846191 -7.649453163146973 -2.5
-4.937646389007568 -8.552255630493164 -2.5
-4.233471393585205 -8.921826362609863 -2.5
-1.975307583808899 -9.675732612609863 -2.5
-0.3976415991783142 -9.867294311523438 -2.5
1.190332055091858 -9.803300857543945 -2.5
3.501821279525757 -9.233583450317383 -2.5
4.233471393585205 -8.921845436096191 -2.5
5.609809398651123 -8.127216339111328 -2.5
6.245585918426514 -7.649462699890137 -2.5
8.346503257751465 -5.278012752532959 -2.5
8.744145393371582 -4.589286804199219 -2.5
9.085078239440918 -3.870790958404541 -2.5
9.367084503173828 -3.127192258834839 -2.5
9.747421264648438 -1.5841113328933716 -2.5
-8.94906234741211 -2.9876365661621094 -2.5
-8.353930473327637 -4.384482383728027 -2.5
-7.974032878875732 -5.042475700378418 -2.5
-6.535571098327637 -6.804257869720459 -2.5
-5.966875076293945 -7.308085918426514 -2.5
-5.359467506408691 -7.76452112197876 -2.5
-4.717294692993164 -8.170605659484863 -2.5
-4.044536113739014 -8.523691177368164 -2.5
-2.624872922897339 -9.062108993530273 -2.5
-1.8871532678604126 -9.243935585021973 -2.5
-1.1372119188308716 -9.36581039428711 -2.5
-0.37989744544029236 -9.426942825317383 -2.5
0.3798877000808716 -9.426942825317383 -2.5
2.624868154525757 -9.062118530273438 -2.5
5.359462738037109 -7.76452112197876 -2.5
5.966865062713623 -7.308095455169678 -2.5
6.535575866699219 -6.804267406463623 -2.5
7.542421817779541 -5.667763710021973 -2.5
8.679638862609863 -3.6980466842651367 -2.5
8.949067115783691 -2.9876365661621094 -2.5
9.160449028015137 -2.2578465938568115 -2.5
9.404004096984863 -0.75916987657547 -2.5
-8.912353515625 -1.4483983516693115 -2.5
-8.766899108886719 -2.160839796066284 -2.5
-8.56459903717041 -2.8592724800109863 -2.5
-8.306753158569336 -3.539174795150757 -2.5
-7.995034217834473 -4.196117877960205 -2.5
-7.631454944610596 -4.82583475112915 -2.5
-7.2183837890625 -5.424262523651123 -2.5
-6.758515357971191 -5.987514495849609 -2.5
-6.254785060882568 -6.511933326721191 -2.5
-4.514643669128418 -7.819589614868164 -2.5
-3.8707664012908936 -8.157500267028809 -2.5
-2.512099504470825 -8.672782897949219 -2.5
-1.8060790300369263 -8.846796989440918 -2.5
-1.0883593559265137 -8.9634370803833 -2.5
0.3635644316673279 -9.021952629089355 -2.5
1.0883593559265137 -8.9634370803833 -2.5
3.2018260955810547 -8.442519187927246 -2.5
3.87078595161438 -8.157509803771973 -2.5
4.514633655548096 -7.819580078125 -2.5
6.758510589599609 -5.987494945526123 -2.5
7.99502420425415 -4.196113109588623 -2.5
8.999995231628418 -0.7265625 -2.5
-8.627089500427246 -0.6964355111122131 -2.5
-8.543075561523438 -1.3883837461471558 -2.5
-7.962568283081055 -3.392534017562866 -2.5
-6.478476524353027 -5.739423751831055 -2.5
-5.473916053771973 -6.704316139221191 -2.5
-4.916684627532959 -7.123056411743164 -2.5
-3.069159984588623 -8.092704772949219 -2.5
-1.7312450408935547 -8.480243682861328 -2.5
-0.3485156297683716 -8.648134231567383 -2.5
1.0432616472244263 -8.592050552368164 -2.5
1.7312548160552979 -8.480243682861328 -2.5
2.408012628555298 -8.313437461853027 -2.5
4.327573299407959 -7.495595455169678 -2.5
6.478476524353027 -5.739423751831055 -2.5
6.919296741485596 -5.199526309967041 -2.5
8.209721565246582 -2.7408154010772705 -2.5
8.627089500427246 -0.6964501738548279 -2.5
-8.30868148803711 4.882812390860636e-06 -2.5
-8.067245483398438 -1.9883984327316284 -2.5
-7.356972694396973 -3.8612401485443115 -2.5
-7.022407054901123 -4.440698146820068 -2.5
-6.219140529632568 -5.509667873382568 -2.5
-5.755620002746582 -5.992226600646973 -2.5
-5.254785060882568 -6.435946941375732 -2.5
-4.719868183135986 -6.837900161743164 -2.5
-4.154330730438232 -7.195507526397705 -2.5
-2.3116111755371094 -7.980624675750732 -2.5
-1.6619335412979126 -8.140761375427246 -2.5
-1.001499056816101 -8.248095512390137 -2.5
-0.33455565571784973 -8.301942825317383 -2.5
0.33455565571784973 -8.301942825317383 -2.5
1.0015087127685547 -8.248095512390137 -2.5
2.3116161823272705 -7.980644226074219 -2.5
3.5618700981140137 -7.506474494934082 -2.5
5.254785060882568 -6.435946941375732 -2.5
5.755620002746582 -5.992250919342041 -2.5
6.219130516052246 -5.50967264175415 -2.5
7.022402286529541 -4.44070291519165 -2.5
7.356972694396973 -3.8612449169158936 -2.5
7.643813133239746 -3.256728410720825 -2.5
8.067240715026855 -1.9883984327316284 -2.5
8.281728744506836 -0.6685693264007568 -2.5
-7.98681640625 9.765624781721272e-06 -2.5
-7.883393287658691 -1.281166911125183 -2.5
-7.754741191864014 -1.911376953125 -2.5
-7.575780868530273 -2.529169797897339 -2.5
-7.347700119018555 -3.130566358566284 -2.5
-7.071972370147705 -3.7116551399230957 -2.5
-6.750380516052246 -4.268681526184082 -2.5
-5.978232383728027 -5.296240329742432 -2.5
-5.051220417022705 -6.186635494232178 -2.5
-4.537021160125732 -6.573017597198486 -2.5
-3.993398427963257 -6.91677713394165 -2.5
-2.2220702171325684 -7.671474456787109 -2.5
-1.597558617591858 -7.825400352478027 -2.5
-0.9627001881599426 -7.92858362197876 -2.5
-0.3216015696525574 -7.980331897735596 -2.5
0.9627050757408142 -7.92858362197876 -2.5
2.2220702171325684 -7.671474456787109 -2.5
5.051225662231445 -6.186630725860596 -2.5
5.532660961151123 -5.760112285614014 -2.5
7.071972370147705 -3.711660146713257 -2.5
7.347704887390137 -3.130556583404541 -2.5
7.754735946655273 -1.9113671779632568 -2.5
-7.662045955657959 -0.6185351610183716 -2.5
-7.587421894073486 -1.2330809831619263 -2.5
-7.463598251342773 -1.8396044969558716 -2.5
-7.291367053985596 -2.434213876724243 -2.5
-7.071850299835205 -3.0130321979522705 -2.5
-6.806464672088623 -3.5723047256469727 -2.5
-6.496953010559082 -4.108422756195068 -2.5
-6.145297527313232 -4.617890357971191 -2.5
-5.753774166107178 -5.097397327423096 -2.5
-5.324946403503418 -5.54385232925415 -2.5
-4.861581802368164 -5.954355239868164 -2.5
-4.366689205169678 -6.326240062713623 -2.5
-3.8434765338897705 -6.65709924697876 -2.5
-3.2953367233276367 -6.944775104522705 -2.5
-1.5375829935073853 -7.53161096572876 -2.5
-0.926562488079071 -7.630918025970459 -2.5
0.9265576004981995 -7.630918025970459 -2.5
1.5375878810882568 -7.531620979309082 -2.5
2.1386523246765137 -7.383466720581055 -2.5
3.295341730117798 -6.944794654846191 -2.5
3.8434813022613525 -6.657109260559082 -2.5
4.861586570739746 -5.954370021820068 -2.5
5.324946403503418 -5.543867111206055 -2.5
6.496953010559082 -4.108422756195068 -2.5
6.806464672088623 -3.572319269180298 -2.5
7.071855545043945 -3.0130369663238525 -2.5
7.291367053985596 -2.4342284202575684 -2.5
7.587421894073486 -1.2330760955810547 -2.5
-7.406879901885986 9.765624781721272e-06 -2.5
-7.025698184967041 -2.345522403717041 -2.5
-6.814179420471191 -2.903247117996216 -2.5
-6.558461666107178 -3.442143440246582 -2.5
-5.921376705169678 -4.449618816375732 -2.5
-5.544126033782959 -4.911664962768555 -2.5
-4.207572937011719 -6.095736980438232 -2.5
-3.1752636432647705 -6.691728591918945 -2.5
-1.4815576076507568 -7.257187366485596 -2.5
0.8927978277206421 -7.352860927581787 -2.5
1.4815673828125 -7.257187366485596 -2.5
2.0607128143310547 -7.114433288574219 -2.5
2.626513719558716 -6.925546646118164 -2.5
3.1752734184265137 -6.691738128662109 -2.5
4.207582950592041 -6.095742225646973 -2.5
5.130922794342041 -5.341850280761719 -2.5
6.260219573974609 -3.9587254524230957 -2.5
6.558461666107178 -3.442153215408325 -2.5
-7.144589900970459 4.882812390860636e-06 -2.5
-7.121425628662109 -0.5748925805091858 -2.5
-7.052074909210205 -1.1460692882537842 -2.5
-6.936972618103027 -1.7098095417022705 -2.5
-6.572880744934082 -2.8004393577575684 -2.5
-6.326215744018555 -3.32024884223938 -2.5
-5.711689472198486 -4.292050838470459 -2.5
-4.518564224243164 -5.534233093261719 -2.5
-4.058583736419678 -5.8798828125 -2.5
-3.5722899436950684 -6.187392234802246 -2.5
-1.9877440929412842 -6.862499713897705 -2.5
-1.42910635471344 -7.000205039978027 -2.5
-0.8611816167831421 -7.092499732971191 -2.5
-0.2876855432987213 -7.13878870010376 -2.5
0.28768065571784973 -7.13878870010376 -2.5
1.429101586341858 -7.000195026397705 -2.5
3.0628368854522705 -6.454775333404541 -2.5
4.058598518371582 -5.87987756729126 -2.5
4.518559455871582 -5.534238338470459 -2.5
4.949228286743164 -5.152695178985596 -2.5
6.038535118103027 -3.81853985786438 -2.5
6.326220512390137 -3.320263624191284 -2.5
6.5728759765625 -2.8004393577575684 -2.5
7.052074909210205 -1.1460790634155273 -2.5
7.121425628662109 -0.5749072432518005 -2.5
-6.898412704467773 9.765624781721272e-06 -2.5
-6.876039981842041 -0.5550927519798279 -2.5
-6.543398380279541 -2.184506893157959 -2.5
-5.163544654846191 -4.574487209320068 -2.5
-3.4491991996765137 -5.974194049835205 -2.5
-2.4461963176727295 -6.450126647949219 -2.5
-1.3798632621765137 -6.758994102478027 -2.5
-0.8315136432647705 -6.848105430603027 -2.5
-0.2777734398841858 -6.892822265625 -2.5
0.2777685523033142 -6.892812252044678 -2.5
3.449208974838257 -5.974199295043945 -2.5
3.9187400341033936 -5.677279949188232 -2.5
4.778700828552246 -4.975151062011719 -2.5
5.163535118103027 -4.574496746063232 -2.5
6.108237266540527 -3.2058591842651367 -2.5
6.346396446228027 -2.7039549350738525 -2.5
6.543398380279541 -2.184511661529541 -2.5
6.697954177856445 -1.65090811252594 -2.5
-6.666840553283691 4.882812390860636e-06 -2.5
-5.634755611419678 -3.5632030963897705 -2.5
-4.990204811096191 -4.42092752456665 -2.5
-3.7871971130371094 -5.486708641052246 -2.5
-3.3334081172943115 -5.773657321929932 -2.5
-2.364091634750366 -6.233593463897705 -2.5
-1.854824185371399 -6.403613090515137 -2.5
-0.8035986423492432 -6.618242263793945 -2.5
2.364091634750366 -6.233603477478027 -2.5
3.333427667617798 -5.773657321929932 -2.5
3.7871971130371094 -5.486699104309082 -2.5
4.216411113739014 -5.164165019989014 -2.5
5.329755783081055 -4.005053520202637 -2.5
5.90319299697876 -3.0982420444488525 -2.5
6.133359432220459 -2.6131787300109863 -2.5
6.323740005493164 -2.1111814975738525 -2.5
6.473119735717773 -1.59548819065094 -2.5
6.580507755279541 -1.0694433450698853 -2.5
-6.448569297790527 0.0 -2.5
-6.365058422088623 -1.0344189405441284 -2.5
-6.261171817779541 -1.543237328529358 -2.5
-6.11669921875 -2.042050838470459 -2.5
-5.709926605224609 -2.9967968463897705 -2.5
-5.450263500213623 -3.446537971496582 -2.5
-4.826821327209473 -4.276186466217041 -2.5
-4.078373908996582 -4.995087623596191 -2.5
-3.663203001022339 -5.307065486907959 -2.5
-3.2242772579193115 -5.584619045257568 -2.5
-2.764453172683716 -5.82595682144165 -2.5
1.7941112518310547 -6.193954944610596 -2.5
2.764457941055298 -5.825966835021973 -2.5
4.826826095581055 -4.276196002960205 -2.5
5.155258655548096 -3.8739306926727295 -2.5
5.709917068481445 -2.9968016147613525 -2.5
5.932548522949219 -2.5276219844818115 -2.5
6.261186599731445 -1.5432469844818115 -2.5
6.365058422088623 -1.0344287157058716 -2.5
6.427646160125732 -0.5188964605331421 -2.5
-6.222172737121582 -0.5022900104522705 -2.5
-6.061025142669678 -1.4939013719558716 -2.5
-5.742895603179932 -2.4468212127685547 -2.5
-5.527392387390137 -2.900991201400757 -2.5
-5.276034832000732 -3.33636212348938 -2.5
-4.990458965301514 -3.750077962875366 -2.5
-4.672524452209473 -4.139492034912109 -2.5
-4.324277400970459 -4.502050876617432 -2.5
-3.948002815246582 -4.835414886474609 -2.5
-3.5461082458496094 -5.137412071228027 -2.5
-3.1211962699890137 -5.406084060668945 -2.5
-2.6760692596435547 -5.639716625213623 -2.5
-1.7367528676986694 -5.995961666107178 -2.5
-1.2486376762390137 -6.116259574890137 -2.5
-0.25136229395866394 -6.237353324890137 -2.5
0.25135740637779236 -6.237353324890137 -2.5
0.7524365186691284 -6.196913719177246 -2.5
1.2486425638198853 -6.116264343261719 -2.5
1.7367479801177979 -5.995956897735596 -2.5
2.2135984897613525 -5.836772441864014 -2.5
3.121210813522339 -5.406098365783691 -2.5
3.546098470687866 -5.137412071228027 -2.5
4.324282169342041 -4.502045631408691 -2.5
6.161577224731445 -1.0013574361801147 -2.5
6.222182273864746 -0.5023095607757568 -2.5
-6.027768611907959 -0.4866015613079071 -2.5
-5.969067096710205 -0.9700683355331421 -2.5
-5.871645450592041 -1.4472265243530273 -2.5
-5.736156940460205 -1.9150097370147705 -2.5
-5.111186504364014 -3.232109308242798 -2.5
-4.834536075592041 -3.6329052448272705 -2.5
-4.526533126831055 -4.010156154632568 -2.5
-3.824638605117798 -4.684321403503418 -2.5
-3.023686408996582 -5.2371826171875 -2.5
-2.592456102371216 -5.463490962982178 -2.5
-0.7289257645606995 -6.003281116485596 -2.5
0.728930652141571 -6.00329065322876 -2.5
1.6824902296066284 -5.808613300323486 -2.5
2.144423723220825 -5.654389381408691 -2.5
2.592465877532959 -5.4635009765625 -2.5
3.023686408996582 -5.2371826171875 -2.5
3.435302734375 -4.976894378662109 -2.5
3.8246335983276367 -4.684330940246582 -2.5
4.526528358459473 -4.010151386260986 -2.5
4.834526062011719 -3.6329150199890137 -2.5
5.111181735992432 -3.23211407661438 -2.5
5.871654987335205 -1.4472362995147705 -2.5
5.969062328338623 -0.9700732231140137 -2.5
-5.843510627746582 -0.4717333912849426 -2.5
-5.69216775894165 -1.402993083000183 -2.5
-5.56082010269165 -1.85647451877594 -2.5
-5.393403053283691 -2.297924757003784 -2.5
-4.954941272735596 -3.1333203315734863 -2.5
-3.7077293395996094 -4.541142463684082 -2.5
-2.5132129192352295 -5.296489238739014 -2.5
0.7066552639007568 -5.819770336151123 -2.5
2.5132176876068115 -5.296494007110596 -2.5
2.9312596321105957 -5.077085018157959 -2.5
3.707719564437866 -4.5411376953125 -2.5
4.686743259429932 -3.521865129470825 -2.5
5.56082010269165 -1.8564794063568115 -2.5
5.843505859375 -0.471748024225235 -2.5
-5.521777153015137 -1.3609912395477295 -2.5
-4.806616306304932 -3.0395214557647705 -2.5
-4.256811618804932 -3.771191358566284 -2.5
-3.596733331680298 -4.405195236206055 -2.5
-2.437978506088257 -5.137948989868164 -2.5
-1.5822216272354126 -5.462490081787109 -2.5
-0.6854931712150574 -5.645546913146973 -2.5
-0.22898925840854645 -5.682412147521973 -2.5
0.22898925840854645 -5.682412147521973 -2.5
0.685498058795929 -5.645556449890137 -2.5
1.137548804283142 -5.572089672088623 -2.5
1.5822362899780273 -5.462485313415527 -2.5
3.5967283248901367 -4.405195236206055 -2.5
5.035610198974609 -2.642895460128784 -2.5
5.394355297088623 -1.8009033203125 -2.5
5.613383769989014 -0.9122655987739563 -2.5
-5.520155906677246 9.765624781721272e-06 -2.5
-5.359755516052246 -1.3210546970367432 -2.5
-4.887856483459473 -2.5653514862060547 -2.5
-4.665575981140137 -2.9503369331359863 -2.5
-4.131908893585205 -3.660537004470825 -2.5
-2.760087728500366 -4.780590534210205 -2.5
-1.957485318183899 -5.161440372467041 -2.5
-1.1041845083236694 -5.408603191375732 -2.5
-0.6653759479522705 -5.479911804199219 -2.5
-0.22227050364017487 -5.515683650970459 -2.5
0.22227539122104645 -5.515678405761719 -2.5
1.9574804306030273 -5.161440372467041 -2.5
2.366450071334839 -4.987192153930664 -2.5
2.760087728500366 -4.780595779418945 -2.5
3.491201162338257 -4.275951862335205 -2.5
4.413046836853027 -3.3161962032318115 -2.5
4.887856483459473 -2.5653467178344727 -2.5
5.078437328338623 -2.1637158393859863 -2.5
5.236073970794678 -1.7480566501617432 -2.5
5.448671817779541 -0.885498046875 -2.5
-5.361274242401123 4.882812390860636e-06 -2.5
-5.291850566864014 -0.85999995470047 -2.5
-5.205488204956055 -1.2830321788787842 -2.5
-4.747162818908691 -2.491508722305298 -2.5
-4.531293869018555 -2.865419864654541 -2.5
-4.286025524139404 -3.2207372188568115 -2.5
-4.01296854019165 -3.55517578125 -2.5
-3.713876962661743 -3.8665575981140137 -2.5
-2.298330068588257 -4.843642234802246 -2.5
-1.0723828077316284 -5.252919673919678 -2.5
-0.6462255716323853 -5.322177410125732 -2.5
0.2158789038658142 -5.356923580169678 -2.5
1.0723876953125 -5.252919673919678 -2.5
1.9011279344558716 -5.012880802154541 -2.5
2.6806395053863525 -4.642997741699219 -2.5
3.0455517768859863 -4.412240982055664 -2.5
3.3907177448272705 -4.152865886688232 -2.5
4.012973308563232 -3.555180549621582 -2.5
4.286025524139404 -3.2207422256469727 -2.5
4.747168064117432 -2.491513729095459 -2.5
5.205488204956055 -1.2830370664596558 -2.5
5.291845798492432 -0.8600048422813416 -2.5
