ply
format ascii 1.0
element vertex 754
property float x
property float y
property float z
end_header
19.364469528198242 -17.155424118041992 6.625649452209473
19.33580780029297 -17.130029678344727 6.009114742279053
16.52779769897461 -14.642362594604492 4.6231560707092285
19.292898178100586 -17.092010498046875 5.099210262298584
19.278627395629883 -17.079374313354492 4.7994303703308105
19.25032615661621 -17.054302215576172 4.204898357391357
19.236286163330078 -17.0418643951416 3.909918785095215
19.20840835571289 -17.01717185974121 3.3242175579071045
19.167036056518555 -16.98051643371582 2.4549760818481445
-5.015082359313965 -24.56547737121582 2.123553514480591
19.153348922729492 -16.9683837890625 2.167327642440796
-5.038919448852539 -24.6822452545166 1.852741003036499
5.078849792480469 -24.877811431884766 1.8674209117889404
19.139699935913086 -16.9562931060791 1.880603313446045
-5.0397443771362305 -24.68625831604004 1.5725473165512085
19.126102447509766 -16.944242477416992 1.5948901176452637
4.816103458404541 -23.59079933166504 1.235087275505066
7.750380516052246 -16.333599090576172 0.5260473489761353
8.860392570495605 -15.346654891967773 0.5156207084655762
19.085500717163086 -16.908275604248047 0.7418832182884216
-5.060977458953857 -24.790283203125 0.4556335210800171
-0.6923437118530273 -17.180360794067383 0.3096560537815094
9.297831535339355 -16.104320526123047 0.33489349484443665
-0.6914843320846558 -17.159095764160156 0.11893920600414276
7.750381946563721 -16.333599090576172 0.1252148449420929
9.277722358703613 -16.06947135925293 0.12851379811763763
19.05858039855957 -16.884424209594727 0.17627593874931335
-5.060976982116699 -24.790283203125 -0.1051771491765976
-0.6897784471511841 -17.116708755493164 -0.26103803515434265
-25.981142044067383 -6.40380859375 -0.7044079303741455
-0.6889251470565796 -17.095584869384766 -0.45039549469947815
9.277718544006348 -16.069477081298828 -0.4884606897830963
19.018354415893555 -16.848783493041992 -0.6688777208328247
-25.851083755493164 -6.371752738952637 -0.9962263107299805
-0.6880785822868347 -17.074501037597656 -0.6394004821777344
-25.730913162231445 -6.342128753662109 -1.285811424255371
-5.060985088348389 -24.790283203125 -1.2276017665863037
9.277719497680664 -16.069477081298828 -0.9002975225448608
14.228422164916992 -20.61341667175293 -1.2152737379074097
-16.928123474121094 -7.212407112121582 -1.0972853899002075
-14.315186500549316 -10.75716781616211 -1.06782066822052
-11.095489501953125 -16.074554443359375 -1.1647632122039795
-5.06097936630249 -24.790283203125 -1.508836030960083
-0.6863806247711182 -17.032440185546875 -1.0165252685546875
5.003488540649414 -13.193124771118164 -0.8414292931556702
14.229035377502441 -20.614295959472656 -1.493758201599121
19.468822479248047 -20.269155502319336 -1.675976276397705
-25.624250411987305 -6.315839767456055 -1.8674899339675903
-24.278045654296875 -8.105199813842773 -1.811171531677246
-16.595064163208008 -7.070497989654541 -1.276442050933838
-15.84945011138916 -10.022597312927246 -1.326966404914856
-13.77828311920166 -10.353715896606445 -1.2195727825164795
-15.217011451721191 -13.481107711791992 -1.438572645187378
-11.036701202392578 -15.989384651184082 -1.374806523323059
-0.6855370998382568 -17.011444091796875 -1.2047407627105713
3.908287286758423 -13.492959022521973 -0.9940358996391296
14.229536056518555 -20.615018844604492 -1.772508978843689
19.604150772094727 -20.410043716430664 -2.002568006515503
-25.624252319335938 -6.315839767456055 -2.161652088165283
-19.181169509887695 -6.403613090515137 -1.6563366651535034
-13.426841735839844 -10.089618682861328 -1.3756694793701172
-15.21948528289795 -13.48330020904541 -1.6654434204101562
-12.385607719421387 -26.102128982543945 -2.3664610385894775
-10.260868072509766 -27.055673599243164 -2.3701019287109375
-8.060513496398926 -27.82808494567871 -2.3730435371398926
-5.049746990203857 -24.735273361206055 -2.067812919616699
1.1688995361328125 -29.00592803955078 -2.3777530193328857
3.498041868209839 -28.80892562866211 -2.3770205974578857
3.7972898483276367 -13.109755516052246 -1.1179354190826416
4.880084037780762 -12.867729187011719 -1.1272246837615967
9.272576332092285 -16.060565948486328 -1.519000768661499
18.16600799560547 -22.24933624267578 -2.352684497833252
18.237607955932617 -16.157114028930664 -1.9957109689712524
-26.773056030273438 -2.1613523960113525 -2.5
-26.512325286865234 -4.308681488037109 -2.5
-26.07963752746582 -6.428085803985596 -2.5
-19.033546447753906 -6.354331016540527 -1.8676567077636719
-15.486217498779297 -9.7929048538208 -1.7053847312927246
-13.223068237304688 -9.936493873596191 -1.5394878387451172
-15.952013969421387 -19.537675857543945 -2.347599983215332
-12.627995491027832 -21.872318267822266 -2.3506920337677
-10.844213485717773 -22.85371971130371 -2.3544204235076904
-5.025659084320068 -24.61727523803711 -2.3385045528411865
-0.6838464140892029 -16.969511032104492 -1.580712914466858
3.7320029735565186 -12.884360313415527 -1.2485005855560303
4.852532863616943 -12.79507827758789 -1.2736653089523315
6.05778694152832 -12.766528129577637 -1.315224528312683
9.272574424743652 -16.060571670532227 -1.726083517074585
14.230536460876465 -20.616474151611328 -2.3316256999969482
18.15169906616211 -16.08101463317871 -2.2571005821228027
20.16415023803711 -15.152377128601074 -2.347599983215332
25.477840423583984 -8.505751609802246 -2.5
26.079641342163086 -6.428066253662109 -2.5
26.773061752319336 -2.1613426208496094 -2.5
-23.977596282958984 4.882812390860636e-06 -2.5
-23.899837493896484 -1.9293944835662842 -2.5
-23.66709327697754 -3.8462841510772705 -2.5
-15.461669921875 -9.777382850646973 -1.907378911972046
-13.166571617126465 -9.89404296875 -1.7171975374221802
-15.214975357055664 -13.479301452636719 -2.1193771362304688
-11.257951736450195 -19.499330520629883 -2.347599983215332
-9.652388572692871 -20.34200096130371 -2.347599983215332
-2.7204179763793945 -22.4046573638916 -2.3531579971313477
-0.6830022931098938 -16.948558807373047 -1.7685599327087402
0.9090350270271301 -22.557357788085938 -2.3538310527801514
2.720548152923584 -22.40569305419922 -2.3532679080963135
2.7189793586730957 -13.3184175491333 -1.417275309562683
3.6902849674224854 -12.740326881408691 -1.3829610347747803
4.810844421386719 -12.685151100158691 -1.414527416229248
5.997626781463623 -12.639745712280273 -1.4587078094482422
12.79049301147461 -18.530210494995117 -2.347599983215332
11.183402061462402 -13.697192192077637 -1.8436813354492188
12.418153762817383 -12.92867660522461 -1.869096040725708
19.14955711364746 -14.389960289001465 -2.497504472732544
23.899816513061523 -1.9293895959854126 -2.5
-21.648895263671875 0.0 -2.5
-21.578693389892578 -1.7420116662979126 -2.5
-19.013444900512695 -6.347621917724609 -2.314788341522217
-16.190704345703125 -6.898217678070068 -2.0323190689086914
-15.468828201293945 -9.781904220581055 -2.113525152206421
-13.148322105407715 -9.880327224731445 -1.8992724418640137
-16.20442008972168 -14.35586929321289 -2.5
-14.306585311889648 -14.894745826721191 -2.3849539756774902
-12.85708999633789 -15.747084617614746 -2.347599983215332
-10.164590835571289 -17.605581283569336 -2.347599983215332
-8.714959144592285 -18.36640167236328 -2.347599983215332
-5.655934810638428 -19.52654266357422 -2.347599983215332
-4.0663604736328125 -19.9183349609375 -2.347599983215332
0.8185723423957825 -20.31269073486328 -2.347599983215332
3.6556029319763184 -12.62059497833252 -1.5173249244689941
4.775296688079834 -12.591425895690918 -1.5551055669784546
12.414350509643555 -12.924721717834473 -2.0695111751556396
19.16914939880371 -10.060742378234863 -2.5
-19.15471839904785 -4.721235275268555 -2.5
-16.19226837158203 -6.898881912231445 -2.2304208278656006
-17.468263626098633 -9.168061256408691 -2.5
-16.673891067504883 -10.543935775756836 -2.5
-13.15378189086914 -9.884428024291992 -2.085069417953491
-12.134946823120117 -14.862611770629883 -2.4314892292022705
-10.523608207702637 -15.246078491210938 -2.347599983215332
-9.262685775756836 -16.043441772460938 -2.347599983215332
-5.154078960418701 -17.793954849243164 -2.347599983215332
-3.7055504322052 -18.150985717773438 -2.347599983215332
-1.9444738626480103 -16.014198303222656 -2.0442795753479004
-0.6449419856071472 -16.004159927368164 -2.0297484397888184
2.232989549636841 -18.390296936035156 -2.347599983215332
3.6410179138183594 -12.570243835449219 -1.6584233045578003
4.76569938659668 -12.566118240356445 -1.7030959129333496
12.491518020629883 -13.005058288574219 -2.2851364612579346
14.766603469848633 -13.082084655761719 -2.5
15.771393775939941 -11.851435661315918 -2.5
16.673891067504883 -10.5439453125 -2.5
18.71271514892578 -6.247226238250732 -2.5
19.15471839904785 -4.721225261688232 -2.5
19.664012908935547 -1.5874462127685547 -2.5
-18.057308197021484 -1.4577441215515137 -2.5
-13.560060501098633 -12.01317310333252 -2.5
-8.56308650970459 -14.831684112548828 -2.3633944988250732
-7.292783260345459 -15.369233131408691 -2.347599983215332
-6.032429218292236 -15.90621566772461 -2.347599983215332
-4.732956886291504 -16.34004783630371 -2.347599983215332
-3.4027841091156006 -16.66789436340332 -2.347599983215332
-0.6416540145874023 -15.923300743103027 -2.199183702468872
0.6849926710128784 -16.997894287109375 -2.347599983215332
3.6388134956359863 -12.562636375427246 -1.804892897605896
4.766823768615723 -12.569087028503418 -1.8550726175308228
10.14493179321289 -14.697465896606445 -2.4644927978515625
11.171954154968262 -13.683173179626465 -2.437713623046875
12.437373161315918 -12.948691368103027 -2.477678060531616
13.560059547424316 -12.01317310333252 -2.5
14.48275089263916 -10.883070945739746 -2.5
15.311508178710938 -9.682412147521973 -2.5
17.18373680114746 -5.736772537231445 -2.5
17.881454467773438 -2.9060301780700684 -2.5
18.05731201171875 -1.4577343463897705 -2.5
-16.257211685180664 -4.007055759429932 -2.5
-15.403913497924805 -6.562997817993164 -2.5
-14.825861930847168 -7.781215667724609 -2.5
-14.151655197143555 -8.948974609375 -2.5
-12.532876968383789 -11.103168487548828 -2.5
-9.511541366577148 -13.779838562011719 -2.5
-8.364367485046387 -14.487509727478027 -2.4977574348449707
-7.019045829772949 -14.792343139648438 -2.4446656703948975
-4.374431610107422 -15.102279663085938 -2.347599983215332
-3.1450183391571045 -15.405302047729492 -2.347599983215332
-1.8952059745788574 -15.608417510986328 -2.347599983215332
-0.6331030130386353 -15.71031665802002 -2.347599983215332
0.6331048607826233 -15.710311889648438 -2.347599983215332
3.64251446723938 -12.575400352478027 -1.9548097848892212
4.771446228027344 -12.581278800964355 -2.0090584754943848
5.960381984710693 -12.561254501342773 -2.075944185256958
8.358556747436523 -14.477445602416992 -2.4960215091705322
9.511541366577148 -13.779848098754883 -2.5
10.589508056640625 -12.969799041748047 -2.5
11.59880542755127 -12.075644493103027 -2.5
13.385676383972168 -10.05868148803711 -2.5
14.151652336120605 -8.948969841003418 -2.5
15.882062911987305 -5.302216529846191 -2.5
-15.359575271606445 -2.4961767196655273 -2.5
-14.31588077545166 -6.099418640136719 -2.5
-13.77865982055664 -7.231601238250732 -2.5
-12.440197944641113 -9.3482027053833 -2.5
-11.64763355255127 -10.318910598754883 -2.5
-8.839706420898438 -12.806528091430664 -2.5
-6.670915603637695 -14.058671951293945 -2.5
-5.509837627410889 -14.528261184692383 -2.496286630630493
-1.7890576124191284 -14.734272003173828 -2.3845512866973877
-0.5934863090515137 -14.727543830871582 -2.3680055141448975
0.5931231379508972 -14.718110084533691 -2.366488456726074
2.5650768280029297 -12.564559936523438 -2.06022310256958
3.64176869392395 -12.572827339172363 -2.1029434204101562
5.967508316040039 -12.576278686523438 -2.2363905906677246
7.780545711517334 -13.476293563842773 -2.5
8.839710235595703 -12.806523323059082 -2.5
9.841537475585938 -12.053690910339355 -2.5
10.779541969299316 -11.222700119018555 -2.5
12.440202713012695 -9.3482027053833 -2.5
13.152077674865723 -8.316869735717773 -2.5
13.778661727905273 -7.23159646987915 -2.5
14.31588363647461 -6.099418640136719 -2.5
15.108908653259277 -3.7240185737609863 -2.5
15.510629653930664 -1.2521483898162842 -2.5
-14.531054496765137 9.765624781721272e-06 -2.5
-14.483932495117188 -1.1692626476287842 -2.5
-14.108805656433105 -3.4775242805480957 -2.5
-13.783234596252441 -4.601513385772705 -2.5
-13.368273735046387 -5.69567346572876 -2.5
-11.616744995117188 -8.729418754577637 -2.5
-10.8766450881958 -9.635878562927246 -2.5
-10.066011428833008 -10.479833602905273 -2.5
-6.229349136352539 -13.12808609008789 -2.5
-2.9065892696380615 -14.237387657165527 -2.5
1.7495532035827637 -14.408862113952637 -2.4971842765808105
2.566173553466797 -12.569926261901855 -2.2072031497955322
5.152780532836914 -13.586767196655273 -2.5
7.265527248382568 -12.584257125854492 -2.5
8.254583358764648 -11.958818435668945 -2.5
10.066011428833008 -10.479833602905273 -2.5
12.281499862670898 -7.766357421875 -2.5
12.866612434387207 -6.752914905548096 -2.5
-13.625672340393066 4.882812390860636e-06 -2.5
-13.581487655639648 -1.096411108970642 -2.5
-13.449223518371582 -2.185717821121216 -2.5
-12.924443244934082 -4.314814567565918 -2.5
-12.5353364944458 -5.340800762176514 -2.5
-12.064933776855469 -6.332167625427246 -2.5
-10.19896125793457 -9.035497665405273 -2.5
-9.438831329345703 -9.826874732971191 -2.5
-7.740265369415283 -11.213701248168945 -2.5
-6.812837600708008 -11.800175666809082 -2.5
-5.841214656829834 -12.310121536254883 -2.5
-3.7909038066864014 -13.087699890136719 -2.5
-1.642397403717041 -13.526323318481445 -2.5
-0.5486523509025574 -13.614628791809082 -2.5
1.6423944234848022 -13.526328086853027 -2.5
4.831730842590332 -12.74022388458252 -2.5
8.6174898147583 -10.554516792297363 -2.5
9.438831329345703 -9.826874732971191 -2.5
10.198959350585938 -9.035497665405273 -2.5
11.51628303527832 -7.282460689544678 -2.5
12.064936637878418 -6.332158088684082 -2.5
12.53533935546875 -5.340805530548096 -2.5
12.924448013305664 -4.314814567565918 -2.5
13.581490516662598 -1.0964062213897705 -2.5
-12.823448181152344 9.765624781721272e-06 -2.5
-12.781864166259766 -1.0318554639816284 -2.5
-12.657387733459473 -2.0570263862609863 -2.5
-11.797307968139648 -5.026362419128418 -2.5
-10.251608848571777 -7.703588485717773 -2.5
-9.59848403930664 -8.503524780273438 -2.5
-8.110128402709961 -9.93310546875 -2.5
-7.284549236297607 -10.55349063873291 -2.5
-2.565021514892578 -12.564287185668945 -2.5
-1.54569673538208 -12.72994613647461 -2.5
1.5456981658935547 -12.729950904846191 -2.5
2.56502366065979 -12.564301490783691 -2.5
4.547255992889404 -11.990131378173828 -2.5
6.411725997924805 -11.105429649353027 -2.5
7.284551620483398 -10.553485870361328 -2.5
8.883112907409668 -9.248305320739746 -2.5
11.354598045349121 -5.959355354309082 -2.5
12.450819969177246 -3.068852424621582 -2.5
12.65738582611084 -2.0570311546325684 -2.5
12.781867027282715 -1.0318603515625 -2.5
-12.107514381408691 4.882812390860636e-06 -2.5
-12.068251609802246 -0.9742480516433716 -2.5
-11.950722694396973 -1.9421874284744263 -2.5
-11.75568675994873 -2.897524356842041 -2.5
-11.484416007995605 -3.834057569503784 -2.5
-11.13866138458252 -4.745737075805664 -2.5
-10.720670700073242 -5.626640319824219 -2.5
-10.233146667480469 -6.471059322357178 -2.5
-8.387165069580078 -8.731972694396973 -2.5
-7.657334804534912 -9.3785400390625 -2.5
-6.053757667541504 -10.485414505004883 -2.5
-4.293380260467529 -11.320717811584473 -2.5
-3.3685243129730225 -11.62948226928711 -2.5
0.48752257227897644 -12.097700119018555 -2.5
1.4594018459320068 -12.019232749938965 -2.5
6.877852439880371 -9.964282035827637 -2.5
8.387171745300293 -8.731972694396973 -2.5
9.062602043151855 -8.028764724731445 -2.5
9.679264068603516 -7.273496150970459 -2.5
10.720670700073242 -5.626635551452637 -2.5
12.06825065612793 -0.9742480516433716 -2.5
-11.131375312805176 -2.743647336959839 -2.5
-10.87450885772705 -3.630439281463623 -2.5
-10.151323318481445 -5.327826976776123 -2.5
-7.941744327545166 -8.2682466506958 -2.5
-5.732255935668945 -9.928564071655273 -2.5
-4.914747714996338 -10.357622146606445 -2.5
-4.065369606018066 -10.719501495361328 -2.5
-3.189628839492798 -11.011869430541992 -2.5
-2.293201208114624 -11.232831954956055 -2.5
1.38189697265625 -11.380927085876465 -2.5
2.293203115463257 -11.232827186584473 -2.5
3.1896355152130127 -11.01187515258789 -2.5
4.914749622344971 -10.357622146606445 -2.5
5.732259273529053 -9.928559303283691 -2.5
6.51258659362793 -9.435102462768555 -2.5
7.250677108764648 -8.880473136901855 -2.5
7.941749095916748 -8.268237113952637 -2.5
9.689688682556152 -6.127392292022705 -2.5
10.547114372253418 -4.493705749511719 -2.5
-10.848407745361328 -0.8757763504981995 -2.5
-10.742758750915527 -1.7458691596984863 -2.5
-10.567439079284668 -2.6046533584594727 -2.5
-10.323586463928223 -3.4465136528015137 -2.5
-9.637038230895996 -5.057909965515137 -2.5
-9.198792457580566 -5.816972732543945 -2.5
-8.700892448425293 -6.538295745849609 -2.5
-6.88334321975708 -8.430571556091309 -2.5
-6.182646751403809 -8.957114219665527 -2.5
-5.44185209274292 -9.42556095123291 -2.5
-2.1770198345184326 -10.663749694824219 -2.5
-1.311885952949524 -10.804340362548828 -2.5
1.3118877410888672 -10.80435562133789 -2.5
5.441855430603027 -9.425551414489746 -2.5
6.883344650268555 -8.43056583404541 -2.5
8.146566390991211 -7.217231273651123 -2.5
9.198795318603516 -5.816972732543945 -2.5
9.637038230895996 -5.057900428771973 -2.5
10.012784004211426 -4.266039848327637 -2.5
10.742764472961426 -1.7458691596984863 -2.5
10.848407745361328 -0.8757714629173279 -2.5
-10.356355667114258 0.0 -2.5
-10.322772026062012 -0.8333398103713989 -2.5
-10.22224235534668 -1.6612792015075684 -2.5
-10.055414199829102 -2.478447198867798 -2.5
-9.823379516601562 -3.2795214653015137 -2.5
-9.527633666992188 -4.059340953826904 -2.5
-9.170096397399902 -4.812841892242432 -2.5
-8.75308609008789 -5.535121917724609 -2.5
-7.751840114593506 -6.867543697357178 -2.5
-7.174100875854492 -7.46902322769165 -2.5
-5.1781792640686035 -8.968862533569336 -2.5
-4.4396891593933105 -9.356450080871582 -2.5
-3.672414541244507 -9.683363914489746 -2.5
-2.881319761276245 -9.947470664978027 -2.5
-1.2483233213424683 -10.280844688415527 -2.5
-0.41700682044029236 -10.347953796386719 -2.5
1.2483227252960205 -10.280844688415527 -2.5
2.071542978286743 -10.14706039428711 -2.5
3.6724133491516113 -9.683368682861328 -2.5
4.439688682556152 -9.356459617614746 -2.5
5.178175926208496 -8.968867301940918 -2.5
7.751840591430664 -6.867538928985596 -2.5
9.170097351074219 -4.812841892242432 -2.5
9.527636528015137 -4.059335708618164 -2.5
10.055418014526367 -2.478442430496216 -2.5
-9.875301361083984 9.765624781721272e-06 -2.5
-9.843278884887695 -0.794628918170929 -2.5
-9.588340759277344 -2.3633251190185547 -2.5
-9.367082595825195 -3.127197265625 -2.5
-8.346506118774414 -5.278017520904541 -2.5
-7.391767978668213 -6.548540115356445 -2.5
-6.840859889984131 -7.122094631195068 -2.5
-6.245584964752197 -7.649457931518555 -2.5
-3.501828193664551 -9.233569145202637 -2.5
-1.9753167629241943 -9.675726890563965 -2.5
-1.1903387308120728 -9.803300857543945 -2.5
-0.39763548970222473 -9.867294311523438 -2.5
0.39763975143432617 -9.867294311523438 -2.5
1.9753179550170898 -9.675732612609863 -2.5
2.747485876083374 -9.485400199890137 -2.5
3.501831531524658 -9.233573913574219 -2.5
4.233466625213623 -8.921845436096191 -2.5
6.24558687210083 -7.649447917938232 -2.5
9.085075378417969 -3.870781183242798 -2.5
9.367080688476562 -3.127192258834839 -2.5
9.588343620300293 -2.3633203506469727 -2.5
9.747419357299805 -1.5841113328933716 -2.5
9.843279838562012 -0.7946337461471558 -2.5
-9.434601783752441 4.882812390860636e-06 -2.5
-9.404008865356445 -0.7591747641563416 -2.5
-9.31242561340332 -1.5134179592132568 -2.5
-8.94906234741211 -2.9876317977905273 -2.5
-8.67963981628418 -3.6980466842651367 -2.5
-8.353924751281738 -4.384477615356445 -2.5
-7.974027156829834 -5.042475700378418 -2.5
-7.061896800994873 -6.256293773651123 -2.5
-4.7172980308532715 -8.170605659484863 -2.5
-3.3455543518066406 -8.821508407592773 -2.5
-1.1372179985046387 -9.365815162658691 -2.5
-0.3798931837081909 -9.426947593688965 -2.5
1.8871654272079468 -9.24393081665039 -2.5
2.6248767375946045 -9.062108993530273 -2.5
3.3455541133880615 -8.82149887084961 -2.5
4.04454231262207 -8.523695945739746 -2.5
7.542424201965332 -5.66775369644165 -2.5
7.974029541015625 -5.042475700378418 -2.5
8.67963981628418 -3.6980419158935547 -2.5
8.949063301086426 -2.9876317977905273 -2.5
9.31242561340332 -1.5134179592132568 -2.5
-9.029281616210938 4.882812390860636e-06 -2.5
-8.999998092651367 -0.7265527248382568 -2.5
-8.91235065460205 -1.4483983516693115 -2.5
-8.306747436523438 -3.539174795150757 -2.5
-7.995026111602783 -4.196117877960205 -2.5
-7.63145112991333 -4.825844764709473 -2.5
-7.218388557434082 -5.424267292022705 -2.5
-6.25479793548584 -6.511938095092773 -2.5
-5.129213809967041 -7.430947303771973 -2.5
-4.514639854431152 -7.819584846496582 -2.5
-3.2018253803253174 -8.442519187927246 -2.5
-2.5121045112609863 -8.672782897949219 -2.5
-1.088358759880066 -8.963446617126465 -2.5
-0.36356931924819946 -9.021952629089355 -2.5
1.0883617401123047 -8.963446617126465 -2.5
1.8060894012451172 -8.846796989440918 -2.5
2.51210618019104 -8.6727876663208 -2.5
3.2018260955810547 -8.442523956298828 -2.5
3.8707799911499023 -8.15750503540039 -2.5
4.514640808105469 -7.819570064544678 -2.5
5.129216194152832 -7.430947303771973 -2.5
5.710524559020996 -6.994121074676514 -2.5
7.218390941619873 -5.424267292022705 -2.5
7.631454944610596 -4.825839519500732 -2.5
8.306751251220703 -3.5391697883605957 -2.5
8.56459903717041 -2.8592822551727295 -2.5
8.766901969909668 -2.1608495712280273 -2.5
8.912349700927734 -1.4483983516693115 -2.5
-8.543070793151855 -1.3883837461471558 -2.5
-7.962562561035156 -3.392524242401123 -2.5
-7.663756370544434 -4.022250652313232 -2.5
-5.995634078979492 -6.242118835449219 -2.5
-4.916687488555908 -7.123051643371582 -2.5
-4.327578067779541 -7.495580673217773 -2.5
-3.7103970050811768 -7.819497108459473 -2.5
-2.4080147743225098 -8.313432693481445 -2.5
-1.73125422000885 -8.480238914489746 -2.5
0.3485082983970642 -8.648134231567383 -2.5
1.7312567234039307 -8.480234146118164 -2.5
4.916690349578857 -7.123046875 -2.5
5.995633602142334 -6.242118835449219 -2.5
6.919301509857178 -5.199516296386719 -2.5
7.315247535705566 -4.625878810882568 -2.5
8.20973014831543 -2.740800619125366 -2.5
8.543070793151855 -1.3883837461471558 -2.5
-8.201083183288574 -1.3328075408935547 -2.5
-8.067238807678223 -1.9883739948272705 -2.5
-7.881080150604248 -2.6310887336730957 -2.5
-6.642312049865723 -4.991376876831055 -2.5
-1.6619499921798706 -8.140766143798828 -2.5
-0.33455565571784973 -8.301928520202637 -2.5
1.661953091621399 -8.140761375427246 -2.5
2.9462976455688477 -7.768744945526123 -2.5
3.5618650913238525 -7.506479263305664 -2.5
4.15433931350708 -7.195517539978027 -2.5
6.219130516052246 -5.509667873382568 -2.5
7.356968879699707 -3.8612303733825684 -2.5
7.643813133239746 -3.256723642349243 -2.5
7.881082534790039 -2.6310887336730957 -2.5
8.281733512878418 -0.6685742139816284 -2.5
-7.98681640625 9.765624781721272e-06 -2.5
-7.347702503204346 -3.130561351776123 -2.5
-7.071971416473389 -3.711660146713257 -2.5
-6.384997844696045 -4.798017501831055 -2.5
-5.978212833404541 -5.296240329742432 -2.5
-5.051220417022705 -6.186630725860596 -2.5
-4.537026405334473 -6.573017597198486 -2.5
-3.423884153366089 -7.215683460235596 -2.5
-0.9627050757408142 -7.928578853607178 -2.5
0.32159727811813354 -7.980331897735596 -2.5
0.96270751953125 -7.928578853607178 -2.5
1.597570776939392 -7.825409889221191 -2.5
2.2220726013183594 -7.671479225158691 -2.5
2.832163095474243 -7.467797756195068 -2.5
3.4238836765289307 -7.2156982421875 -2.5
3.993408203125 -6.916781902313232 -2.5
4.537027359008789 -6.573012351989746 -2.5
5.05122184753418 -6.186621189117432 -2.5
6.750375747680664 -4.268681526184082 -2.5
7.07197380065918 -3.711660146713257 -2.5
7.347706317901611 -3.130561351776123 -2.5
7.575784683227539 -2.529169797897339 -2.5
7.7547287940979 -1.9113720655441284 -2.5
-7.662038326263428 -0.6185400485992432 -2.5
-7.587420463562012 -1.2330760955810547 -2.5
-7.071847915649414 -3.0130321979522705 -2.5
-6.145286560058594 -4.617885589599609 -2.5
-3.84348464012146 -6.6571044921875 -2.5
-3.2953388690948486 -6.944794654846191 -2.5
-1.5375924110412598 -7.5316162109375 -2.5
0.30952268838882446 -7.680732250213623 -2.5
0.9265630841255188 -7.630922794342041 -2.5
2.138651132583618 -7.383466720581055 -2.5
3.2953429222106934 -6.944794654846191 -2.5
4.861581802368164 -5.954360008239746 -2.5
6.145287990570068 -4.617880821228027 -2.5
6.496944427490234 -4.108422756195068 -2.5
6.806468486785889 -3.5723047256469727 -2.5
7.07185173034668 -3.0130271911621094 -2.5
7.463593482971191 -1.8396142721176147 -2.5
7.587418079376221 -1.2330760955810547 -2.5
7.662037372589111 -0.6185400485992432 -2.5
-7.40687370300293 0.0 -2.5
-7.310956954956055 -1.1881542205810547 -2.5
-7.191641807556152 -1.7725878953933716 -2.5
-6.558460712432861 -3.442143440246582 -2.5
-5.544122219085693 -4.911664962768555 -2.5
-4.207583904266357 -6.095742225646973 -2.5
-3.7034382820129395 -6.414540767669678 -2.5
-3.17526912689209 -6.691742897033691 -2.5
-0.2982434034347534 -7.400868892669678 -2.5
1.4815691709518433 -7.257182598114014 -2.5
2.0607244968414307 -7.114438533782959 -2.5
2.626514196395874 -6.925551414489746 -2.5
4.684442043304443 -5.737402439117432 -2.5
5.13092041015625 -5.341855525970459 -2.5
5.544124603271484 -4.911669731140137 -2.5
5.921371936798096 -4.44961404800415 -2.5
6.260214805603027 -3.9587156772613525 -2.5
6.558463096618652 -3.442143440246582 -2.5
7.025691986083984 -2.345522403717041 -2.5
7.310954570770264 -1.1881444454193115 -2.5
7.382856369018555 -0.5960058569908142 -2.5
-6.776901721954346 -2.262465715408325 -2.5
-6.572874069213867 -2.8004393577575684 -2.5
-6.326218128204346 -3.320258617401123 -2.5
-6.0385332107543945 -3.81853985786438 -2.5
-5.711688041687012 -4.292055606842041 -2.5
-5.347799777984619 -4.737734317779541 -2.5
-4.51855993270874 -5.534238338470459 -2.5
-3.5722923278808594 -6.187397480010986 -2.5
-3.0628292560577393 -6.454784870147705 -2.5
-2.533505916595459 -6.680312156677246 -2.5
-1.9877489805221558 -6.862509727478027 -2.5
-0.8611853122711182 -7.092499732971191 -2.5
0.2876830995082855 -7.1387939453125 -2.5
0.8611859083175659 -7.092494964599609 -2.5
1.4291051626205444 -7.000205039978027 -2.5
1.9877526760101318 -6.862509727478027 -2.5
3.572294235229492 -6.187397480010986 -2.5
4.518559455871582 -5.534238338470459 -2.5
4.949228286743164 -5.152695178985596 -2.5
5.347800254821777 -4.737734317779541 -2.5
5.711689472198486 -4.292055606842041 -2.5
6.9369797706604 -1.709814429283142 -2.5
-6.898412704467773 4.882812390860636e-06 -2.5
-6.543392658233643 -2.184501886367798 -2.5
-6.346394062042236 -2.7039501667022705 -2.5
-4.7786970138549805 -4.975151062011719 -2.5
-4.362865924835205 -5.343549728393555 -2.5
-3.4492056369781494 -5.974194049835205 -2.5
-1.3798601627349854 -6.759003639221191 -2.5
0.27777281403541565 -6.892822265625 -2.5
0.831512451171875 -6.848114967346191 -2.5
1.3798614740371704 -6.758994102478027 -2.5
1.9192614555358887 -6.626049518585205 -2.5
2.4462108612060547 -6.450126647949219 -2.5
3.4492058753967285 -5.974199295043945 -2.5
3.9187450408935547 -5.67727518081665 -2.5
4.362864971160889 -5.343539714813232 -2.5
6.108238220214844 -3.2058496475219727 -2.5
6.543394565582275 -2.184506893157959 -2.5
6.697955131530762 -1.6508984565734863 -2.5
6.809075832366943 -1.1065820455551147 -2.5
-6.666841506958008 0.0 -2.5
-6.580507755279541 -1.069433569908142 -2.5
-6.473112106323242 -1.595483422279358 -2.5
-6.323739528656006 -2.1111767292022705 -2.5
-5.903193950653076 -3.0982372760772705 -2.5
-4.618281841278076 -4.808144569396973 -2.5
-4.2164106369018555 -5.164169788360596 -2.5
-1.8548308610916138 -6.403623104095459 -2.5
-0.8035992383956909 -6.618237018585205 -2.5
-0.2684466540813446 -6.661440372467041 -2.5
0.8035998344421387 -6.618232250213623 -2.5
1.8548351526260376 -6.403623104095459 -2.5
2.8580236434936523 -6.023163795471191 -2.5
3.333421468734741 -5.773657321929932 -2.5
3.787198305130005 -5.486699104309082 -2.5
4.618281364440918 -4.808139324188232 -2.5
4.990200042724609 -4.42092752456665 -2.5
5.329758167266846 -4.005048751831055 -2.5
5.634744644165039 -3.5631980895996094 -2.5
6.133360385894775 -2.613173723220825 -2.5
6.32374382019043 -2.1111669540405273 -2.5
6.4731125831604 -1.5954785346984863 -2.5
6.580506324768066 -1.0694384574890137 -2.5
-6.448563098907471 4.882812390860636e-06 -2.5
-6.427651405334473 -0.5188817977905273 -2.5
-6.116695880889893 -2.042055606842041 -2.5
-5.70991849899292 -2.9967968463897705 -2.5
-5.450258731842041 -3.446542978286743 -2.5
-5.155256271362305 -3.8739209175109863 -2.5
-4.814553260803223 -4.265326976776123 -2.493648052215576
-4.467074394226074 -4.650722503662109 -2.5
-4.078362464904785 -4.995097637176514 -2.5
-3.6632015705108643 -5.307060241699219 -2.5
-2.764448404312134 -5.825961589813232 -2.5
-2.2866907119750977 -6.029516696929932 -2.5
-1.289878487586975 -6.318242073059082 -2.5
-0.25965696573257446 -6.443334579467773 -2.5
4.078362941741943 -4.995087623596191 -2.5
4.826818943023682 -4.276191234588623 -2.5
5.155257225036621 -3.873915910720825 -2.5
5.709920406341553 -2.9967918395996094 -2.5
5.932547569274902 -2.5276172161102295 -2.5
-6.242419719696045 0.0 -2.5
-6.222177028656006 -0.5023046731948853 -2.5
-6.0610246658325195 -1.4939160346984863 -2.5
-5.742897987365723 -2.4468164443969727 -2.5
-5.527387619018555 -2.900995969772339 -2.5
-4.990456581115723 -3.7500829696655273 -2.5
-4.656627655029297 -4.125414848327637 -2.491499662399292
-3.5460989475250244 -5.137412071228027 -2.5
-3.1212105751037598 -5.406088829040527 -2.5
-2.676076889038086 -5.639721393585205 -2.5
-2.2135918140411377 -5.836762428283691 -2.5
-1.2486462593078613 -6.116264343261719 -2.5
1.2486462593078613 -6.116269588470459 -2.5
1.7367522716522217 -5.995956897735596 -2.5
2.213592529296875 -5.836767673492432 -2.5
2.676077127456665 -5.639721393585205 -2.5
4.324273586273193 -4.502050876617432 -2.5
4.990458965301514 -3.7500877380371094 -2.5
5.27603006362915 -3.336357355117798 -2.5
5.742900371551514 -2.4468164443969727 -2.5
5.921164512634277 -1.976772427558899 -2.5
6.161582946777344 -1.0013574361801147 -2.5
6.222177505493164 -0.5022997856140137 -2.5
-5.969063758850098 -0.9700732231140137 -2.5
-5.871649265289307 -1.4472362995147705 -2.5
-5.354684352874756 -2.810351610183716 -2.5
-5.111177921295166 -3.23211407661438 -2.5
-4.834529876708984 -3.6329100131988525 -2.5
-4.526521682739258 -4.010146617889404 -2.5
-3.8246333599090576 -4.684330940246582 -2.5
-3.0236873626708984 -5.237177848815918 -2.5
-1.6824861764907837 -5.808613300323486 -2.5
-1.209631323814392 -5.9251708984375 -2.5
-0.728930652141571 -6.003281116485596 -2.5
-0.2435034066438675 -6.04247522354126 -2.5
3.023688793182373 -5.237187385559082 -2.5
4.526525974273682 -4.010146617889404 -2.5
4.834529876708984 -3.6329150199890137 -2.5
5.111180305480957 -3.23211407661438 -2.5
5.354684829711914 -2.810351610183716 -2.5
5.563464164733887 -2.370361328125 -2.5
5.736155986785889 -1.9150097370147705 -2.5
6.02776575088501 -0.4866113066673279 -2.5
-5.862522602081299 0.0 -2.5
-5.786599159240723 -0.9404150247573853 -2.5
-5.560810565948486 -1.85647451877594 -2.5
-5.3933939933776855 -2.297910213470459 -2.5
-4.388155937194824 -3.887568235397339 -2.5
-4.061107158660889 -4.228066444396973 -2.5
-3.7077202796936035 -4.541132926940918 -2.5
-2.9312591552734375 -5.077085018157959 -2.5
-2.078876495361328 -5.481547832489014 -2.5
-1.6310561895370483 -5.631054401397705 -2.5
-0.7066485285758972 -5.819775104522705 -2.5
-0.23605956137180328 -5.857763767242432 -2.5
0.7066497802734375 -5.819770336151123 -2.5
1.1726574897766113 -5.744042873382568 -2.5
1.6310577392578125 -5.631059646606445 -2.5
2.5132012367248535 -5.296504020690918 -2.5
2.931260347366333 -5.077089786529541 -2.5
3.3302910327911377 -4.824755668640137 -2.5
3.7077207565307617 -4.541132926940918 -2.5
4.954941272735596 -3.133310556411743 -2.5
5.393397331237793 -2.297900438308716 -2.5
5.560811519622803 -1.8564696311950684 -2.5
5.692162990570068 -1.40298330783844 -2.5
5.786600112915039 -0.9404101371765137 -2.5
-5.668581008911133 -0.4576171636581421 -2.5
-5.613377094268799 -0.9122607111930847 -2.5
-5.035607814788818 -2.642890453338623 -2.5
-3.939537525177002 -4.101489067077637 -2.5
-3.5967304706573486 -4.405200004577637 -2.5
-2.8435122966766357 -4.925107479095459 -2.5
-2.4379818439483643 -5.137944221496582 -2.5
0.22899413108825684 -5.682412147521973 -2.5
3.230597972869873 -4.68032693862915 -2.5
3.596730947494507 -4.405204772949219 -2.5
3.9395384788513184 -4.101493835449219 -2.5
4.256797790527344 -3.771196126937866 -2.5
4.546451091766357 -3.4164304733276367 -2.5
5.035610198974609 -2.642885684967041 -2.5
5.613377571105957 -0.9122607111930847 -2.5
5.668582439422607 -0.4576123058795929 -2.5
-5.5201616287231445 0.0 -2.5
-5.50225830078125 -0.4441894292831421 -2.5
-5.236069202423096 -1.7480566501617432 -2.5
-5.07843017578125 -2.1637158393859863 -2.5
-4.665582656860352 -2.9503369331359863 -2.5
-4.131894588470459 -3.660537004470825 -2.5
-3.8239474296569824 -3.981157064437866 -2.5
-2.760080099105835 -4.780600547790527 -2.5
-1.9574999809265137 -5.161440372467041 -2.5
-1.5358028411865234 -5.302211761474609 -2.5
-1.1041741371154785 -5.408603191375732 -2.5
-0.6653814315795898 -5.479911804199219 -2.5
0.22227539122104645 -5.515688419342041 -2.5
0.6653826832771301 -5.479917049407959 -2.5
1.1041760444641113 -5.40859842300415 -2.5
1.5358153581619263 -5.302216529846191 -2.5
1.9574755430221558 -5.161435604095459 -2.5
2.3664495944976807 -4.987196922302246 -2.5
2.7600810527801514 -4.780595779418945 -2.5
3.491199254989624 -4.275947093963623 -2.5
4.413049221038818 -3.3161914348602295 -2.5
4.665583610534668 -2.9503369331359863 -2.5
5.078433513641357 -2.1637158393859863 -2.5
5.236071586608887 -1.7480566501617432 -2.5
-5.361269474029541 4.882812390860636e-06 -2.5
-5.291840553283691 -0.8600195050239563 -2.5
-4.932257175445557 -2.101430654525757 -2.5
-4.747167110443115 -2.491508722305298 -2.5
-4.012965679168701 -3.55517578125 -2.5
-3.7138795852661133 -3.8665623664855957 -2.5
-3.3907077312469482 -4.152865886688232 -2.5
-3.0455477237701416 -4.412236213684082 -2.5
-2.6806349754333496 -4.642997741699219 -2.5
-2.298332452774048 -4.843642234802246 -2.5
-1.901131510734558 -5.012880802154541 -2.5
-1.4915932416915894 -5.149589538574219 -2.5
-1.0723687410354614 -5.252919673919678 -2.5
-0.6462286114692688 -5.322177410125732 -2.5
-0.21587462723255157 -5.356918811798096 -2.5
0.6462304592132568 -5.322177410125732 -2.5
3.045548677444458 -4.412236213684082 -2.5
3.390709161758423 -4.152865886688232 -2.5
3.713879346847534 -3.8665575981140137 -2.5
4.012966156005859 -3.55517578125 -2.5
4.286028861999512 -3.2207372188568115 -2.5
4.531290054321289 -2.86541485786438 -2.5
4.747170448303223 -2.491503953933716 -2.5
5.085360050201416 -1.6977392435073853 -2.5
5.205479621887207 -1.2830370664596558 -2.5
5.291840553283691 -0.8600048422813416 -2.5
5.343883991241455 -0.431396484375 -2.5
