ply
format ascii 1.0
element vertex 756
property float x
property float y
property float z
end_header
-19.11284065246582 -8.143232345581055 5.32069206237793
-23.027738571166992 -9.81119155883789 6.115794658660889
-23.03118133544922 -9.812665939331055 5.531786918640137
-23.039682388305664 -9.816298484802246 4.094598293304443
-23.041366577148438 -9.817001342773438 3.8104679584503174
-23.043031692504883 -9.817724227905273 3.5272510051727295
-23.044702529907227 -9.818427085876465 3.24484920501709
16.417001724243164 -14.544159889221191 2.8411686420440674
-23.04802703857422 -9.819852828979492 2.6822803020477295
16.395864486694336 -14.525439262390137 2.3452255725860596
-4.860278129577637 -16.779619216918945 1.6747759580612183
-23.05133819580078 -9.821259498596191 2.122215509414673
15.242226600646973 -22.0821475982666 2.272592782974243
-23.05299186706543 -9.821962356567383 1.842944860458374
-4.849521160125732 -16.742422103881836 1.2819644212722778
16.36444854736328 -14.497607231140137 1.6079281568527222
-23.05463409423828 -9.82266616821289 1.5640908479690552
-4.844164848327637 -16.723955154418945 1.0867125988006592
15.679428100585938 -22.71553611755371 1.722715139389038
16.35403823852539 -14.488378524780273 1.3636678457260132
-23.056283950805664 -9.823369026184082 1.2855809926986694
16.34366226196289 -14.479179382324219 1.1200549602508545
-23.057924270629883 -9.824081420898438 1.007348656654358
-23.0595645904541 -9.8247652053833 0.72932368516922
-4.828207969665527 -16.668886184692383 0.5049499273300171
16.322978973388672 -14.46084976196289 0.6345245242118835
-4.822929382324219 -16.650653839111328 0.31219175457954407
16.312660217285156 -14.4517183303833 0.3924841284751892
16.3023624420166 -14.442597389221191 0.15084533393383026
-23.064496994018555 -9.826874732971191 -0.1041857898235321
-4.807153224945068 -16.596172332763672 -0.2632891833782196
-23.067787170410156 -9.82827091217041 -0.6600639224052429
16.271554946899414 -14.415302276611328 -0.5722531080245972
16.26129913330078 -14.406210899353027 -0.8128849864006042
-23.07107925415039 -9.829668045043945 -1.2167598009109497
-4.791464805603027 -16.542001724243164 -0.8355961441993713
16.25105094909668 -14.39712905883789 -1.0534107685089111
-23.07271957397461 -9.830370903015137 -1.495581030845642
-24.670072555541992 -12.94784164428711 -1.661466360092163
-4.786244869232178 -16.523984909057617 -1.0258821249008179
20.677541732788086 -1.6692577600479126 -1.2370816469192505
-23.074378967285156 -9.831073760986328 -1.774810791015625
-14.701483726501465 -18.00606346130371 -1.6448968648910522
-4.781025409698486 -16.50599479675293 -1.216004729270935
16.230558395385742 -14.378973960876465 -1.5343868732452393
24.27660369873047 -15.351572036743164 -2.032512664794922
-27.828519821166992 -6.859111309051514 -2.347599983215332
-27.186323165893555 -9.076142311096191 -2.347599983215332
-22.2789306640625 -9.492157936096191 -1.9835537672042847
-23.02999496459961 -17.30595588684082 -2.3595776557922363
-20.01167869567871 -20.83438491821289 -2.36618971824646
-10.248339653015137 -27.022724151611328 -2.3672146797180176
-4.775825023651123 -16.488006591796875 -1.4060125350952148
-5.792104244232178 -28.371639251708984 -2.37180495262146
2.5081005096435547 -20.655986785888672 -1.7043203115463257
3.175063371658325 -15.552518844604492 -1.300154685974121
10.271459579467773 -27.08356475830078 -2.372545003890991
14.459062576293945 -25.043798446655273 -2.3686249256134033
15.571550369262695 -22.55923843383789 -2.2452316284179688
24.224288940429688 -15.318486213684082 -2.347599983215332
27.186323165893555 -9.076112747192383 -2.347599983215332
28.278560638427734 -6.970029354095459 -2.3855679035186768
-26.860145568847656 0.0 -2.5
-26.77305030822754 -2.1613378524780273 -2.5
-21.318017959594727 -13.480722427368164 -2.347599983215332
-18.880712509155273 -16.72687530517578 -2.3477516174316406
-17.504379272460938 -18.22401237487793 -2.351896286010742
-14.381840705871582 -20.835731506347656 -2.356396198272705
-12.657685279846191 -21.923778533935547 -2.356221914291382
-8.984076499938965 -23.68912124633789 -2.3580942153930664
-5.073495864868164 -24.851688385009766 -2.3607726097106934
-1.021762728691101 -25.355243682861328 -2.3618452548980713
1.0221776962280273 -25.364286422729492 -2.362687587738037
3.059443235397339 -25.19658088684082 -2.3623905181884766
3.127944231033325 -15.321660041809082 -1.4554723501205444
8.990287780761719 -23.705379486083984 -2.3597142696380615
12.655713081359863 -21.92032241821289 -2.3558504581451416
14.362946510314941 -20.80828094482422 -2.3532958030700684
15.508563995361328 -13.73934555053711 -1.9284331798553467
20.16417121887207 -15.152382850646973 -2.347599983215332
22.33365249633789 -11.721601486206055 -2.347599983215332
25.08443260192871 -8.37441349029541 -2.4613966941833496
19.71890640258789 -1.5918651819229126 -1.841300368309021
-23.89983367919922 -1.929384708404541 -2.5
-23.667089462280273 -3.846269369125366 -2.5
-23.28084945678711 -5.738232135772705 -2.5
-22.69137191772461 -7.575498104095459 -2.4942572116851807
-19.03023338317871 -12.034003257751465 -2.347599983215332
-15.597318649291992 -16.238544464111328 -2.347599983215332
-14.240068435668945 -17.440937042236328 -2.347599983215332
-12.7904634475708 -18.530223846435547 -2.347599983215332
-11.260629653930664 -19.504013061523438 -2.3481619358062744
-4.512612342834473 -22.104257583618164 -2.3522138595581055
-0.9087255597114563 -22.550975799560547 -2.353161573410034
2.7199363708496094 -22.400634765625 -2.3527324199676514
3.1258544921875 -15.311396598815918 -1.6293554306030273
9.65395450592041 -20.345272064208984 -2.3479743003845215
12.790502548217773 -18.530214309692383 -2.347599983215332
14.240114212036133 -17.440937042236328 -2.347599983215332
13.56185531616211 -14.11937427520752 -2.0412368774414062
17.35774803161621 -13.043437004089355 -2.263810873031616
20.16020393371582 -10.580888748168945 -2.3739013671875
22.037212371826172 -9.389169692993164 -2.4975438117980957
22.74360466003418 -7.592919826507568 -2.5
23.28085708618164 -5.738203048706055 -2.5
19.020280838012695 -3.0910937786102295 -2.009148120880127
19.2875919342041 -1.5570507049560547 -2.0175459384918213
-21.64889144897461 0.0 -2.5
-21.578685760498047 -1.7420116662979126 -2.5
-21.01980972290039 -5.180927753448486 -2.5
-20.534759521484375 -6.855517387390137 -2.5
-19.916532516479492 -8.485644340515137 -2.5
-17.182010650634766 -10.865262985229492 -2.347599983215332
-12.85707950592041 -15.747079849243164 -2.347599983215332
-11.548271179199219 -16.7305850982666 -2.347599983215332
-4.539155006408691 -15.670976638793945 -1.8840558528900146
-4.066342830657959 -19.91834831237793 -2.347599983215332
-2.4504003524780273 -20.180965423583984 -2.347599983215332
-0.8185400366783142 -20.312694549560547 -2.347599983215332
0.8185888528823853 -20.312685012817383 -2.347599983215332
2.450429677963257 -20.180946350097656 -2.347599983215332
3.118828058242798 -15.276991844177246 -1.8005651235580444
5.655937194824219 -19.52654266357422 -2.347599983215332
11.548300743103027 -16.730575561523438 -2.347599983215332
12.8571138381958 -15.7470703125 -2.347599983215332
15.216615676879883 -13.480741500854492 -2.347599983215332
16.25202178955078 -12.212587356567383 -2.347599983215332
19.16915512084961 -10.060742378234863 -2.5
21.019819259643555 -5.180898189544678 -2.5
19.83304214477539 -3.2231836318969727 -2.32035493850708
19.287593841552734 -1.5570507049560547 -2.234565019607544
-19.664012908935547 -1.5874511003494263 -2.5
-19.472515106201172 -3.164599657058716 -2.5
-16.661659240722656 -10.536211013793945 -2.4981651306152344
-15.307299613952637 -11.502724647521973 -2.426436185836792
-12.832963943481445 -13.360536575317383 -2.347599983215332
-10.523588180541992 -15.24608325958252 -2.347599983215332
-5.869106292724609 -15.475556373596191 -2.0974090099334717
-4.539155006408691 -15.670976638793945 -2.0675065517425537
-2.232973575592041 -18.390302658081055 -2.347599983215332
0.7459570169448853 -18.51034164428711 -2.347599983215332
3.118828058242798 -15.276991844177246 -1.9758858680725098
6.56920862197876 -17.321514129638672 -2.347599983215332
15.771406173706055 -11.851435661315918 -2.5
16.673908233642578 -10.543925285339355 -2.5
18.14933967590332 -7.732705116271973 -2.5
18.71271514892578 -6.247216701507568 -2.5
19.472511291503906 -3.1645898818969727 -2.5
19.2875919342041 -1.5570507049560547 -2.4521403312683105
-17.881450653076172 -2.906015634536743 -2.5
-17.589637756347656 -4.335468769073486 -2.5
-17.183734893798828 -5.736777305603027 -2.5
-16.040966033935547 -8.418964385986328 -2.5
-15.311508178710938 -9.6824312210083 -2.5
-12.148476600646973 -12.647919654846191 -2.4201271533966064
-10.758950233459473 -13.177363395690918 -2.347599983215332
-9.66372013092041 -14.000370979309082 -2.347599983215332
-8.505844116210938 -14.732558250427246 -2.347599983215332
-7.292778015136719 -15.36922836303711 -2.347599983215332
-5.836928367614746 -15.3906831741333 -2.27150559425354
-4.514272212982178 -15.585039138793945 -2.239121437072754
-3.40276837348938 -16.667909622192383 -2.347599983215332
-2.0505223274230957 -16.887676239013672 -2.347599983215332
0.6850048899650574 -16.997900009155273 -2.347599983215332
3.118828058242798 -15.276991844177246 -2.15169620513916
8.505864143371582 -14.73256778717041 -2.347599983215332
9.663763999938965 -14.000350952148438 -2.347599983215332
12.532524108886719 -13.047734260559082 -2.496630907058716
13.560068130493164 -12.013163566589355 -2.5
15.3115234375 -9.682401657104492 -2.5
17.589637756347656 -4.335439205169678 -2.5
17.881460189819336 -2.906015634536743 -2.5
18.057313919067383 -1.4577343463897705 -2.5
-16.743759155273438 0.0 -2.5
-16.526927947998047 -2.6858885288238525 -2.5
-15.403910636901855 -6.562997817993164 -2.5
-14.151655197143555 -8.948984146118164 -2.5
-12.53287124633789 -11.10317325592041 -2.5
-11.598803520202637 -12.075644493103027 -2.5
-7.95470666885376 -13.777997970581055 -2.37542986869812
-6.740341663360596 -14.205009460449219 -2.347599983215332
-5.575453758239746 -14.701327323913574 -2.347599983215332
-4.374409198760986 -15.10228443145752 -2.347599983215332
-1.8952001333236694 -15.608417510986328 -2.347599983215332
-0.6330859065055847 -15.710302352905273 -2.347599983215332
1.8952147960662842 -15.608417510986328 -2.347599983215332
5.575488090515137 -14.70131778717041 -2.347599983215332
6.842875957489014 -14.42105484008789 -2.383303642272949
9.496953010559082 -13.75870132446289 -2.4961633682250977
11.598817825317383 -12.075634956359863 -2.5
12.532885551452637 -11.103163719177246 -2.5
14.151667594909668 -8.948965072631836 -2.5
15.403918266296387 -6.563007831573486 -2.5
15.882064819335938 -5.302206993103027 -2.5
16.68946647644043 -1.3473047018051147 -2.5
-15.510634422302246 -1.2521679401397705 -2.5
-15.359564781188965 -2.496161937713623 -2.5
-14.315878868103027 -6.099433422088623 -2.5
-13.152079582214355 -8.316884994506836 -2.5
-12.440195083618164 -9.348222732543945 -2.5
-9.841527938842773 -12.05370044708252 -2.5
-8.839673042297363 -12.80654239654541 -2.5
-7.773788928985596 -13.464628219604492 -2.497833251953125
-6.6502685546875 -14.0151948928833 -2.492267370223999
-5.398666858673096 -14.235175132751465 -2.445927381515503
-4.174765586853027 -14.413036346435547 -2.410738706588745
-1.7795263528823853 -14.655790328979492 -2.371852397918701
-0.593432605266571 -14.726259231567383 -2.3677992820739746
0.5948388576507568 -14.760175704956055 -2.3732521533966064
1.7923924922943115 -14.761591911315918 -2.388972282409668
3.0067431926727295 -14.727910041809082 -2.4149487018585205
5.502690315246582 -14.50936508178711 -2.4930405616760254
6.667299747467041 -14.051025390625 -2.4986395835876465
7.780551433563232 -13.476298332214355 -2.5
8.839716911315918 -12.806523323059082 -2.5
9.841552734375 -12.053690910339355 -2.5
10.779550552368164 -11.222704887390137 -2.5
11.6476411819458 -10.318915367126465 -2.5
12.44020938873291 -9.3482027053833 -2.5
14.760265350341797 -4.927704811096191 -2.5
15.108918190002441 -3.724003791809082 -2.5
-14.531054496765137 -1.9531249563442543e-05 -2.5
-14.483935356140137 -1.1692675352096558 -2.5
-14.342875480651855 -2.3309569358825684 -2.5
-13.368270874023438 -5.695703029632568 -2.5
-12.86661148071289 -6.7529296875 -2.5
-9.190082550048828 -11.255829811096191 -2.5
-5.152763366699219 -13.586776733398438 -2.5
-4.042773246765137 -13.957343101501465 -2.5
-2.903881788253784 -14.224238395690918 -2.497689962387085
-1.7489209175109863 -14.403759002685547 -2.4962985515594482
0.5842822194099426 -14.498583793640137 -2.496438503265381
1.7501074075698853 -14.413397789001465 -2.497969627380371
5.152797698974609 -13.586767196655273 -2.5
6.2293701171875 -13.12808609008789 -2.5
10.876654624938965 -9.635878562927246 -2.5
11.616752624511719 -8.729413986206055 -2.5
12.281513214111328 -7.766347408294678 -2.5
12.866621017456055 -6.752910137176514 -2.5
13.78323745727539 -4.601513385772705 -2.5
14.483932495117188 -1.1692675352096558 -2.5
-13.625663757324219 0.0 -2.5
-13.449223518371582 -2.185722589492798 -2.5
-13.229736328125 -3.2608397006988525 -2.5
-12.064926147460938 -6.332177639007568 -2.5
-11.516274452209473 -7.282460689544678 -2.5
-10.198954582214355 -9.035507202148438 -2.5
-8.617480278015137 -10.554511070251465 -2.5
-7.740239143371582 -11.213720321655273 -2.5
-3.790883779525757 -13.087714195251465 -2.5
-2.7254834175109863 -13.350312232971191 -2.5
-1.6423778533935547 -13.526328086853027 -2.5
-0.5486279129981995 -13.614619255065918 -2.5
0.5486669540405273 -13.614619255065918 -2.5
1.6424022912979126 -13.526317596435547 -2.5
3.790908098220825 -13.0877046585083 -2.5
5.841239929199219 -12.3101167678833 -2.5
7.740283012390137 -11.21371078491211 -2.5
8.617505073547363 -10.554511070251465 -2.5
11.516288757324219 -7.282441139221191 -2.5
12.535351753234863 -5.340800762176514 -2.5
12.924452781677246 -4.314814567565918 -2.5
13.229745864868164 -3.2608299255371094 -2.5
13.449223518371582 -2.185722589492798 -2.5
-12.823442459106445 -9.765624781721272e-06 -2.5
-12.781855583190918 -1.0318554639816284 -2.5
-12.657397270202637 -2.0570311546325684 -2.5
-11.797304153442383 -5.0263671875 -2.5
-10.251601219177246 -7.703603267669678 -2.5
-9.598481178283691 -8.503524780273438 -2.5
-8.883105278015137 -9.248320579528809 -2.5
-7.28454065322876 -10.553505897521973 -2.5
-6.411713600158691 -11.105429649353027 -2.5
-5.497294902801514 -11.58535099029541 -2.5
-3.567700147628784 -12.317167282104492 -2.5
-1.5456883907318115 -12.729950904846191 -2.5
-0.5163329839706421 -12.813036918640137 -2.5
0.5163623094558716 -12.8130464553833 -2.5
3.5677196979522705 -12.317157745361328 -2.5
4.54727029800415 -11.99013614654541 -2.5
5.497323989868164 -11.58535099029541 -2.5
7.284560203552246 -10.553485870361328 -2.5
8.883124351501465 -9.248291015625 -2.5
10.838266372680664 -6.853691101074219 -2.5
11.354598999023438 -5.959355354309082 -2.5
12.45082950592041 -3.068837881088257 -2.5
12.657392501831055 -2.0570409297943115 -2.5
12.781874656677246 -1.0318554639816284 -2.5
-12.10750961303711 -9.765624781721272e-06 -2.5
-12.068251609802246 -0.97425776720047 -2.5
-11.95071792602539 -1.9421874284744263 -2.5
-11.755688667297363 -2.897529125213623 -2.5
-11.138656616210938 -4.745741844177246 -2.5
-10.720659255981445 -5.626650333404541 -2.5
-10.233144760131836 -6.471074104309082 -2.5
-9.679243087768555 -7.273505687713623 -2.5
-9.062597274780273 -8.028779029846191 -2.5
-8.387167930603027 -8.731972694396973 -2.5
-6.877831935882568 -9.964296340942383 -2.5
-6.053744792938232 -10.4854097366333 -2.5
-5.190375804901123 -10.9385347366333 -2.5
-4.293359279632568 -11.320741653442383 -2.5
-3.3685107231140137 -11.629491806030273 -2.5
-2.421801805496216 -11.862821578979492 -2.5
3.368540048599243 -11.62948226928711 -2.5
5.1904296875 -10.938525199890137 -2.5
6.053774356842041 -10.4854097366333 -2.5
8.38717269897461 -8.731972694396973 -2.5
9.062602043151855 -8.028769493103027 -2.5
9.679266929626465 -7.273496150970459 -2.5
11.138667106628418 -4.745751857757568 -2.5
11.950727462768555 -1.942177653312683 -2.5
12.06826114654541 -0.9742480516433716 -2.5
-11.464447975158691 0.0001367187505820766 -2.5
-11.131366729736328 -2.7436327934265137 -2.5
-9.689682006835938 -6.127402305603027 -2.5
-9.165209770202637 -6.887246131896973 -2.5
-7.941738128662109 -8.268241882324219 -2.5
-6.512578010559082 -9.435126304626465 -2.5
-4.914741039276123 -10.357626914978027 -2.5
-2.2931883335113525 -11.232831954956055 -2.5
-0.4616064429283142 -11.45522403717041 -2.5
0.46165037155151367 -11.455214500427246 -2.5
2.293207883834839 -11.23282241821289 -2.5
3.189643383026123 -11.01187515258789 -2.5
4.914775371551514 -10.357617378234863 -2.5
5.732270240783691 -9.92855453491211 -2.5
6.51260232925415 -9.435097694396973 -2.5
7.250688552856445 -8.880468368530273 -2.5
7.941752910614014 -8.268241882324219 -2.5
8.581317901611328 -7.602372646331787 -2.5
9.165228843688965 -6.887226581573486 -2.5
10.151328086853027 -5.327822208404541 -2.5
11.13138198852539 -2.7436327934265137 -2.5
11.316054344177246 -1.8390429019927979 -2.5
-10.012773513793945 -4.266054630279541 -2.5
-9.637041091918945 -5.057919979095459 -2.5
-9.198779106140137 -5.816982269287109 -2.5
-8.700883865356445 -6.538310527801514 -2.5
-8.146557807922363 -7.217246055603027 -2.5
-6.883349418640137 -8.430585861206055 -2.5
-5.441840648651123 -9.425556182861328 -2.5
-4.665741920471191 -9.832890510559082 -2.5
-2.177006721496582 -10.663759231567383 -2.5
-0.43821775913238525 -10.874862670898438 -2.5
1.3118994235992432 -10.80434513092041 -2.5
5.441870212554932 -9.425565719604492 -2.5
6.182661056518555 -8.957109451293945 -2.5
8.146576881408691 -7.217236042022705 -2.5
8.700902938842773 -6.538310527801514 -2.5
10.012787818908691 -4.266054630279541 -2.5
10.567445755004883 -2.6046385765075684 -2.5
-10.356351852416992 0.0 -2.5
-10.322763442993164 -0.8333398103713989 -2.5
-10.222235679626465 -1.6612695455551147 -2.5
-9.170097351074219 -4.812851428985596 -2.5
-8.279306411743164 -6.221513748168945 -2.5
-7.174106121063232 -7.469033241271973 -2.5
-6.549824237823486 -8.022089958190918 -2.5
-5.883070945739746 -8.523124694824219 -2.5
-2.881298780441284 -9.947470664978027 -2.5
-2.071528196334839 -10.147050857543945 -2.5
2.071547746658325 -10.14706039428711 -2.5
2.8813281059265137 -9.947461128234863 -2.5
3.672436475753784 -9.683349609375 -2.5
5.178188323974609 -8.968867301940918 -2.5
6.549838542938232 -8.022079467773438 -2.5
7.174106121063232 -7.469033241271973 -2.5
7.751845359802246 -6.867538928985596 -2.5
8.279315948486328 -6.221494197845459 -2.5
9.170111656188965 -4.812880516052246 -2.5
9.823378562927246 -3.279531240463257 -2.5
10.222241401672363 -1.6612792015075684 -2.5
10.32277774810791 -0.8333398103713989 -2.5
-9.843290328979492 -0.7946386337280273 -2.5
-9.588339805603027 -2.3633203506469727 -2.5
-8.744145393371582 -4.589296817779541 -2.5
-7.894731044769287 -5.932519435882568 -2.5
-7.391762733459473 -6.548544883728027 -2.5
-6.245585918426514 -7.649472713470459 -2.5
-5.609804630279541 -8.127216339111328 -2.5
-1.1903271675109863 -9.803300857543945 -2.5
-0.3976171910762787 -9.867294311523438 -2.5
0.397651344537735 -9.867294311523438 -2.5
3.501840829849243 -9.233573913574219 -2.5
4.233481407165527 -8.921845436096191 -2.5
5.609824180603027 -8.127206802368164 -2.5
6.24560022354126 -7.64944314956665 -2.5
6.840868949890137 -7.12209939956665 -2.5
7.391772270202637 -6.548544883728027 -2.5
7.894741058349609 -5.932509422302246 -2.5
8.346518516540527 -5.278007507324219 -2.5
8.744150161743164 -4.589286804199219 -2.5
9.747426986694336 -1.5841113328933716 -2.5
-9.312417030334473 -1.5134179592132568 -2.5
-9.160439491271973 -2.257861375808716 -2.5
-8.949052810668945 -2.9876463413238525 -2.5
-8.679638862609863 -3.6980466842651367 -2.5
-8.353920936584473 -4.384491920471191 -2.5
-6.535581111907959 -6.804277420043945 -2.5
-5.966869831085205 -7.308095455169678 -2.5
-4.717304706573486 -8.170605659484863 -2.5
-4.044531345367432 -8.523700714111328 -2.5
-1.1371972560882568 -9.36581039428711 -2.5
-0.3798779249191284 -9.426942825317383 -2.5
0.3799121081829071 -9.426942825317383 -2.5
3.345571279525757 -8.821503639221191 -2.5
4.044560432434082 -8.523691177368164 -2.5
5.359487056732178 -7.76452112197876 -2.5
5.966879844665527 -7.308085918426514 -2.5
6.535581111907959 -6.804257869720459 -2.5
7.061909198760986 -6.256298542022705 -2.5
8.679643630981445 -3.6980466842651367 -2.5
9.3124361038208 -1.5134179592132568 -2.5
-9.029281616210938 -9.765624781721272e-06 -2.5
-9.0 -0.7265527248382568 -2.5
-8.912353515625 -1.4484081268310547 -2.5
-8.766899108886719 -2.1608495712280273 -2.5
-7.995028972625732 -4.196132659912109 -2.5
-7.631459712982178 -4.825849533081055 -2.5
-6.758501052856445 -5.987529277801514 -2.5
-6.254804611206055 -6.511943340301514 -2.5
-5.710522174835205 -6.994121074676514 -2.5
-5.129199028015137 -7.430956840515137 -2.5
-0.744091808795929 -3.644785165786743 -1.0299711227416992
-0.4570019543170929 -3.763788938522339 -1.0497580766677856
-0.3635546863079071 -9.021952629089355 -2.5
0.3635790944099426 -9.021952629089355 -2.5
1.0883642435073853 -8.963446617126465 -2.5
1.8060888051986694 -8.846806526184082 -2.5
3.201835870742798 -8.44252872467041 -2.5
6.254814147949219 -6.511943340301514 -2.5
6.758520126342773 -5.987519264221191 -2.5
7.218398094177246 -5.424267292022705 -2.5
8.306753158569336 -3.5391697883605957 -2.5
8.766908645629883 -2.160839796066284 -2.5
9.000004768371582 -0.7265625 -2.5
-8.627089500427246 -0.6964452862739563 -2.5
-8.543070793151855 -1.3883984088897705 -2.5
-8.209721565246582 -2.7408103942871094 -2.5
-7.663754940032959 -4.022255897521973 -2.5
-5.995625019073486 -6.242118835449219 -2.5
-4.916679382324219 -7.123056411743164 -2.5
-0.99549800157547 -3.436904191970825 -1.0335372686386108
-0.15550780296325684 -3.859121084213257 -1.115591287612915
1.7312597036361694 -8.480243682861328 -2.5
2.408027172088623 -8.313437461853027 -2.5
3.069169759750366 -8.092704772949219 -2.5
3.7104148864746094 -7.819482326507568 -2.5
5.995639324188232 -6.242128849029541 -2.5
8.627089500427246 -0.6964452862739563 -2.5
-8.30868148803711 0.0 -2.5
-8.201079368591309 -1.332802653312683 -2.5
-7.881078720092773 -2.631093740463257 -2.5
-7.643808364868164 -3.256728410720825 -2.5
-7.022402286529541 -4.440712928771973 -2.5
-1.5685253143310547 -3.305605411529541 -1.1009173393249512
-0.9550830125808716 -3.2973437309265137 -1.0329176187515259
-0.4195312261581421 -3.455204963684082 -1.0472702980041504
-0.14872069656848907 -3.6905272006988525 -1.1113442182540894
1.0015136003494263 -8.248095512390137 -2.5
4.154350280761719 -7.195517539978027 -2.5
7.022417068481445 -4.44070291519165 -2.5
7.356982231140137 -3.8612401485443115 -2.5
7.881093502044678 -2.631093740463257 -2.5
8.067251205444336 -1.9883984327316284 -2.5
8.201079368591309 -1.3328124284744263 -2.5
8.28173828125 -0.6685644388198853 -2.5
-7.986821174621582 0.0 -2.5
-7.960907936096191 -0.6426659822463989 -2.5
-7.883388519287109 -1.2811815738677979 -2.5
-7.754731178283691 -1.911376953125 -2.5
-7.575780868530273 -2.529169797897339 -2.5
-7.347700119018555 -3.1305761337280273 -2.5
-5.978212833404541 -5.296240329742432 -2.5
-1.5049999952316284 -3.1717283725738525 -1.0989004373550415
-0.9228417873382568 -3.1860644817352295 -1.0382792949676514
-0.40385740995407104 -3.326113224029541 -1.048770546913147
-0.14292968809604645 -3.546865224838257 -1.1111243963241577
0.1616796851158142 -4.012021541595459 -1.2568448781967163
0.9627148509025574 -7.92858362197876 -2.5
3.993412971496582 -6.916787147521973 -2.5
5.532660961151123 -5.760107517242432 -2.5
5.978217601776123 -5.296240329742432 -2.5
6.38500452041626 -4.798007488250732 -2.5
6.750390529632568 -4.268681526184082 -2.5
7.575790882110596 -2.529179573059082 -2.5
7.883388519287109 -1.2811717987060547 -2.5
-7.662045955657959 -0.6185546517372131 -2.5
-7.463598251342773 -1.8396093845367432 -2.5
-7.071845531463623 -3.0130369663238525 -2.5
-6.4969482421875 -4.10842752456665 -2.5
-6.145283222198486 -4.617900371551514 -2.5
-5.753764629364014 -5.097412109375 -2.5
-5.324946403503418 -5.543857097625732 -2.5
-4.366689205169678 -6.326259613037109 -2.5
-1.98513662815094 -3.438359260559082 -1.2912371158599854
-1.4643505811691284 -3.086064338684082 -1.1109269857406616
-1.166650414466858 -3.076220750808716 -1.0699965953826904
-0.8962743878364563 -3.094306468963623 -1.0477147102355957
-0.6422168016433716 -3.14581036567688 -1.0442005395889282
-0.39018064737319946 -3.2134764194488525 -1.0527790784835815
-0.13774414360523224 -3.418144464492798 -1.112571120262146
0.15263672173023224 -3.7875683307647705 -1.2328147888183594
1.53759765625 -7.53161096572876 -2.5
2.138666868209839 -7.383466720581055 -2.5
2.7258496284484863 -7.187431335449219 -2.5
3.295361280441284 -6.944785118103027 -2.5
3.8434910774230957 -6.65709924697876 -2.5
4.366708755493164 -6.326250076293945 -2.5
4.861596584320068 -5.954355239868164 -2.5
5.324955940246582 -5.543857097625732 -2.5
5.753774166107178 -5.097402095794678 -2.5
7.071860313415527 -3.0130271911621094 -2.5
7.291371822357178 -2.434208869934082 -2.5
7.587426662445068 -1.2330858707427979 -2.5
-7.382861137390137 -0.5960058569908142 -2.5
-7.310946941375732 -1.1881444454193115 -2.5
-7.025688171386719 -2.345527410507202 -2.5
-5.921367168426514 -4.449638366699219 -2.5
-4.6844482421875 -5.737402439117432 -2.5
-1.747646450996399 -3.0270214080810547 -1.1797468662261963
-1.1427197456359863 -3.0131444931030273 -1.0876902341842651
-0.8775537014007568 -3.029667854309082 -1.0646190643310547
-0.6265918016433716 -3.0692577362060547 -1.0573182106018066
-0.3781689405441284 -3.114579916000366 -1.0589648485183716
0.1463281214237213 -3.631103515625 -1.2265801429748535
1.4815820455551147 -7.25719690322876 -2.5
2.060737371444702 -7.114423751831055 -2.5
2.626528263092041 -6.925546646118164 -2.5
3.703447103500366 -6.414540767669678 -2.5
4.6844482421875 -5.737402439117432 -2.5
5.544126033782959 -4.911669731140137 -2.5
6.260229587554932 -3.9587109088897705 -2.5
6.558461666107178 -3.442148447036743 -2.5
7.025688171386719 -2.345517635345459 -2.5
7.191650390625 -1.7725781202316284 -2.5
7.382856369018555 -0.5960058569908142 -2.5
-7.052074909210205 -1.1460741758346558 -2.5
-6.936977386474609 -1.7098242044448853 -2.5
-6.5728759765625 -2.8004393577575684 -2.5
-6.038530349731445 -3.818544864654541 -2.5
-5.711684226989746 -4.292060375213623 -2.5
-5.347792625427246 -4.737743854522705 -2.5
-4.949228286743164 -5.152705192565918 -2.5
-4.058578968048096 -5.879892349243164 -2.5
-1.4197949171066284 -2.9921679496765137 -1.1588938236236572
-1.1299902200698853 -2.979541063308716 -1.1150473356246948
0.4798681437969208 -3.9520506858825684 -1.393038272857666
1.4291112422943115 -7.000205039978027 -2.5
3.5722949504852295 -6.187392234802246 -2.5
4.518569469451904 -5.534228324890137 -2.5
5.711694240570068 -4.292060375213623 -2.5
6.572885513305664 -2.8004393577575684 -2.5
6.776904106140137 -2.262460947036743 -2.5
6.936982154846191 -1.709804654121399 -2.5
7.052070140838623 -1.1460741758346558 -2.5
-6.898412704467773 0.0 -2.5
-6.876039981842041 -0.5550976395606995 -2.5
-6.80908203125 -1.1065820455551147 -2.5
-6.697954177856445 -1.65090811252594 -2.5
-6.108237266540527 -3.2058591842651367 -2.5
-4.362871170043945 -5.343554496765137 -2.5
-3.9187400341033936 -5.677285194396973 -2.5
-1.6990869045257568 -2.9429101943969727 -1.2315055131912231
-1.398281216621399 -2.946826219558716 -1.1820647716522217
-0.861743152141571 -2.9751172065734863 -1.1225069761276245
-0.1248486265540123 -3.0982322692871094 -1.1237194538116455
0.13560058176517487 -3.3648436069488525 -1.2204147577285767
0.4592822194099426 -3.782460927963257 -1.380840539932251
1.9192724227905273 -6.626044750213623 -2.5
2.446220636367798 -6.450117111206055 -2.5
3.44921875 -5.974199295043945 -2.5
4.362865924835205 -5.343544960021973 -2.5
4.778710842132568 -4.975156307220459 -2.5
5.514892578125 -4.144160270690918 -2.5
6.346396446228027 -2.7039549350738525 -2.5
6.543403148651123 -2.184501886367798 -2.5
6.697954177856445 -1.6508984565734863 -2.5
6.876044750213623 -0.5550878643989563 -2.5
-6.666845321655273 0.0 -2.5
-6.580502986907959 -1.069433569908142 -2.5
-6.473119735717773 -1.59548819065094 -2.5
-5.903188228607178 -3.0982518196105957 -2.5
-5.634746074676514 -3.5632128715515137 -2.5
-5.329760551452637 -4.005068302154541 -2.5
-4.990200042724609 -4.420937538146973 -2.5
-4.618281364440918 -4.808154106140137 -2.5
-4.216411113739014 -5.164179801940918 -2.5
-2.0772361755371094 -3.009394407272339 -1.3712222576141357
-1.1167187690734863 -2.9445507526397705 -1.1809130907058716
-0.8566552400588989 -2.9575390815734863 -1.1546332836151123
-0.6033300757408142 -2.9553027153015137 -1.131066083908081
-0.3586523234844208 -2.9537205696105957 -1.1157525777816772
-0.12231933325529099 -3.035331964492798 -1.139141321182251
0.44025877118110657 -3.625810384750366 -1.369629144668579
0.796191394329071 -3.8999998569488525 -1.4926257133483887
1.8548437356948853 -6.403623104095459 -2.5
2.858036994934082 -6.023154258728027 -2.5
3.333427667617798 -5.773652076721191 -2.5
3.7872166633605957 -5.486689567565918 -2.5
4.618290901184082 -4.808144569396973 -2.5
4.990210056304932 -4.42092752456665 -2.5
5.63476037979126 -3.5631933212280273 -2.5
5.903203010559082 -3.0982420444488525 -2.5
6.133364200592041 -2.613173723220825 -2.5
6.323750019073486 -2.1111717224121094 -2.5
6.473119735717773 -1.5954785346984863 -2.5
6.580512523651123 -1.0694433450698853 -2.5
6.645229339599609 -0.5364648103713989 -2.5
-6.448574066162109 -9.765624781721272e-06 -2.5
-5.709917068481445 -2.9968066215515137 -2.5
-4.826826095581055 -4.276201248168945 -2.5
-4.078369140625 -4.995097637176514 -2.5
-0.599804699420929 -2.938056468963623 -1.1625250577926636
-0.11966308206319809 -2.9694433212280273 -1.1521366834640503
1.1266307830810547 -3.8895604610443115 -1.5699001550674438
3.224296808242798 -5.584609031677246 -2.5
4.078378677368164 -4.995097637176514 -2.5
4.826830863952637 -4.276191234588623 -2.5
5.450268268585205 -3.446542978286743 -2.5
6.11669921875 -2.042050838470459 -2.5
6.365053653717041 -1.034423828125 -2.5
6.427651405334473 -0.5188866853713989 -2.5
-5.527382850646973 -2.901005744934082 -2.5
-5.276020526885986 -3.336367130279541 -2.5
-4.990454196929932 -3.75005841255188 -2.5
-4.672519207000732 -4.139502048492432 -2.5
-3.948002815246582 -4.835419654846191 -2.5
-1.9795116186141968 -2.8678319454193115 -1.395560622215271
-1.662416934967041 -2.87939453125 -1.3315495252609253
-1.1035351753234863 -2.909794807434082 -1.246315836906433
-0.8465282917022705 -2.922558546066284 -1.2185529470443726
-0.5962939262390137 -2.920849561691284 -1.1938855648040771
-0.3559521436691284 -2.9316015243530273 -1.182686448097229
-0.11816894263029099 -2.9323437213897705 -1.1753121614456177
0.12345214933156967 -3.063310384750366 -1.2278093099594116
1.073818325996399 -3.7072362899780273 -1.5457202196121216
3.1212158203125 -5.406103610992432 -2.5
4.990463733673096 -3.7500877380371094 -2.5
5.276034832000732 -3.336357355117798 -2.5
5.527392387390137 -2.900995969772339 -2.5
6.061039924621582 -1.4939062595367432 -2.5
6.161586761474609 -1.0013476610183716 -2.5
6.222182273864746 -0.5023046731948853 -2.5
-6.047372817993164 -9.765624781721272e-06 -2.5
-5.969057559967041 -0.9700781106948853 -2.5
-5.736162185668945 -1.9150097370147705 -2.5
-5.563457012176514 -2.370371103286743 -2.5
-5.354682445526123 -2.81036114692688 -2.5
-3.8246335983276367 -4.684335708618164 -2.5
-1.6518017053604126 -2.861015558242798 -1.3657199144363403
-1.364355444908142 -2.875322103500366 -1.315692663192749
-0.8414843678474426 -2.905146360397339 -1.2503628730773926
0.7024462819099426 -3.4408202171325684 -1.4517803192138672
1.0279687643051147 -3.548964738845825 -1.5274535417556763
1.4218896627426147 -3.749208927154541 -1.6576476097106934
2.592465877532959 -5.463505744934082 -2.5
3.435302734375 -4.976904392242432 -2.5
3.82464337348938 -4.684326171875 -2.5
4.526533126831055 -4.010146617889404 -2.5
4.834536075592041 -3.6329197883605957 -2.5
5.354692459106445 -2.81036114692688 -2.5
5.871654987335205 -1.4472362995147705 -2.5
5.969067096710205 -0.9700781106948853 -2.5
6.027773380279541 -0.4866113066673279 -2.5
-5.862524509429932 -9.765624781721272e-06 -2.5
-5.843520164489746 -0.471748024225235 -2.5
-5.393393516540527 -2.297919988632202 -2.5
-5.190996170043945 -2.7244529724121094 -2.5
-4.954936504364014 -3.133310556411743 -2.5
-4.686743259429932 -3.5218749046325684 -2.5
-1.64065420627594 -2.8417088985443115 -1.3992763757705688
-0.8364550471305847 -2.8877928256988525 -1.2820833921432495
-0.35326170921325684 -2.909414052963257 -1.2497979402542114
-0.11726561933755875 -2.9101758003234863 -1.2420156002044678
0.38010740280151367 -3.1304686069488525 -1.3447517156600952
0.9908642172813416 -3.4208593368530273 -1.5187469720840454
2.5132226943969727 -5.296504020690918 -2.5
2.931269407272339 -5.077089786529541 -2.5
4.061108112335205 -4.228066444396973 -2.5
4.388164043426514 -3.887568235397339 -2.5
4.686757564544678 -3.521855354309082 -2.5
5.393403053283691 -2.297910213470459 -2.5
5.692172527313232 -1.4029881954193115 -2.5
5.843510627746582 -0.4717382788658142 -2.5
-5.6685791015625 -0.4576171636581421 -2.5
-5.394350528717041 -1.8008984327316284 -2.5
-4.806625843048096 -3.0395312309265137 -2.5
-4.546445369720459 -3.416445255279541 -2.5
-4.256792068481445 -3.771191358566284 -2.5
-1.9215087890625 -2.7837986946105957 -1.4869604110717773
-1.3475537300109863 -2.839921712875366 -1.3818374872207642
-1.0837109088897705 -2.8575291633605957 -1.3434616327285767
-0.5870019197463989 -2.8753416538238525 -1.2900640964508057
-0.11676757782697678 -2.897646427154541 -1.2748286724090576
0.11634765565395355 -2.886855363845825 -1.2700821161270142
0.36727049946784973 -3.024726390838623 -1.3394254446029663
0.6606103181838989 -3.2358789443969727 -1.4518247842788696
1.2816698551177979 -3.3794822692871094 -1.588861346244812
2.43798828125 -5.137939453125 -2.5
2.843515634536743 -4.925107479095459 -2.5
3.596733331680298 -4.405204772949219 -2.5
3.9395458698272705 -4.101493835449219 -2.5
4.256801605224609 -3.771191358566284 -2.5
4.806625843048096 -3.0395214557647705 -2.5
5.231947898864746 -2.229120969772339 -2.5
5.394355297088623 -1.8008984327316284 -2.5
5.521777153015137 -1.360986351966858 -2.5
5.613379001617432 -0.9122655987739563 -2.5
5.668593406677246 -0.4576074182987213 -2.5
-5.520165920257568 -9.765624781721272e-06 -2.5
-5.502260684967041 -0.4441894292831421 -2.5
-5.448676586151123 -0.885498046875 -2.5
-5.359745979309082 -1.3210644721984863 -2.5
-5.078437328338623 -2.1637206077575684 -2.5
-4.88784646987915 -2.5653417110443115 -2.5
-4.665590763092041 -2.9503514766693115 -2.5
-4.413042068481445 -3.3162012100219727 -2.5
-3.491201162338257 -4.275947093963623 -2.5
-1.9066015481948853 -2.762197256088257 -1.520025610923767
-1.614477515220642 -2.7963573932647705 -1.4623489379882812
-1.3390233516693115 -2.8219432830810547 -1.4145954847335815
-1.0770410299301147 -2.8399412631988525 -1.375555396080017
-0.5846239924430847 -2.8636913299560547 -1.3236751556396484
-0.3505175709724426 -2.88677716255188 -1.3169751167297363
-0.11626464873552322 -2.8850975036621094 -1.3076766729354858
0.35520994663238525 -2.925419807434082 -1.3346062898635864
0.9312450885772705 -3.215029239654541 -1.5158846378326416
1.239077091217041 -3.2671873569488525 -1.5824953317642212
2.760087728500366 -4.780605316162109 -2.5
3.135815382003784 -4.543007850646973 -2.5
3.8239598274230957 -3.981142520904541 -2.5
4.665595531463623 -2.9503417015075684 -2.5
5.236069202423096 -1.7480664253234863 -2.5
-5.085361003875732 -1.6977441310882568 -2.5
-4.9322509765625 -2.101435422897339 -2.5
-4.012959003448486 -3.555185556411743 -2.5
-3.7138867378234863 -3.866572141647339 -2.5
-1.8917821645736694 -2.74072265625 -1.552907943725586
-1.600746989250183 -2.772587776184082 -1.492883563041687
-1.0703905820846558 -2.822402238845825 -1.40757417678833
-0.3490917980670929 -2.87505841255188 -1.3505066633224487
0.6208642721176147 -3.0411620140075684 -1.4473681449890137
1.2013280391693115 -3.1676268577575684 -1.5797486305236816
1.5796239376068115 -3.3289647102355957 -1.718214511871338
2.6806445121765137 -4.642997741699219 -2.5
3.3907127380371094 -4.15286111831665 -2.5
3.7138867378234863 -3.8665623664855957 -2.5
4.531293869018555 -2.865419864654541 -2.5
4.747172832489014 -2.491513729095459 -2.5
4.932255744934082 -2.101435422897339 -2.5
5.085371017456055 -1.6977441310882568 -2.5
5.205483436584473 -1.2830370664596558 -2.5
5.291845798492432 -0.8600097298622131 -2.5
5.343891620635986 -0.4314062297344208 -2.5
