ply
format ascii 1.0
element vertex 865
property float x
property float y
property float z
end_header
-8.014238357543945 -27.668407440185547 7.718461513519287
2.0172460079193115 -16.613632202148438 4.484312534332275
16.28335952758789 -14.425800323486328 5.8290557861328125
17.417051315307617 -9.141180992126465 5.270597457885742
-10.165937423706055 -26.805341720581055 7.3421478271484375
-8.014238357543945 -27.668407440185547 7.377335071563721
-5.809121131896973 -28.454999923706055 7.437828063964844
2.017690420150757 -16.61739158630371 4.287096977233887
16.2866153717041 -14.428690910339355 5.572549343109131
2.0181541442871094 -16.62114143371582 4.090904235839844
-17.942495346069336 -11.346171379089355 4.938267707824707
-10.16592788696289 -26.80533218383789 6.668806076049805
-8.042665481567383 -27.76656150817871 6.724538803100586
2.018608331680298 -16.624862670898438 3.8956828117370605
-14.612226486206055 -25.309110641479492 6.457670211791992
-10.16591739654541 -26.80533218383789 6.334780216217041
2.019057512283325 -16.628564834594727 3.701381206512451
16.296308517456055 -14.437284469604492 4.81083869934082
-10.16592788696289 -26.80533218383789 6.002383708953857
-8.042665481567383 -27.76656150817871 6.052547454833984
-5.829716682434082 -28.555936813354492 6.102169036865234
2.0195066928863525 -16.632274627685547 3.5079381465911865
-12.603055953979492 -26.560380935668945 5.816042423248291
-8.042665481567383 -27.76656150817871 5.7189178466796875
2.019956111907959 -16.63594627380371 3.3153111934661865
16.30269432067871 -14.442919731140137 4.308827877044678
-12.642499923706055 -26.643495559692383 5.495380878448486
-10.16592788696289 -26.80533218383789 5.342109680175781
-3.5416502952575684 -29.168241500854492 5.475185394287109
2.020390510559082 -16.639598846435547 3.1234397888183594
16.305864334106445 -14.445741653442383 4.059354305267334
-12.603055953979492 -26.560380935668945 5.141826152801514
-5.829716682434082 -28.555936813354492 5.097419738769531
-3.5416502952575684 -29.168241500854492 5.138964653015137
2.0208396911621094 -16.643260955810547 2.932276487350464
16.30904197692871 -14.4485445022583 3.810811758041382
-10.16592788696289 -26.80533218383789 4.687272071838379
-5.824902057647705 -28.532352447509766 4.761263370513916
2.0212841033935547 -16.646894454956055 2.741767406463623
16.31218147277832 -14.45132827758789 3.563135862350464
-17.931318283081055 -11.339081764221191 3.227818012237549
-8.014238357543945 -27.668397903442383 4.382575988769531
-3.5416502952575684 -29.168251037597656 4.470331192016602
16.31532096862793 -14.454120635986328 3.316262722015381
-17.92679214477539 -11.336220741271973 2.9869165420532227
-12.729248046875 -26.82632827758789 4.181496620178223
-5.80911111831665 -28.454999923706055 4.089778900146484
2.022158145904541 -16.65414047241211 2.3625235557556152
16.318450927734375 -14.456884384155273 3.070124387741089
-17.939603805541992 -11.34432601928711 2.749539852142334
-12.729208946228027 -26.82621955871582 3.8464202880859375
-8.014227867126465 -27.668397903442383 3.7314703464508057
-3.5416502952575684 -29.168251037597656 3.806180953979492
16.321571350097656 -14.459648132324219 2.8246562480926514
-17.97352409362793 -11.3657808303833 2.51546573638916
-12.680712699890137 -26.72401237487793 3.498941659927368
-10.16592788696289 -26.80533218383789 3.391103982925415
-8.014238357543945 -27.668397903442383 3.407355785369873
-5.80911111831665 -28.454999923706055 3.435296058654785
2.023027181625366 -16.66133689880371 1.9853097200393677
16.324687957763672 -14.462421417236328 2.579800605773926
-17.93392562866211 -11.340742111206055 2.2717974185943604
-12.680703163146973 -26.724021911621094 3.1669836044311523
-5.719336032867432 -28.015214920043945 3.061321973800659
2.0234715938568115 -16.664920806884766 1.797343134880066
16.327796936035156 -14.46517562866211 2.3354907035827637
-12.729101181030273 -26.82601547241211 2.8466386795043945
-5.719336032867432 -28.015214920043945 2.741203546524048
-3.49786114692688 -28.8076171875 2.782057523727417
2.0239012241363525 -16.66850471496582 1.6097426414489746
16.33089828491211 -14.46792984008789 2.091667652130127
-8.133642196655273 -28.080644607543945 2.4761266708374023
9.42250919342041 -24.845136642456055 2.2505743503570557
16.333993911743164 -14.470664024353027 1.848271131515503
-12.72909164428711 -26.825984954833984 2.183809518814087
-8.133651733398438 -28.080644607543945 2.150130033493042
-3.512216806411743 -28.925790786743164 2.1430208683013916
2.024770498275757 -16.675634384155273 1.2354503870010376
16.33708381652832 -14.473407745361328 1.6052398681640625
-8.133642196655273 -28.080644607543945 1.824664831161499
-5.74279260635376 -28.130136489868164 1.7919265031814575
-3.512216806411743 -28.925790786743164 1.8186309337615967
16.34017562866211 -14.4761323928833 1.362512469291687
-13.359647750854492 -23.139570236206055 1.370605707168579
-12.680703163146973 -26.724021911621094 1.5173498392105103
-8.133642196655273 -28.080644607543945 1.4996490478515625
-5.74279260635376 -28.130136489868164 1.4727425575256348
-3.512216806411743 -28.925790786743164 1.4946905374526978
-0.9629003405570984 -23.894393920898438 1.2266955375671387
2.025629758834839 -16.68277359008789 0.8620568513870239
-14.70546817779541 -25.47061538696289 1.1820772886276245
-12.542333602905273 -26.432382583618164 1.175897479057312
-8.133642196655273 -28.080644607543945 1.1750024557113647
-1.198915958404541 -29.75093650817871 1.1967144012451172
16.346338272094727 -14.48160171508789 0.8777282238006592
-16.575565338134766 -24.01382827758789 0.8490191698074341
-12.216532707214355 -25.745771408081055 0.8291803002357483
-5.74279260635376 -28.130136489868164 0.8353829979896545
-1.1989061832427979 -29.75093650817871 0.8663644194602966
-16.45669937133789 -23.84164047241211 0.5217227339744568
-14.229804039001465 -24.646738052368164 0.5125353932380676
-11.984082221984863 -25.255897521972656 0.503446638584137
-8.133642196655273 -28.080644607543945 0.5264980792999268
-5.74279260635376 -28.130136489868164 0.5170507431030273
-3.512216806411743 -28.925790786743164 0.524792492389679
-1.1989061832427979 -29.75093650817871 0.5362268090248108
2.026933431625366 -16.693437576293945 0.30284544825553894
-11.984082221984863 -25.255897521972656 0.19361388683319092
-9.837909698486328 -25.940458297729492 0.19214843213558197
-8.133642196655273 -28.080644607543945 0.20247863233089447
-5.74279260635376 -28.130136489868164 0.19884581863880157
-3.51220703125 -28.92578125 0.2018090784549713
16.355581283569336 -14.489774703979492 0.15133728086948395
-12.789003372192383 -26.952245712280273 -0.12397399544715881
-9.787968635559082 -25.808738708496094 -0.11470519751310349
2.0277929306030273 -16.700565338134766 -0.06991104036569595
16.358671188354492 -14.492499351501465 -0.09082198888063431
-5.74279260635376 -28.130136489868164 -0.43749237060546875
2.0282275676727295 -16.704130172729492 -0.2564089894294739
16.36174201965332 -14.495234489440918 -0.33309218287467957
-12.789003372192383 -26.952245712280273 -0.7853231430053711
-9.75146484375 -25.71249008178711 -0.7239088416099548
-8.133651733398438 -28.080644607543945 -0.769591212272644
-5.74279260635376 -28.130136489868164 -0.7557823061943054
-3.51220703125 -28.92578125 -0.7670457363128662
-1.1989061832427979 -29.75093650817871 -0.7838113307952881
2.0286619663238525 -16.707685470581055 -0.44304975867271423
16.364824295043945 -14.497978210449219 -0.5755351185798645
-12.789003372192383 -26.952245712280273 -1.1162539720535278
-9.813241958618164 -25.87540054321289 -1.0354777574539185
-5.74279260635376 -28.130136489868164 -1.074264407157898
-3.512216806411743 -28.925790786743164 -1.0902743339538574
2.0290966033935547 -16.711240768432617 -0.6298834085464478
16.367904663085938 -14.50072193145752 -0.81821608543396
-25.06597137451172 -2.0235350131988525 -1.2201415300369263
-12.789003372192383 -26.952245712280273 -1.4474581480026245
-9.76449203491211 -25.746816635131836 -1.3360416889190674
-3.512216806411743 -28.925790786743164 -1.4137673377990723
-1.1989061832427979 -29.75093650817871 -1.4446685314178467
2.029531240463257 -16.71480369567871 -0.8169493079185486
-26.68660545349121 9.765624781721272e-06 -1.591411828994751
-12.789003372192383 -26.952245712280273 -1.7790145874023438
-5.74279260635376 -28.130136489868164 -1.7120940685272217
2.029965877532959 -16.718387603759766 -1.0042972564697266
-26.426761627197266 9.765624781721272e-06 -1.8700098991394043
-23.573583602905273 -1.9030370712280273 -1.673540711402893
-15.768129348754883 -6.718193054199219 -1.2128363847732544
-14.897890090942383 -18.246620178222656 -1.6668715476989746
-14.934326171875 -25.86699104309082 -2.1135637760162354
-9.662832260131836 -25.478769302368164 -1.9282320737838745
-5.74279260635376 -28.130136489868164 -2.031602382659912
-3.51220703125 -28.92578125 -2.0618791580200195
16.377201080322266 -14.50893497467041 -1.5482525825500488
-23.539276123046875 -1.9002832174301147 -1.9343312978744507
-15.604130744934082 -6.648320198059082 -1.3892780542373657
-24.224267959594727 -15.318525314331055 -2.347599983215332
-21.570018768310547 -19.109384536743164 -2.3603711128234863
-14.99642562866211 -18.3673038482666 -1.9421942234039307
-16.494140625 -23.895849227905273 -2.37825870513916
-14.54281234741211 -25.188867568969727 -2.3823511600494385
-9.301445007324219 -19.60245132446289 -1.7771894931793213
-8.12158203125 -28.038984298706055 -2.3910255432128906
-4.136113166809082 -20.260047912597656 -1.6936925649642944
-1.1767578125 -29.20108413696289 -2.393751382827759
1.177187442779541 -29.21173667907715 -2.3946244716644287
5.849662780761719 -28.65352439880371 -2.3953680992126465
10.348207473754883 -27.285741806030273 -2.390258312225342
16.474966049194336 -23.868085861206055 -2.375494956970215
18.289892196655273 -22.401044845581055 -2.368726968765259
17.495718002319336 -18.215038299560547 -2.068711280822754
24.224267959594727 -15.318514823913574 -2.347599983215332
25.37836456298828 -13.319608688354492 -2.347599983215332
-26.86015510559082 0.0 -2.5
-26.773061752319336 -2.1613378524780273 -2.5
-26.5123291015625 -4.308671951293945 -2.5
-26.079652786254883 -6.428075790405273 -2.5
-17.48782730102539 -5.838300704956055 -1.7159841060638428
-14.67189884185791 -7.700409889221191 -1.5422358512878418
-21.31802749633789 -13.480712890625 -2.347599983215332
-17.373149871826172 -13.05508804321289 -2.022658586502075
-15.274091720581055 -18.707382202148438 -2.2478325366973877
-5.095517635345459 -24.959550857543945 -2.3710172176361084
-1.0265917778015137 -25.474882125854492 -2.3729896545410156
1.0267285108566284 -25.477821350097656 -2.3732635974884033
2.0312695503234863 -16.72916030883789 -1.5684999227523804
5.098134517669678 -24.972665786743164 -2.3722550868988037
9.025029182434082 -23.797088623046875 -2.368839740753174
17.472431182861328 -18.190732955932617 -2.347599983215332
22.333637237548828 -11.721601486206055 -2.347599983215332
25.43411636352539 -8.491162300109863 -2.4957096576690674
26.079647064208984 -6.428085803985596 -2.5
-23.977602005004883 9.765624781721272e-06 -2.5
-23.89984893798828 -1.9294042587280273 -2.5
-23.667104721069336 -3.8462889194488525 -2.5
-23.280818939208984 -5.738242149353027 -2.5
-15.379984855651855 -6.552822113037109 -1.7430616617202759
-14.651098251342773 -7.689492225646973 -1.7251921892166138
-19.03020477294922 -12.033974647521973 -2.347599983215332
-15.9835786819458 -14.160234451293945 -2.2264387607574463
-15.597318649291992 -16.238544464111328 -2.347599983215332
-14.240087509155273 -17.440937042236328 -2.347599983215332
-12.790497779846191 -18.530223846435547 -2.347599983215332
-11.25795841217041 -19.499345779418945 -2.347599983215332
-9.659833908081055 -20.357675552368164 -2.3494081497192383
-7.99929666519165 -21.092391967773438 -2.352022409439087
-2.724252939224243 -22.43636703491211 -2.356489419937134
6.280698299407959 -21.68350601196289 -2.3537402153015137
7.997211933135986 -21.086933135986328 -2.351412057876587
12.79049301147461 -18.530242919921875 -2.347599983215332
15.7358980178833 -13.94081974029541 -2.191941738128662
18.000160217285156 -13.52626895904541 -2.347599983215332
22.743602752685547 -7.592948913574219 -2.5
23.280824661254883 -5.738222599029541 -2.5
-21.64888572692871 -9.765624781721272e-06 -2.5
-21.368555068969727 -3.4727439880371094 -2.5
-17.442646026611328 -5.823212623596191 -2.123549699783325
-14.51695728302002 -7.619091510772705 -1.8932702541351318
-16.25200653076172 -12.212607383728027 -2.347599983215332
-11.548295974731445 -16.7305850982666 -2.347599983215332
-10.164604187011719 -17.605594635009766 -2.347599983215332
-4.066347599029541 -19.918359756469727 -2.347599983215332
-2.4504051208496094 -20.180965423583984 -2.347599983215332
1.942348599433899 -15.996747970581055 -1.8608651161193848
7.208823204040527 -19.00812530517578 -2.347599983215332
8.714970588684082 -18.36641502380371 -2.347599983215332
10.164599418640137 -17.605594635009766 -2.347599983215332
11.548291206359863 -16.7305850982666 -2.347599983215332
12.85708999633789 -15.747109413146973 -2.347599983215332
14.08251953125 -14.66146469116211 -2.347599983215332
15.216615676879883 -13.480741500854492 -2.347599983215332
18.27071762084961 -11.5537109375 -2.4963510036468506
21.019697189331055 -5.180683612823486 -2.5
21.368549346923828 -3.472734212875366 -2.5
21.578691482543945 -1.7420116662979126 -2.5
-19.664012908935547 -1.58743155002594 -2.5
-19.472515106201172 -3.1645898818969727 -2.5
-19.154726028442383 -4.721240043640137 -2.5
-14.524760246276855 -7.623183250427246 -2.078735589981079
-12.832968711853027 -13.360536575317383 -2.347599983215332
-9.2626953125 -16.043437957763672 -2.347599983215332
-3.7055418491363525 -18.1509952545166 -2.347599983215332
-2.232983350753784 -18.39031219482422 -2.347599983215332
1.9423437118530273 -15.996747970581055 -2.0420567989349365
3.2433886528015137 -15.88719654083252 -2.054811716079712
5.154091835021973 -17.793954849243164 -2.347599983215332
6.569189071655273 -17.321542739868164 -2.347599983215332
9.262690544128418 -16.043447494506836 -2.347599983215332
10.523608207702637 -15.24609375 -2.347599983215332
11.716279029846191 -14.349853515625 -2.347599983215332
18.14933967590332 -7.732705116271973 -2.5
18.712709426879883 -6.247236251831055 -2.5
19.154726028442383 -4.72122049331665 -2.5
19.472503662109375 -3.164599657058716 -2.5
19.66400909423828 -1.587441325187683 -2.5
-18.116058349609375 -1.9531249563442543e-05 -2.5
-17.881454467773438 -2.9060254096984863 -2.5
-17.183740615844727 -5.736767292022705 -2.5
-15.353343963623047 -6.541464805603027 -2.303039073944092
-15.31151294708252 -9.682421684265137 -2.5
-14.482744216918945 -10.883095741271973 -2.5
-12.520195007324219 -13.034931182861328 -2.494175672531128
-11.023866653442383 -13.50179672241211 -2.4054014682769775
-9.663759231567383 -14.000341415405273 -2.347599983215332
-7.292797565460205 -15.369237899780273 -2.347599983215332
-2.050527334213257 -16.887676239013672 -2.347599983215332
-0.6849902272224426 -16.9979190826416 -2.347599983215332
1.931884765625 -15.91063404083252 -2.2117831707000732
3.2231054306030273 -15.787851333618164 -2.223651647567749
4.732958793640137 -16.340057373046875 -2.347599983215332
6.032431602478027 -15.906229972839355 -2.347599983215332
7.292788028717041 -15.369237899780273 -2.347599983215332
9.663759231567383 -14.000361442565918 -2.347599983215332
13.56005859375 -12.013193130493164 -2.5
16.66639518737793 -7.100908279418945 -2.5
17.881450653076172 -2.9060351848602295 -2.5
-15.882064819335938 -5.302216529846191 -2.5
-15.403910636901855 -6.563007831573486 -2.5
-14.8258638381958 -7.781220436096191 -2.5
-14.151650428771973 -8.948954582214355 -2.5
-12.532880783081055 -11.10317325592041 -2.5
-11.598803520202637 -12.075644493103027 -2.5
-10.589526176452637 -12.96981430053711 -2.5
-8.107440948486328 -14.042490005493164 -2.4210314750671387
-6.761640548706055 -14.249823570251465 -2.355008840560913
-1.8951952457427979 -15.608437538146973 -2.347599983215332
1.8951952457427979 -15.608437538146973 -2.347599983215332
3.14501953125 -15.405322074890137 -2.347599983215332
4.374433517456055 -15.10228443145752 -2.347599983215332
5.575478553771973 -14.701327323913574 -2.347599983215332
6.821479320526123 -14.3759765625 -2.3758537769317627
8.192963600158691 -14.190624237060547 -2.446570873260498
9.4970064163208 -13.758798599243164 -2.496178150177002
10.58951187133789 -12.969794273376465 -2.5
11.5988130569458 -12.075654029846191 -2.5
13.3856782913208 -10.05868148803711 -2.5
14.151650428771973 -8.948974609375 -2.5
14.825854301452637 -7.781230449676514 -2.5
15.403915405273438 -6.563007831573486 -2.5
16.526927947998047 -2.685908079147339 -2.5
16.689462661743164 -1.347314476966858 -2.5
-15.561088562011719 -9.765624781721272e-06 -2.5
-15.359545707702637 -2.496171712875366 -2.5
-15.10891056060791 -3.724013566970825 -2.5
-13.778666496276855 -7.231611251831055 -2.5
-11.647636413574219 -10.318915367126465 -2.5
-10.779545783996582 -11.222695350646973 -2.5
-9.841543197631836 -12.05370044708252 -2.5
-8.839716911315918 -12.806523323059082 -2.5
-7.780551433563232 -13.47630786895752 -2.5
-6.659672737121582 -14.0349702835083 -2.495781421661377
-2.983388662338257 -14.613652229309082 -2.3962111473083496
-0.5932031273841858 -14.720341682434082 -2.3668456077575684
0.593676745891571 -14.731913566589355 -2.368706226348877
1.786831021308899 -14.715898513793945 -2.381574869155884
4.227988243103027 -14.596708297729492 -2.441455602645874
5.494985103607178 -14.489120483398438 -2.48956036567688
7.780541896820068 -13.476298332214355 -2.5
8.839706420898438 -12.80654239654541 -2.5
9.841537475585938 -12.0537109375 -2.5
11.6476411819458 -10.3189058303833 -2.5
12.440199851989746 -9.348241806030273 -2.5
14.315878868103027 -6.099423885345459 -2.5
14.760268211364746 -4.927714824676514 -2.5
15.10891056060791 -3.7240233421325684 -2.5
15.359575271606445 -2.496171712875366 -2.5
15.510629653930664 -1.2521483898162842 -2.5
-14.531059265136719 1.9531249563442543e-05 -2.5
-14.483935356140137 -1.1692675352096558 -2.5
-14.108808517456055 -3.477529287338257 -2.5
-13.783242225646973 -4.601523399353027 -2.5
-13.368270874023438 -5.695703029632568 -2.5
-12.281508445739746 -7.766366958618164 -2.5
-10.8766450881958 -9.635878562927246 -2.5
-9.19009780883789 -11.255839347839355 -2.5
-8.254594802856445 -11.958818435668945 -2.5
-7.265527248382568 -12.584257125854492 -2.5
-6.229355335235596 -13.12808609008789 -2.5
-5.152782917022705 -13.586776733398438 -2.5
-4.042788028717041 -13.95736312866211 -2.5
-2.905019521713257 -14.229755401611328 -2.4986560344696045
-1.7492138147354126 -14.4060640335083 -2.496697425842285
2.906083822250366 -14.234941482543945 -2.499565601348877
5.152782917022705 -13.586787223815918 -2.5
7.265527248382568 -12.584267616271973 -2.5
8.254584312438965 -11.958837509155273 -2.5
11.616738319396973 -8.729443550109863 -2.5
12.866605758666992 -6.7529296875 -2.5
13.368281364440918 -5.695703029632568 -2.5
14.34288501739502 -2.330947160720825 -2.5
14.483935356140137 -1.169277310371399 -2.5
-13.625673294067383 9.765624781721272e-06 -2.5
-13.229731559753418 -3.260859251022339 -2.5
-12.924443244934082 -4.314814567565918 -2.5
-12.5353364944458 -5.3408203125 -2.5
-11.516274452209473 -7.282460689544678 -2.5
-9.438838005065918 -9.826874732971191 -2.5
-7.740268230438232 -11.21371078491211 -2.5
-5.841230392456055 -12.310126304626465 -2.5
-4.831733226776123 -12.740234375 -2.5
-1.6423778533935547 -13.526337623596191 -2.5
1.6423876285552979 -13.526337623596191 -2.5
2.7254834175109863 -13.350312232971191 -2.5
4.831733226776123 -12.740243911743164 -2.5
6.812841415405273 -11.800185203552246 -2.5
7.740258693695068 -11.213720321655273 -2.5
9.438838005065918 -9.826874732971191 -2.5
10.892939567565918 -8.185526847839355 -2.5
12.064926147460938 -6.332177639007568 -2.5
12.535341262817383 -5.340829849243164 -2.5
12.924443244934082 -4.314824104309082 -2.5
13.581493377685547 -1.0964257717132568 -2.5
-12.823447227478027 -9.765624781721272e-06 -2.5
-12.781865119934082 -1.0318750143051147 -2.5
-12.450819969177246 -3.068857431411743 -2.5
-12.163505554199219 -4.060781002044678 -2.5
-11.354594230651855 -5.959355354309082 -2.5
-10.838252067565918 -6.853710651397705 -2.5
-4.329208850860596 -3.2531933784484863 -1.0557372570037842
-3.9754247665405273 -3.5219335556030273 -1.035429835319519
-4.547265529632568 -11.99014663696289 -2.5
-1.545693278312683 -12.729960441589355 -2.5
0.5163525342941284 -12.8130464553833 -2.5
5.497319221496582 -11.585371017456055 -2.5
6.411718368530273 -11.105448722839355 -2.5
8.110126495361328 -9.933124542236328 -2.5
8.8831148147583 -9.248320579528809 -2.5
10.251615524291992 -7.703603267669678 -2.5
11.797304153442383 -5.026376724243164 -2.5
12.450815200805664 -3.0688769817352295 -2.5
12.781869888305664 -1.0318750143051147 -2.5
-12.107514381408691 0.0 -2.5
-12.068256378173828 -0.97425776720047 -2.5
-11.950727462768555 -1.9421874284744263 -2.5
-11.755693435668945 -2.897529125213623 -2.5
-11.484414100646973 -3.834062337875366 -2.5
-10.720678329467773 -5.626650333404541 -2.5
-4.554145336151123 -2.8798632621765137 -1.112595796585083
-3.7366747856140137 -3.3104002475738525 -1.0307937860488892
-3.5268895626068115 -3.671884775161743 -1.0512762069702148
-3.368520498275757 -11.629491806030273 -2.5
-2.421806573867798 -11.862832069396973 -2.5
-1.459389567375183 -12.019238471984863 -2.5
-0.4875195324420929 -12.097704887390137 -2.5
1.4593993425369263 -12.019238471984863 -2.5
2.421816349029541 -11.862832069396973 -2.5
4.293383598327637 -11.320741653442383 -2.5
6.053754806518555 -10.485429763793945 -2.5
9.062602043151855 -8.028759956359863 -2.5
9.679262161254883 -7.273496150970459 -2.5
10.72066879272461 -5.626650333404541 -2.5
11.13866138458252 -4.745751857757568 -2.5
11.484423637390137 -3.8340721130371094 -2.5
11.950727462768555 -1.9422069787979126 -2.5
-11.464516639709473 9.765624781721272e-06 -2.5
-11.427338600158691 -0.92249995470047 -2.5
-11.131376266479492 -2.743642568588257 -2.5
-10.87451171875 -3.630439281463623 -2.5
-10.547109603881836 -4.493710994720459 -2.5
-10.151328086853027 -5.327841758728027 -2.5
-3.849623918533325 -2.892822265625 -1.050063133239746
-7.250683307647705 -8.880477905273438 -2.5
-4.065375804901123 -10.719511032104492 -2.5
-3.189628839492798 -11.01187515258789 -2.5
-2.2931933403015137 -11.232841491699219 -2.5
2.2931981086730957 -11.232831954956055 -2.5
3.189624071121216 -11.011884689331055 -2.5
4.065375804901123 -10.719511032104492 -2.5
6.512592792510986 -9.4351167678833 -2.5
7.250683307647705 -8.88045883178711 -2.5
10.151328086853027 -5.327831745147705 -2.5
10.547119140625 -4.493730545043945 -2.5
10.874516487121582 -3.630449056625366 -2.5
11.316044807434082 -1.8390429019927979 -2.5
-10.883710861206055 0.0 -2.5
-10.84841251373291 -0.875781238079071 -2.5
-10.742753982543945 -1.7458691596984863 -2.5
-10.323583602905273 -3.446533203125 -2.5
-4.329892635345459 -2.7380664348602295 -1.1767553091049194
-3.4266357421875 -3.0357518196105957 -1.051559329032898
-6.182656288146973 -8.95711898803711 -2.5
-5.441860198974609 -9.425576210021973 -2.5
-4.665761470794678 -9.832890510559082 -2.5
-3.8594188690185547 -10.176454544067383 -2.5
-3.028027296066284 -10.45400333404541 -2.5
-2.177016496658325 -10.663769721984863 -2.5
-1.3118798732757568 -10.80435562133789 -2.5
-0.4382373094558716 -10.874882698059082 -2.5
3.0280370712280273 -10.45400333404541 -2.5
4.665756702423096 -9.832890510559082 -2.5
5.441845417022705 -9.425565719604492 -2.5
8.146567344665527 -7.217226505279541 -2.5
10.012787818908691 -4.266054630279541 -2.5
10.323593139648438 -3.446533203125 -2.5
10.742758750915527 -1.74587881565094 -2.5
10.84841251373291 -0.8757714629173279 -2.5
-10.35634708404541 0.0 -2.5
-10.322772979736328 -0.8333398103713989 -2.5
-10.222246170043945 -1.6612889766693115 -2.5
-10.055415153503418 -2.478447198867798 -2.5
-9.823392868041992 -3.279541015625 -2.5
-4.290961742401123 -2.713456869125366 -1.2255561351776123
-3.3249804973602295 -2.945693254470825 -1.0723185539245605
-3.174921751022339 -3.3054492473602295 -1.10638427734375
-5.178178787231445 -8.968867301940918 -2.5
-2.8813133239746094 -9.947470664978027 -2.5
-2.071533203125 -10.147079467773438 -2.5
-1.248315453529358 -10.280868530273438 -2.5
-0.41701170802116394 -10.347978591918945 -2.5
1.248315453529358 -10.280858993530273 -2.5
5.88308572769165 -8.523134231567383 -2.5
7.174096584320068 -7.469033241271973 -2.5
7.751845359802246 -6.86754846572876 -2.5
8.279311180114746 -6.221523284912109 -2.5
9.170092582702637 -4.812841892242432 -2.5
9.82338809967041 -3.279541015625 -2.5
10.055415153503418 -2.478456974029541 -2.5
10.222250938415527 -1.6612889766693115 -2.5
-9.875297546386719 0.0 -2.5
-9.747421264648438 -1.5841113328933716 -2.5
-9.58834457397461 -2.363330125808716 -2.5
-9.367084503173828 -3.127187490463257 -2.5
-3.682319164276123 -2.76708984375 -1.1660678386688232
-3.262504816055298 -2.8903417587280273 -1.1034245491027832
-3.091010570526123 -3.218095541000366 -1.1296132802963257
-4.937655925750732 -8.552265167236328 -2.5
-4.233466625213623 -8.921854972839355 -2.5
-3.5018310546875 -9.233583450317383 -2.5
-2.7474803924560547 -9.485419273376465 -2.5
-1.975307583808899 -9.675742149353027 -2.5
-0.39763182401657104 -9.867294311523438 -2.5
0.3976367115974426 -9.867304801940918 -2.5
1.190332055091858 -9.80331039428711 -2.5
2.7474803924560547 -9.485429763793945 -2.5
3.5018310546875 -9.233583450317383 -2.5
4.233466625213623 -8.921845436096191 -2.5
4.93765115737915 -8.552285194396973 -2.5
5.609809398651123 -8.127206802368164 -2.5
6.245595455169678 -7.649472713470459 -2.5
7.391772270202637 -6.548544883728027 -2.5
7.894736289978027 -5.932519435882568 -2.5
8.346508979797363 -5.278027057647705 -2.5
9.747421264648438 -1.5841211080551147 -2.5
-9.434598922729492 9.765624781721272e-06 -2.5
-9.404013633728027 -0.7591796517372131 -2.5
-9.312426567077637 -1.5134179592132568 -2.5
-9.160449028015137 -2.257871150970459 -2.5
-8.94906234741211 -2.9876365661621094 -2.5
-4.215282917022705 -2.665595531463623 -1.3215677738189697
-3.650405168533325 -2.743105411529541 -1.2099579572677612
-3.1985106468200684 -2.8336424827575684 -1.1323105096817017
-3.0124363899230957 -3.136298656463623 -1.1523219347000122
-2.9046337604522705 -3.5575389862060547 -1.2169837951660156
-3.3455564975738525 -8.821523666381836 -2.5
-1.8871630430221558 -9.243945121765137 -2.5
-0.37989744544029236 -9.426953315734863 -2.5
1.1372119188308716 -9.365829467773438 -2.5
1.8871630430221558 -9.243945121765137 -2.5
2.624872922897339 -9.062118530273438 -2.5
3.3455564975738525 -8.821513175964355 -2.5
5.359467506408691 -7.76452112197876 -2.5
6.535585880279541 -6.804257869720459 -2.5
8.679643630981445 -3.69805645942688 -2.5
9.160449028015137 -2.257871150970459 -2.5
-9.029281616210938 0.0 -2.5
-9.0 -0.7265527248382568 -2.5
-8.912358283996582 -1.4484081268310547 -2.5
-8.766899108886719 -2.160878896713257 -2.5
-8.564604759216309 -2.8592870235443115 -2.5
-3.618852376937866 -2.719413995742798 -1.2533451318740845
-3.149306535720825 -2.790048837661743 -1.1649409532546997
-2.955082893371582 -3.0765819549560547 -1.1811248064041138
-2.8417723178863525 -3.480546712875366 -1.2440940141677856
-4.514643669128418 -7.819589614868164 -2.5
-3.87078595161438 -8.157500267028809 -2.5
-3.2018308639526367 -8.442519187927246 -2.5
-2.512094736099243 -8.672792434692383 -2.5
-1.088354468345642 -8.96346664428711 -2.5
-0.36356931924819946 -9.02197265625 -2.5
1.806093692779541 -8.846806526184082 -2.5
3.2018260955810547 -8.44253921508789 -2.5
3.87078595161438 -8.157519340515137 -2.5
4.514638423919678 -7.819589614868164 -2.5
5.129213809967041 -7.430956840515137 -2.5
6.254799842834473 -6.511952877044678 -2.5
7.631450176239014 -4.825859069824219 -2.5
8.564594268798828 -2.8592967987060547 -2.5
8.999995231628418 -0.7265625 -2.5
-8.655156135559082 -9.765624781721272e-06 -2.5
-8.543070793151855 -1.3883984088897705 -2.5
-8.209726333618164 -2.740800619125366 -2.5
-7.962563514709473 -3.3925487995147705 -2.5
-4.759057521820068 -2.497753858566284 -1.5524548292160034
-3.593193292617798 -2.7001171112060547 -1.2982510328292847
-3.133608341217041 -2.776132822036743 -1.2092397212982178
-4.327578067779541 -7.495595455169678 -2.5
-3.710405111312866 -7.819511413574219 -2.5
-3.069159984588623 -8.092714309692383 -2.5
-1.7312499284744263 -8.480254173278809 -2.5
-1.0432567596435547 -8.592060089111328 -2.5
0.3485107421875 -8.648154258728027 -2.5
3.710390567779541 -7.819521427154541 -2.5
4.327578067779541 -7.495595455169678 -2.5
4.916689395904541 -7.123046875 -2.5
7.315244197845459 -4.625907897949219 -2.5
7.962563514709473 -3.3925390243530273 -2.5
8.403647422790527 -2.0713281631469727 -2.5
8.543061256408691 -1.3883886337280273 -2.5
8.627089500427246 -0.6964550614356995 -2.5
-8.20108413696289 -1.3328124284744263 -2.5
-7.643808364868164 -3.2567381858825684 -2.5
-4.708032131195068 -2.4709765911102295 -1.5998551845550537
-4.101288795471191 -2.593505859375 -1.460071325302124
-3.5745067596435547 -2.6860742568969727 -1.3453550338745117
-3.117968797683716 -2.762275218963623 -1.2533758878707886
-2.845698118209839 -2.96270489692688 -1.2360522747039795
-2.5953612327575684 -3.7600293159484863 -1.3746999502182007
-4.154335975646973 -7.195527076721191 -2.5
-2.946303606033325 -7.768749713897705 -2.5
-2.3116161823272705 -7.980654239654541 -2.5
-1.6619482040405273 -8.140761375427246 -2.5
-0.33455076813697815 -8.301962852478027 -2.5
0.3345605432987213 -8.301962852478027 -2.5
2.3116209506988525 -7.980654239654541 -2.5
4.154345512390137 -7.195527076721191 -2.5
4.719868183135986 -6.837910175323486 -2.5
5.25478982925415 -6.435946941375732 -2.5
5.755624771118164 -5.992236137390137 -2.5
7.022407054901123 -4.440722465515137 -2.5
7.35696268081665 -3.8612303733825684 -2.5
8.067240715026855 -1.9884276390075684 -2.5
8.20108413696289 -1.3328319787979126 -2.5
8.28173828125 -0.6685742139816284 -2.5
-7.883388519287109 -1.2811815738677979 -2.5
-7.754731178283691 -1.9113867282867432 -2.5
-7.575786113739014 -2.529169797897339 -2.5
-4.053207874298096 -2.5630955696105957 -1.5011035203933716
-3.0995800495147705 -2.7459959983825684 -1.2961965799331665
-2.6713621616363525 -3.271845579147339 -1.3221403360366821
-3.993412971496582 -6.916796684265137 -2.5
-3.42388653755188 -7.215683460235596 -2.5
-2.832163095474243 -7.467792987823486 -2.5
-2.2220702171325684 -7.671483993530273 -2.5
-1.5975682735443115 -7.825419902801514 -2.5
2.2220702171325684 -7.671474456787109 -2.5
3.993403196334839 -6.916787147521973 -2.5
4.537026405334473 -6.573017597198486 -2.5
5.532660961151123 -5.760117053985596 -2.5
5.978212833404541 -5.296249866485596 -2.5
6.384994983673096 -4.798037052154541 -2.5
6.750380516052246 -4.268681526184082 -2.5
7.754735946655273 -1.9113867282867432 -2.5
7.883388519287109 -1.281191349029541 -2.5
-7.686962604522705 0.0 -2.5
-7.587421894073486 -1.2330858707427979 -2.5
-7.071845531463623 -3.0130271911621094 -2.5
-4.645532131195068 -2.438173770904541 -1.7062923908233643
-4.005908012390137 -2.533203125 -1.5414586067199707
-2.6190478801727295 -3.207753896713257 -1.3468066453933716
-2.336064338684082 -4.04617166519165 -1.5194941759109497
-2.725834846496582 -7.187450885772705 -2.5
-2.1386425495147705 -7.383476257324219 -2.5
-1.5375878810882568 -7.531620979309082 -2.5
-0.30952146649360657 -7.680741786956787 -2.5
0.30952635407447815 -7.680751800537109 -2.5
1.53759765625 -7.531620979309082 -2.5
2.1386473178863525 -7.383486270904541 -2.5
2.725834846496582 -7.187460899353027 -2.5
3.8434863090515137 -6.657109260559082 -2.5
4.366694450378418 -6.326259613037109 -2.5
4.861581802368164 -5.95437479019165 -2.5
5.324951171875 -5.543876647949219 -2.5
6.145283222198486 -4.617909908294678 -2.5
6.49694299697876 -4.108437538146973 -2.5
6.806469440460205 -3.57232403755188 -2.5
7.071850299835205 -3.0130467414855957 -2.5
7.463593482971191 -1.8396093845367432 -2.5
7.587416648864746 -1.2330858707427979 -2.5
-7.406869888305664 -9.765624781721272e-06 -2.5
-7.382856369018555 -0.5960156321525574 -2.5
-7.025693416595459 -2.345517635345459 -2.5
-6.814174652099609 -2.903251886367798 -2.5
-3.9593749046325684 -2.5037693977355957 -1.5811644792556763
-3.4909961223602295 -2.6233203411102295 -1.4739011526107788
-3.063061475753784 -2.7136523723602295 -1.3812215328216553
-2.6907713413238525 -2.801406145095825 -1.3110592365264893
-2.567802667617798 -3.1449999809265137 -1.3703892230987549
-2.2239062786102295 -3.851923704147339 -1.5012441873550415
-2.626513719558716 -6.925546646118164 -2.5
-2.060722589492798 -7.114452838897705 -2.5
0.2982421815395355 -7.40087890625 -2.5
0.8927929401397705 -7.352870941162109 -2.5
1.4815673828125 -7.257206916809082 -2.5
2.060717821121216 -7.114443302154541 -2.5
3.703442335128784 -6.414540767669678 -2.5
5.544126033782959 -4.911689281463623 -2.5
5.921362400054932 -4.449648380279541 -2.5
6.558461666107178 -3.442148447036743 -2.5
6.814169883728027 -2.903251886367798 -2.5
7.191640377044678 -1.7725976705551147 -2.5
7.382856369018555 -0.5960351228713989 -2.5
-7.144589900970459 0.0 -2.5
-6.57287073135376 -2.8004491329193115 -2.5
-4.6044921875 -2.416630744934082 -1.8196067810058594
-2.3446240425109863 -3.3967771530151367 -1.4442344903945923
-2.1562352180480957 -3.734697103500366 -1.5089935064315796
-3.0628318786621094 -6.454784870147705 -2.5
-2.533510684967041 -6.680322170257568 -2.5
-1.9877489805221558 -6.862519264221191 -2.5
-0.8611816167831421 -7.092509746551514 -2.5
-0.28768065571784973 -7.13878870010376 -2.5
0.28768065571784973 -7.138808250427246 -2.5
0.8611816167831421 -7.092509746551514 -2.5
2.533500909805298 -6.680312156677246 -2.5
3.0628318786621094 -6.454784870147705 -2.5
3.5722949504852295 -6.187392234802246 -2.5
4.05859375 -5.879902362823486 -2.5
4.949228286743164 -5.152705192565918 -2.5
5.347802639007568 -4.737734317779541 -2.5
5.711684226989746 -4.292070388793945 -2.5
6.326225280761719 -3.320253849029541 -2.5
6.572880744934082 -2.8004589080810547 -2.5
6.776908874511719 -2.2624707221984863 -2.5
6.936982154846191 -1.7098437547683716 -2.5
7.052074909210205 -1.146093726158142 -2.5
7.121416091918945 -0.574902355670929 -2.5
-6.898407936096191 9.765624781721272e-06 -2.5
-6.876039981842041 -0.5550976395606995 -2.5
-6.697948932647705 -1.6508984565734863 -2.5
-6.346396446228027 -2.7039549350738525 -2.5
-3.905771493911743 -2.469863176345825 -1.6747252941131592
-2.6290283203125 -2.737119197845459 -1.3753879070281982
-2.090571165084839 -3.6209959983825684 -1.5152572393417358
-1.8801463842391968 -3.962343692779541 -1.5894148349761963
-2.446215867996216 -6.450136661529541 -2.5
-0.2777734398841858 -6.892822265625 -2.5
0.2777636647224426 -6.892812252044678 -2.5
0.8315087556838989 -6.848124980926514 -2.5
1.379858374595642 -6.759013652801514 -2.5
1.9192626476287842 -6.626054763793945 -2.5
2.9572949409484863 -6.232382774353027 -2.5
3.449208974838257 -5.974199295043945 -2.5
3.9187450408935547 -5.677294731140137 -2.5
4.778696060180664 -4.975156307220459 -2.5
5.163535118103027 -4.574511528015137 -2.5
5.514887809753418 -4.144169807434082 -2.5
5.830463886260986 -3.6869823932647705 -2.5
6.108242034912109 -3.2058591842651367 -2.5
6.809072017669678 -1.1065820455551147 -2.5
-6.645224571228027 -0.5364648103713989 -2.5
-6.580507755279541 -1.0694433450698853 -2.5
-6.473114967346191 -1.5955077409744263 -2.5
-6.133354187011719 -2.6131932735443115 -2.5
-3.8986082077026367 -2.4653515815734863 -1.7297167778015137
-3.3696727752685547 -2.5321483612060547 -1.5805933475494385
-2.783696174621582 -2.4661619663238525 -1.394581913948059
-2.3641014099121094 -6.233613014221191 -2.5
-1.3335399627685547 -6.532118797302246 -2.5
-0.80360347032547 -6.618242263793945 -2.5
-0.26844725012779236 -6.661445140838623 -2.5
0.2684423625469208 -6.661445140838623 -2.5
1.854824185371399 -6.403632640838623 -2.5
2.3640966415405273 -6.233623027801514 -2.5
2.858022451400757 -6.023183345794678 -2.5
4.6182861328125 -4.808164119720459 -2.5
4.990204811096191 -4.420937538146973 -2.5
6.645219802856445 -0.5364648103713989 -2.5
-6.448569297790527 0.0 -2.5
-6.365053653717041 -1.0344433784484863 -2.5
-6.261181354522705 -1.5432714223861694 -2.5
-5.932538986206055 -2.5276269912719727 -2.5
-4.574653148651123 -2.400956869125366 -2.0029404163360596
-3.89165997505188 -2.4609570503234863 -1.7850807905197144
-2.5803563594818115 -2.6864354610443115 -1.4440957307815552
-2.364384651184082 -2.8958494663238525 -1.4493457078933716
-1.9727001190185547 -3.416816234588623 -1.529565691947937
-1.765590786933899 -3.720898389816284 -1.5966860055923462
-2.286694288253784 -6.029531002044678 -2.5
-1.2898778915405273 -6.318261623382568 -2.5
-0.7772851586341858 -6.401552677154541 -2.5
-0.25965818762779236 -6.443339824676514 -2.5
0.7772851586341858 -6.401562213897705 -2.5
1.289882779121399 -6.318261623382568 -2.5
1.794106364250183 -6.19396448135376 -2.5
3.2242870330810547 -5.584628582000732 -2.5
4.078369140625 -4.995107173919678 -2.5
4.467074871063232 -4.650742053985596 -2.5
5.155253887176514 -3.8739256858825684 -2.5
6.11669921875 -2.042070150375366 -2.5
6.427656173706055 -0.5189062356948853 -2.5
-6.222172737121582 -0.5023242235183716 -2.5
-3.8846776485443115 -2.456533193588257 -1.8407217264175415
-2.9092822074890137 -2.5774121284484863 -1.5565942525863647
-2.5557031631469727 -2.660781145095825 -1.4775335788726807
-2.1322362422943115 -3.0890820026397705 -1.5032234191894531
-1.924780249595642 -3.3338279724121094 -1.5416909456253052
-1.5278369188308716 -4.028573989868164 -1.7255195379257202
-1.7367528676986694 -5.99596643447876 -2.5
-1.2486425638198853 -6.116269588470459 -2.5
-0.7524365186691284 -6.196913719177246 -2.5
-0.2513476610183716 -6.237353324890137 -2.5
2.2135937213897705 -5.836777210235596 -2.5
3.546093702316284 -5.137412071228027 -2.5
4.990448951721191 -3.7500975131988525 -2.5
5.527387619018555 -2.901015520095825 -2.5
5.921162128448486 -1.9767773151397705 -2.5
-6.047372817993164 -1.9531249563442543e-05 -2.5
-5.969062328338623 -0.9700683355331421 -2.5
-4.574648380279541 -2.400956869125366 -2.1358158588409424
-3.880986213684082 -2.4541990756988525 -1.8982813358306885
-2.8800048828125 -2.5514745712280273 -1.590625286102295
-2.2788329124450684 -2.791083812713623 -1.489579439163208
-1.67812979221344 -3.5365819931030273 -1.618276596069336
-1.6824853420257568 -5.808613300323486 -2.5
-0.7289355397224426 -6.00329065322876 -2.5
-0.24350585043430328 -6.04248046875 -2.5
0.7289257645606995 -6.003281116485596 -2.5
1.6824853420257568 -5.808632850646973 -2.5
2.592460870742798 -5.463505744934082 -2.5
3.435302734375 -4.976894378662109 -2.5
4.834531307220459 -3.632929563522339 -2.5
5.563461780548096 -2.3703906536102295 -2.5
5.736152172088623 -1.9150097370147705 -2.5
5.871650218963623 -1.4472460746765137 -2.5
5.969062328338623 -0.9700585603713989 -2.5
6.027763366699219 -0.48662108182907104 -2.5
-5.843505859375 -0.4717382788658142 -2.5
-5.692158222198486 -1.4029979705810547 -2.5
-4.574648380279541 -2.400956869125366 -2.2031636238098145
-3.882328987121582 -2.4550390243530273 -1.9588172435760498
-2.0418701171875 -2.9581737518310547 -1.532802700996399
-1.837622046470642 -3.182871103286743 -1.5672636032104492
-1.638427734375 -3.4529199600219727 -1.629810094833374
-0.7066503763198853 -5.819785118103027 -2.5
-0.23605956137180328 -5.857792854309082 -2.5
1.1726610660552979 -5.744052410125732 -2.5
2.0788817405700684 -5.481562614440918 -2.5
2.931264638900757 -5.077109336853027 -2.5
4.061113357543945 -4.228075981140137 -2.5
4.388159275054932 -3.887568235397339 -2.5
5.69216775894165 -1.4030077457427979 -2.5
5.84350061416626 -0.47175779938697815 -2.5
-5.687016487121582 0.0 -2.5
-5.613373756408691 -0.9122753739356995 -2.5
-5.231943130493164 -2.229130744934082 -2.5
-4.574653148651123 -2.400956869125366 -2.271150827407837
-2.853950023651123 -2.528398275375366 -1.6761161088943481
-1.9978076219558716 -2.89434552192688 -1.5460084676742554
-1.7969090938568115 -3.1123340129852295 -1.5798325538635254
-1.6029882431030273 -3.378242015838623 -1.643764615058899
-1.5822362899780273 -5.462490081787109 -2.5
-0.6854882836341858 -5.645566463470459 -2.5
-0.22899413108825684 -5.682412147521973 -2.5
0.685498058795929 -5.645566463470459 -2.5
2.0166406631469727 -5.317480564117432 -2.5
2.43798828125 -5.137959003448486 -2.5
3.230600595474243 -4.680331707000732 -2.5
4.806611061096191 -3.0395312309265137 -2.5
5.231947898864746 -2.229140520095825 -2.5
5.394345760345459 -1.8008984327316284 -2.5
5.521767616271973 -1.3610155582427979 -2.5
5.6685791015625 -0.45762693881988525 -2.5
-5.236069202423096 -1.7480566501617432 -2.5
-3.3215770721435547 -2.4960155487060547 -1.8816773891448975
-2.8512840270996094 -2.5260252952575684 -1.7251657247543335
-2.4619970321655273 -2.563222646713257 -1.609594702720642
-1.7575926780700684 -3.04424786567688 -1.591971755027771
-1.5704394578933716 -3.30962872505188 -1.6590604782104492
-1.386171817779541 -3.6550488471984863 -1.7703604698181152
-0.22227539122104645 -5.515683650970459 -2.5
0.22227050364017487 -5.515673637390137 -2.5
1.9574804306030273 -5.161455154418945 -2.5
2.366450071334839 -4.987196922302246 -2.5
2.760077953338623 -4.780605316162109 -2.5
3.8239500522613525 -3.981152296066284 -2.5
4.131904125213623 -3.6605467796325684 -2.5
4.413046836853027 -3.3162012100219727 -2.5
4.665585994720459 -2.950331926345825 -2.5
4.887851238250732 -2.565361261367798 -2.5
5.078432559967041 -2.1637206077575684 -2.5
5.236073970794678 -1.74807608127594 -2.5
5.359750747680664 -1.3210644721984863 -2.5
5.448671817779541 -0.8855175375938416 -2.5
5.502260684967041 -0.4441894292831421 -2.5
-5.361274242401123 0.0 -2.5
-5.343881607055664 -0.431396484375 -2.5
-5.291840553283691 -0.8600195050239563 -2.5
-5.085361003875732 -1.69775390625 -2.5
-4.932255744934082 -2.101454973220825 -2.5
-4.574653148651123 -2.400956869125366 -2.4091475009918213
-3.8844823837280273 -2.456415891647339 -2.1431446075439453
-2.8499364852905273 -2.524843692779541 -1.775460124015808
-2.447026252746582 -2.5476367473602295 -1.6472172737121582
-2.1528613567352295 -2.636796712875366 -1.5873265266418457
-1.926113247871399 -2.790468692779541 -1.5810887813568115
-1.72314453125 -2.9845800399780273 -1.6070338487625122
-1.368813395500183 -3.609267473220825 -1.799989938735962
-1.0723925828933716 -5.2529296875 -2.5
-0.6462255716323853 -5.322187423706055 -2.5
0.6462353467941284 -5.322187423706055 -2.5
1.491601586341858 -5.149589538574219 -2.5
2.29833984375 -4.843632698059082 -2.5
3.045542001724243 -4.412246227264404 -2.5
4.286025524139404 -3.2207517623901367 -2.5
4.747168064117432 -2.491513729095459 -2.5
5.20547342300415 -1.2830370664596558 -2.5
