ply
format ascii 1.0
element vertex 775
property float x
property float y
property float z
end_header
6.818437576293945 -11.8098726272583 3.653984785079956
14.1030855178833 -17.27313995361328 5.975111484527588
-0.6787450909614563 -16.84343719482422 4.317227840423584
14.095038414001465 -17.263286590576172 5.707740783691406
16.342084884643555 -12.2802734375 5.235292911529541
-0.6789892315864563 -16.849628448486328 4.120242118835449
14.087050437927246 -17.253490447998047 5.442219257354736
7.189067363739014 -10.415151596069336 2.7964305877685547
14.0712251663208 -17.234115600585938 4.916301727294922
14.063383102416992 -17.224515914916992 4.655735969543457
-23.51850128173828 -12.343466758728027 5.254609107971191
-0.6802197098731995 -16.88018035888672 3.148047924041748
-0.6804638504981995 -16.886215209960938 2.955784797668457
14.04012393951416 -17.196025848388672 3.882711172103882
-23.61079978942871 -14.930575370788574 4.567433834075928
-0.6807079911231995 -16.892236709594727 2.7641327381134033
14.024811744689941 -17.177274703979492 3.3738439083099365
-0.6811913847923279 -16.90422248840332 2.3824477195739746
14.017207145690918 -17.167953491210938 3.1211395263671875
-0.6814355254173279 -16.910194396972656 2.1923184394836426
14.009635925292969 -17.1586856842041 2.8694939613342285
-0.6816747784614563 -16.916156768798828 2.002600908279419
14.002094268798828 -17.14944839477539 2.6188414096832275
-0.6821532845497131 -16.928050994873047 1.6242055892944336
13.98708724975586 -17.131072998046875 2.1202404499053955
-0.6823877096176147 -16.933979034423828 1.435436725616455
13.979625701904297 -17.121929168701172 1.8721632957458496
-0.6826318502426147 -16.93990135192871 1.2468883991241455
4.731576919555664 -23.176761627197266 1.739734172821045
13.972185134887695 -17.112812042236328 1.624817132949829
-0.6828711032867432 -16.945825576782227 1.0585168600082397
4.721977233886719 -23.129751205444336 1.4733957052230835
13.964760780334473 -17.103715896606445 1.3781356811523438
-3.594169855117798 -29.600711822509766 1.5295668840408325
-0.6831103563308716 -16.95172882080078 0.8702737092971802
4.686767578125 -22.957260131835938 1.201918601989746
13.957353591918945 -17.09465217590332 1.1320574283599854
13.949968338012695 -17.085599899291992 0.8865179419517517
13.94259262084961 -17.076576232910156 0.6414574980735779
-0.6838232278823853 -16.969463348388672 0.305856317281723
13.93523120880127 -17.06755256652832 0.3968133330345154
-0.6840624809265137 -16.975385665893555 0.11766692996025085
13.92788028717041 -17.058544158935547 0.15252470970153809
13.920538902282715 -17.0495548248291 -0.09146865457296371
-0.6847753524780273 -16.993148803710938 -0.4476972818374634
13.90587329864502 -17.031597137451172 -0.578806459903717
-0.6850146055221558 -16.99907684326172 -0.6365768313407898
13.898547172546387 -17.022626876831055 -0.8222784399986267
-0.685253918170929 -17.00501823425293 -0.8257430791854858
13.89122486114502 -17.013656616210938 -1.065693736076355
-19.513973236083984 -20.316143035888672 -1.679860234260559
-4.234477519989014 -20.74183464050293 -1.2624179124832153
13.88390064239502 -17.004682540893555 -1.3091142177581787
-20.026092529296875 -17.741586685180664 -1.8932114839553833
-19.640716552734375 -20.448101043701172 -2.006300210952759
-14.059179306030273 -20.368236541748047 -1.7513079643249512
-4.198144435882568 -20.563852310180664 -1.485152244567871
13.876574516296387 -16.995712280273438 -1.5525991916656494
-26.206336975097656 -13.754159927368164 -2.4241929054260254
-24.224300384521484 -15.318530082702637 -2.347599983215332
-19.85440444946289 -20.67061996459961 -2.347599983215332
-8.06362247467041 -27.838817596435547 -2.373957872390747
-4.198159217834473 -20.563934326171875 -1.7190992832183838
-2.479018449783325 -20.416566848754883 -1.6845673322677612
-0.6859765648841858 -17.022918701171875 -1.3954514265060425
1.1692090034484863 -29.01333999633789 -2.378361463546753
3.49883770942688 -28.815536499023438 -2.377565860748291
5.802558422088623 -28.422792434692383 -2.376081943511963
8.063173294067383 -27.837284088134766 -2.373828411102295
12.38992691040039 -26.111228942871094 -2.367285966873169
16.354764938354492 -23.693954467773438 -2.358164072036743
24.22426414489746 -15.318500518798828 -2.347599983215332
-26.86015510559082 9.765624781721272e-06 -2.5
-26.77305030822754 -2.161332845687866 -2.5
-26.5123233795166 -4.308686256408691 -2.5
-26.07963752746582 -6.428081035614014 -2.5
-22.637128829956055 -14.314867973327637 -2.492863893508911
-20.16414451599121 -15.152377128601074 -2.347599983215332
-18.879497528076172 -16.72579002380371 -2.347599983215332
-17.472431182861328 -18.190702438354492 -2.347599983215332
-14.328153610229492 -20.757919311523438 -2.347599983215332
-10.847280502319336 -22.86018943786621 -2.3550872802734375
-8.984628677368164 -23.69051170349121 -2.35823392868042
-7.056826114654541 -24.362958908081055 -2.3607828617095947
-4.198159217834473 -20.563934326171875 -1.9534653425216675
-0.6862158179283142 -17.028911590576172 -1.5862493515014648
1.022983431816101 -25.385135650634766 -2.3646304607391357
10.847119331359863 -22.859838485717773 -2.3550503253936768
13.172224044799805 -16.133031845092773 -1.9385062456130981
18.87950897216797 -16.725786209106445 -2.347599983215332
20.164154052734375 -15.152372360229492 -2.347599983215332
22.68708610534668 -14.346449851989746 -2.4983654022216797
23.78348731994629 -12.482528686523438 -2.5
24.71079444885254 -10.528276443481445 -2.5
25.47783660888672 -8.505751609802246 -2.5
26.5123233795166 -4.308676719665527 -2.5
26.773056030273438 -2.1613426208496094 -2.5
-23.667064666748047 -3.8462889194488525 -2.5
-23.280824661254883 -5.738242149353027 -2.5
-21.231069564819336 -11.142919540405273 -2.5
-19.14421272277832 -14.38595199584961 -2.496807813644409
-16.8533878326416 -14.930805206298828 -2.347599983215332
-15.597309112548828 -16.238515853881836 -2.347599983215332
-14.240068435668945 -17.440921783447266 -2.347599983215332
-4.512631893157959 -22.10428237915039 -2.3522214889526367
-0.6864648461341858 -17.034921646118164 -1.7775753736495972
0.9090673327445984 -22.558324813842773 -2.3539326190948486
2.720639705657959 -22.40645408630371 -2.353348731994629
4.51260232925415 -22.104145050048828 -2.3522064685821533
6.272070407867432 -21.653676986694336 -2.3505043983459473
12.790488243103027 -18.530214309692383 -2.347599983215332
13.188974380493164 -16.153554916381836 -2.174315929412842
16.8533878326416 -14.930800437927246 -2.347599983215332
22.743595123291016 -7.59292459487915 -2.5
23.280818939208984 -5.738212585449219 -2.5
-21.368539810180664 -3.4727392196655273 -2.5
-21.01980972290039 -5.18093729019165 -2.5
-19.16913604736328 -10.060736656188965 -2.5
-18.297426223754883 -11.570600509643555 -2.5
-17.30705451965332 -13.00540542602539 -2.5
-16.19381332397461 -14.346484184265137 -2.4983649253845215
-12.857084274291992 -15.747079849243164 -2.347599983215332
-10.16458511352539 -17.605575561523438 -2.347599983215332
-7.208823204040527 -19.00810432434082 -2.347599983215332
-5.655927658081055 -19.526533126831055 -2.347599983215332
-4.066357135772705 -19.9183349609375 -2.347599983215332
2.4504148960113525 -20.18094253540039 -2.347599983215332
4.066367149353027 -19.9183292388916 -2.347599983215332
5.655932426452637 -19.52654266357422 -2.347599983215332
12.85708999633789 -15.747075080871582 -2.347599983215332
14.143088340759277 -14.724531173706055 -2.357698917388916
16.193824768066406 -14.346488952636719 -2.4983649253845215
17.307058334350586 -13.00540542602539 -2.5
18.297422409057617 -11.570600509643555 -2.5
21.578693389892578 -1.742006778717041 -2.5
-19.664003372192383 -1.5874462127685547 -2.5
-18.149335861206055 -7.732705116271973 -2.5
-17.46826171875 -9.168046951293945 -2.5
-16.67389678955078 -10.543930053710938 -2.5
-14.7666015625 -13.082070350646973 -2.5
-13.666059494018555 -14.227866172790527 -2.5
-12.014687538146973 -14.71533203125 -2.4073939323425293
-6.569189071655273 -17.321502685546875 -2.347599983215332
-3.705556631088257 -18.150970458984375 -2.347599983215332
-1.933510661125183 -15.923989295959473 -2.032768487930298
-0.6413280963897705 -15.914794921875 -2.018418073654175
0.7459472417831421 -18.510351181030273 -2.347599983215332
2.232988119125366 -18.39029312133789 -2.347599983215332
3.705556631088257 -18.150970458984375 -2.347599983215332
6.569184303283691 -17.321508407592773 -2.347599983215332
7.285912990570068 -15.35472583770752 -2.153749465942383
12.014701843261719 -14.71533203125 -2.407393455505371
17.46826934814453 -9.168042182922363 -2.5
18.14934730529785 -7.732705116271973 -2.5
19.154720306396484 -4.721215724945068 -2.5
19.664011001586914 -1.5874511003494263 -2.5
-18.11605453491211 9.765624781721272e-06 -2.5
-18.057310104370117 -1.457739233970642 -2.5
-17.589624404907227 -4.335468769073486 -2.5
-17.183740615844727 -5.736767292022705 -2.5
-16.66639518737793 -7.100878715515137 -2.5
-15.311503410339355 -9.682416915893555 -2.5
-11.457406997680664 -14.032787322998047 -2.5
-8.505849838256836 -14.732563018798828 -2.347599983215332
-3.402778148651123 -16.66789436340332 -2.347599983215332
-1.9209716320037842 -15.82076644897461 -2.1992900371551514
-0.6392675638198853 -15.86361312866211 -2.190943956375122
0.6849902272224426 -16.997905731201172 -2.347599983215332
3.402783155441284 -16.66789436340332 -2.347599983215332
6.032431602478027 -15.906210899353027 -2.347599983215332
8.514301300048828 -14.747220993041992 -2.34993577003479
10.149819374084473 -14.704540252685547 -2.46567964553833
11.457411766052246 -14.032782554626465 -2.5
13.56005573272705 -12.013163566589355 -2.5
14.482748985290527 -10.88308048248291 -2.5
15.311508178710938 -9.682416915893555 -2.5
16.04096794128418 -8.4189453125 -2.5
16.666399002075195 -7.100878715515137 -2.5
17.183740615844727 -5.736767292022705 -2.5
17.58963394165039 -4.335464000701904 -2.5
18.05731201171875 -1.4577343463897705 -2.5
-16.743759155273438 9.765624781721272e-06 -2.5
-16.257205963134766 -4.007055759429932 -2.5
-15.882064819335938 -5.302206993103027 -2.5
-14.825859069824219 -7.781205654144287 -2.5
-10.58951187133789 -12.969799041748047 -2.5
-9.511542320251465 -13.779829025268555 -2.5
-8.358925819396973 -14.478095054626465 -2.4961342811584473
-5.585712909698486 -14.728304862976074 -2.3519105911254883
-3.145024299621582 -15.405302047729492 -2.347599983215332
-1.895205020904541 -15.60842227935791 -2.347599983215332
-0.6331005692481995 -15.710307121276855 -2.347599983215332
0.633105456829071 -15.710307121276855 -2.347599983215332
1.8952099084854126 -15.608412742614746 -2.347599983215332
8.358960151672363 -14.4780855178833 -2.4961342811584473
9.511537551879883 -13.779838562011719 -2.5
13.385676383972168 -10.058676719665527 -2.5
15.403915405273438 -6.56298303604126 -2.5
15.882067680358887 -5.302206993103027 -2.5
16.526927947998047 -2.6858885288238525 -2.5
16.689464569091797 -1.3473095893859863 -2.5
-15.561083793640137 9.765624781721272e-06 -2.5
-15.359580039978027 -2.4961767196655273 -2.5
-14.760249137878418 -4.927695274353027 -2.5
-13.152074813842773 -8.316869735717773 -2.5
-12.440195083618164 -9.348197937011719 -2.5
-10.779550552368164 -11.22269058227539 -2.5
-9.841543197631836 -12.053695678710938 -2.5
-7.78054666519165 -13.476288795471191 -2.5
-6.670907974243164 -14.058671951293945 -2.5
-5.507822036743164 -14.522944450378418 -2.4953742027282715
-3.003955125808716 -14.714340209960938 -2.4127254486083984
-0.5933056473731995 -14.722773551940918 -2.367238998413086
0.593310534954071 -14.7227783203125 -2.367238998413086
1.787329077720642 -14.719999313354492 -2.3822412490844727
4.259545803070068 -14.705649375915527 -2.459681272506714
6.67092752456665 -14.058671951293945 -2.5
7.780541896820068 -13.476288795471191 -2.5
9.841532707214355 -12.053690910339355 -2.5
10.779541015625 -11.222695350646973 -2.5
11.647631645202637 -10.318910598754883 -2.5
13.778664588928223 -7.231591701507568 -2.5
14.315885543823242 -6.099418640136719 -2.5
14.760260581970215 -4.927695274353027 -2.5
15.10891056060791 -3.7240185737609863 -2.5
15.51061725616455 -1.2521483898162842 -2.5
-14.342880249023438 -2.330947160720825 -2.5
-14.108808517456055 -3.4775145053863525 -2.5
-13.368270874023438 -5.6956787109375 -2.5
-12.866605758666992 -6.752904891967773 -2.5
-12.281494140625 -7.766357421875 -2.5
-10.8766450881958 -9.635873794555664 -2.5
-10.066015243530273 -10.47982406616211 -2.5
-6.229350566864014 -13.128090858459473 -2.5
-5.152782917022705 -13.586767196655273 -2.5
-4.042788028717041 -13.9573335647583 -2.5
-1.7496337890625 -14.40951156616211 -2.4972968101501465
1.7496386766433716 -14.409506797790527 -2.4972968101501465
2.9065868854522705 -14.237377166748047 -2.5
6.229350566864014 -13.128080368041992 -2.5
8.254579544067383 -11.958818435668945 -2.5
9.19009780883789 -11.255829811096191 -2.5
10.066010475158691 -10.479833602905273 -2.5
10.8766450881958 -9.635873794555664 -2.5
11.616743087768555 -8.729418754577637 -2.5
12.281503677368164 -7.76635217666626 -2.5
12.866605758666992 -6.752910137176514 -2.5
13.368273735046387 -5.6956787109375 -2.5
13.783231735229492 -4.601518630981445 -2.5
-13.22972583770752 -3.2608349323272705 -2.5
-12.924448013305664 -4.314814567565918 -2.5
-12.5353364944458 -5.340805530548096 -2.5
-12.064936637878418 -6.332158088684082 -2.5
-11.516279220581055 -7.28246545791626 -2.5
-10.8929443359375 -8.185517311096191 -2.5
-9.438833236694336 -9.826860427856445 -2.5
-8.617485046386719 -10.554511070251465 -2.5
-7.74026346206665 -11.213715553283691 -2.5
-1.6423925161361694 -13.526323318481445 -2.5
-0.5486523509025574 -13.61461353302002 -2.5
0.5486523509025574 -13.614619255065918 -2.5
3.790898323059082 -13.087699890136719 -2.5
5.841220378875732 -12.3101167678833 -2.5
6.812836647033691 -11.8001708984375 -2.5
10.198965072631836 -9.035492897033691 -2.5
10.8929443359375 -8.185517311096191 -2.5
12.06493091583252 -6.332158088684082 -2.5
12.535341262817383 -5.340800762176514 -2.5
12.924448013305664 -4.314814567565918 -2.5
13.449225425720215 -2.1857080459594727 -2.5
13.581488609313965 -1.096411108970642 -2.5
-12.82345199584961 0.0 -2.5
-12.450815200805664 -3.068862199783325 -2.5
-12.163505554199219 -4.060776233673096 -2.5
-11.797308921813965 -5.026357173919678 -2.5
-10.838247299194336 -6.853696346282959 -2.5
-9.598481178283691 -8.503520011901855 -2.5
-8.8831148147583 -9.248295783996582 -2.5
-8.110126495361328 -9.93310546875 -2.5
-7.2845458984375 -10.553481101989746 -2.5
-5.497304439544678 -11.58535099029541 -2.5
-4.547265529632568 -11.990121841430664 -2.5
-3.5677099227905273 -12.317152976989746 -2.5
-2.565019369125366 -12.564291954040527 -2.5
-1.5457030534744263 -12.729955673217773 -2.5
0.5163476467132568 -12.813041687011719 -2.5
1.545693278312683 -12.729950904846191 -2.5
2.565019369125366 -12.564282417297363 -2.5
3.567704916000366 -12.317152976989746 -2.5
6.411728382110596 -11.105424880981445 -2.5
8.11013126373291 -9.933095932006836 -2.5
10.25161075592041 -7.703583717346191 -2.5
11.797308921813965 -5.026357173919678 -2.5
12.1635103225708 -4.060776233673096 -2.5
12.657387733459473 -2.057021379470825 -2.5
-12.10750961303711 1.4648437172581907e-05 -2.5
-12.068256378173828 -0.9742675423622131 -2.5
-11.950722694396973 -1.9421874284744263 -2.5
-11.755682945251465 -2.897524356842041 -2.5
-10.720673561096191 -5.626640319824219 -2.5
-10.233154296875 -6.471049785614014 -2.5
-9.6792573928833 -7.273490905761719 -2.5
-8.387177467346191 -8.73195743560791 -2.5
-6.053754806518555 -10.4854097366333 -2.5
-5.190395355224609 -10.9385347366333 -2.5
-4.293383598327637 -11.320717811584473 -2.5
-3.3685302734375 -11.62948226928711 -2.5
-1.4593993425369263 -12.019232749938965 -2.5
0.4875195324420929 -12.09769058227539 -2.5
1.4593993425369263 -12.019232749938965 -2.5
4.293378829956055 -11.32071304321289 -2.5
5.190395355224609 -10.938539505004883 -2.5
6.053759574890137 -10.485400199890137 -2.5
6.877851486206055 -9.964282035827637 -2.5
7.65734338760376 -9.378535270690918 -2.5
9.062602043151855 -8.028759956359863 -2.5
9.679266929626465 -7.273490905761719 -2.5
10.72066879272461 -5.626640319824219 -2.5
11.484418869018555 -3.834057569503784 -2.5
11.755693435668945 -2.89751935005188 -2.5
11.950722694396973 -1.9421874284744263 -2.5
-11.427329063415527 -0.9225097298622131 -2.5
-11.316044807434082 -1.8390380144119263 -2.5
-10.874506950378418 -3.630439281463623 -2.5
-10.547109603881836 -4.493696212768555 -2.5
-8.581303596496582 -7.602372646331787 -2.5
-7.941747665405273 -8.268232345581055 -2.5
-7.250673770904541 -8.880468368530273 -2.5
-4.065371036529541 -10.719501495361328 -2.5
-2.2931981086730957 -11.232816696166992 -2.5
-0.46162107586860657 -11.455204963684082 -2.5
0.46162596344947815 -11.455209732055664 -2.5
7.250673770904541 -8.880468368530273 -2.5
7.941752910614014 -8.268232345581055 -2.5
9.689697265625 -6.127392292022705 -2.5
10.151318550109863 -5.327817440032959 -2.5
10.547119140625 -4.493705749511719 -2.5
11.131376266479492 -2.743642568588257 -2.5
11.427343368530273 -0.9225097298622131 -2.5
-10.883706092834473 4.882812390860636e-06 -2.5
-10.5674409866333 -2.6046483516693115 -2.5
-10.323588371276855 -3.4465184211730957 -2.5
-9.637036323547363 -5.057914733886719 -2.5
-8.70089340209961 -6.538295745849609 -2.5
-8.146562576293945 -7.217236042022705 -2.5
-6.883334636688232 -8.43057632446289 -2.5
-5.441850662231445 -9.425556182861328 -2.5
-4.665751934051514 -9.8328857421875 -2.5
-3.8594090938568115 -10.176440238952637 -2.5
-1.3118847608566284 -10.804349899291992 -2.5
-0.4382373094558716 -10.874868392944336 -2.5
0.4382421672344208 -10.874873161315918 -2.5
2.1770262718200684 -10.663749694824219 -2.5
6.182651042938232 -8.957104682922363 -2.5
6.883344650268555 -8.43056583404541 -2.5
8.700898170471191 -6.538290977478027 -2.5
9.637041091918945 -5.057909965515137 -2.5
10.01278305053711 -4.266039848327637 -2.5
10.323588371276855 -3.4465136528015137 -2.5
10.742758750915527 -1.7458691596984863 -2.5
10.848402976989746 -0.8757714629173279 -2.5
-10.322768211364746 -0.8333398103713989 -2.5
-9.823373794555664 -3.2795214653015137 -2.5
-9.527631759643555 -4.059340953826904 -2.5
-9.170097351074219 -4.812841892242432 -2.5
-8.75308609008789 -5.535121917724609 -2.5
-8.279311180114746 -6.221494197845459 -2.5
-7.751840591430664 -6.867534160614014 -2.5
-7.17410135269165 -7.46902322769165 -2.5
-6.549818992614746 -8.022085189819336 -2.5
-5.883090496063232 -8.52310562133789 -2.5
-4.439687252044678 -9.356454849243164 -2.5
-0.41700682044029236 -10.347953796386719 -2.5
0.41700682044029236 -10.347953796386719 -2.5
1.2483251094818115 -10.280839920043945 -2.5
2.8813230991363525 -9.947461128234863 -2.5
3.6724119186401367 -9.683354377746582 -2.5
8.75308609008789 -5.535117149353027 -2.5
9.527636528015137 -4.059340953826904 -2.5
10.222241401672363 -1.6612744331359863 -2.5
-9.843276023864746 -0.7946337461471558 -2.5
-9.747421264648438 -1.5841015577316284 -2.5
-9.588339805603027 -2.3633251190185547 -2.5
-9.085073471069336 -3.87078595161438 -2.5
-8.744140625 -4.589282035827637 -2.5
-8.346503257751465 -5.278012752532959 -2.5
-7.894736289978027 -5.932504653930664 -2.5
-7.391772270202637 -6.548540115356445 -2.5
-6.840868949890137 -7.122084617614746 -2.5
-5.609809398651123 -8.127202033996582 -2.5
-4.937646389007568 -8.552260398864746 -2.5
-3.501826047897339 -9.233569145202637 -2.5
-2.747490167617798 -9.485404968261719 -2.5
-1.9753124713897705 -9.675726890563965 -2.5
0.3976367115974426 -9.867294311523438 -2.5
1.9753124713897705 -9.675726890563965 -2.5
2.7474803924560547 -9.485400199890137 -2.5
4.233466625213623 -8.921845436096191 -2.5
4.937646389007568 -8.552260398864746 -2.5
5.609819412231445 -8.127211570739746 -2.5
6.840859413146973 -7.122089862823486 -2.5
7.391767501831055 -6.548530101776123 -2.5
7.894741058349609 -5.932509422302246 -2.5
8.744145393371582 -4.589277267456055 -2.5
9.085078239440918 -3.870781183242798 -2.5
9.367084503173828 -3.127192258834839 -2.5
9.747421264648438 -1.5841113328933716 -2.5
-9.404008865356445 -0.7591650485992432 -2.5
-9.160449028015137 -2.2578516006469727 -2.5
-8.353925704956055 -4.384477615356445 -2.5
-6.535575866699219 -6.804252624511719 -2.5
-5.966865062713623 -7.308085918426514 -2.5
-5.359467506408691 -7.764516353607178 -2.5
-2.6248779296875 -9.062094688415527 -2.5
-1.8871581554412842 -9.24393081665039 -2.5
-1.1372168064117432 -9.36581039428711 -2.5
-0.3798925578594208 -9.426942825317383 -2.5
1.8871630430221558 -9.24393081665039 -2.5
5.359462738037109 -7.7645263671875 -2.5
5.966865062713623 -7.308080673217773 -2.5
7.061899185180664 -6.256293773651123 -2.5
7.974032878875732 -5.042465686798096 -2.5
8.353925704956055 -4.384472370147705 -2.5
8.679643630981445 -3.6980369091033936 -2.5
8.94906234741211 -2.9876365661621094 -2.5
9.160449028015137 -2.2578418254852295 -2.5
9.404008865356445 -0.75916987657547 -2.5
-9.029281616210938 4.882812390860636e-06 -2.5
-9.0 -0.7265527248382568 -2.5
-8.564594268798828 -2.8592772483825684 -2.5
-8.306747436523438 -3.5391697883605957 -2.5
-7.99502420425415 -4.196117877960205 -2.5
-7.2183837890625 -5.424262523651123 -2.5
-6.758505821228027 -5.987519264221191 -2.5
-6.254804611206055 -6.511933326721191 -2.5
-5.710522174835205 -6.994121074676514 -2.5
-1.8060888051986694 -8.846796989440918 -2.5
-1.0883593559265137 -8.963441848754883 -2.5
-0.36357420682907104 -9.021957397460938 -2.5
0.36357420682907104 -9.021947860717773 -2.5
1.0883642435073853 -8.963441848754883 -2.5
3.2018260955810547 -8.442514419555664 -2.5
3.870781183242798 -8.157500267028809 -2.5
6.254799842834473 -6.511938095092773 -2.5
6.758505821228027 -5.987509727478027 -2.5
7.631459712982178 -4.82583475112915 -2.5
7.995028972625732 -4.196113109588623 -2.5
8.766899108886719 -2.160844564437866 -2.5
8.912353515625 -1.448388695716858 -2.5
-8.627084732055664 -0.6964452862739563 -2.5
-8.543070793151855 -1.3883788585662842 -2.5
-8.403642654418945 -2.0713183879852295 -2.5
-7.962558269500732 -3.392529249191284 -2.5
-7.663749694824219 -4.022255897521973 -2.5
-7.315234184265137 -4.625898361206055 -2.5
-6.919301509857178 -5.199511528015137 -2.5
-5.473910808563232 -6.704326152801514 -2.5
-4.916679382324219 -7.123051643371582 -2.5
-3.710395336151123 -7.819506645202637 -2.5
-3.069155216217041 -8.092704772949219 -2.5
-2.408012628555298 -8.313427925109863 -2.5
-1.7312597036361694 -8.480238914489746 -2.5
-0.3485058546066284 -8.6481294631958 -2.5
0.3485107421875 -8.6481294631958 -2.5
2.408017635345459 -8.313422203063965 -2.5
3.710395336151123 -7.819501876831055 -2.5
4.327578067779541 -7.495575904846191 -2.5
4.916694164276123 -7.12304162979126 -2.5
6.478471755981445 -5.739428520202637 -2.5
7.315248966217041 -4.62588357925415 -2.5
7.663754940032959 -4.022241115570068 -2.5
8.209731101989746 -2.7408056259155273 -2.5
8.627089500427246 -0.6964452862739563 -2.5
-8.067235946655273 -1.9883984327316284 -2.5
-7.881083965301514 -2.6310887336730957 -2.5
-6.642314434051514 -4.991372108459473 -2.5
-5.755629539489746 -5.992236137390137 -2.5
-4.719868183135986 -6.837904930114746 -2.5
-3.5618603229522705 -7.5064697265625 -2.5
-2.3116209506988525 -7.980634689331055 -2.5
-1.661953091621399 -8.140766143798828 -2.5
-0.33455076813697815 -8.301933288574219 -2.5
1.661953091621399 -8.140756607055664 -2.5
2.3116161823272705 -7.980629920959473 -2.5
2.946293830871582 -7.768744945526123 -2.5
4.719862937927246 -6.837900161743164 -2.5
5.755620002746582 -5.992231369018555 -2.5
6.219130516052246 -5.509667873382568 -2.5
7.022411823272705 -4.44070291519165 -2.5
7.35696268081665 -3.8612303733825684 -2.5
8.20108413696289 -1.3328075408935547 -2.5
8.281733512878418 -0.6685693264007568 -2.5
-7.960907936096191 -0.6426708698272705 -2.5
-7.883388519287109 -1.2811766862869263 -2.5
-7.347700119018555 -3.130566358566284 -2.5
-5.978212833404541 -5.296240329742432 -2.5
-3.993408203125 -6.916781902313232 -2.5
-3.42388653755188 -7.215688228607178 -2.5
-2.832163095474243 -7.467797756195068 -2.5
-1.59756338596344 -7.825400352478027 -2.5
-0.9627001881599426 -7.928574085235596 -2.5
-0.3216015696525574 -7.980336666107178 -2.5
1.59756338596344 -7.825400352478027 -2.5
2.2220702171325684 -7.671469688415527 -2.5
3.423881769180298 -7.215683460235596 -2.5
4.537026405334473 -6.573007583618164 -2.5
7.071972370147705 -3.7116453647613525 -2.5
7.754731178283691 -1.911376953125 -2.5
7.883383750915527 -1.2811717987060547 -2.5
-7.071850299835205 -3.0130321979522705 -2.5
-6.806469440460205 -3.5723047256469727 -2.5
-5.753774166107178 -5.097402095794678 -2.5
-5.324946403503418 -5.543847560882568 -2.5
-4.366694450378418 -6.326244831085205 -2.5
-2.1386473178863525 -7.383466720581055 -2.5
-1.5375927686691284 -7.531606197357178 -2.5
-0.3095166087150574 -7.680727481842041 -2.5
0.30952146649360657 -7.680727481842041 -2.5
0.9265673756599426 -7.630912780761719 -2.5
2.725830078125 -7.187431335449219 -2.5
3.295341730117798 -6.944780349731445 -2.5
3.8434863090515137 -6.6571044921875 -2.5
4.366694450378418 -6.326244831085205 -2.5
5.324941158294678 -5.543857097625732 -2.5
5.75377893447876 -5.097397327423096 -2.5
6.806469440460205 -3.5723047256469727 -2.5
7.071850299835205 -3.0130321979522705 -2.5
7.291367053985596 -2.434213876724243 -2.5
7.463593482971191 -1.8396142721176147 -2.5
7.587426662445068 -1.2330760955810547 -2.5
7.662040710449219 -0.6185351610183716 -2.5
-7.406874656677246 0.0 -2.5
-7.025683403015137 -2.345512628555298 -2.5
-6.814169883728027 -2.903247117996216 -2.5
-6.260214805603027 -3.9587206840515137 -2.5
-4.6844482421875 -5.737402439117432 -2.5
-4.207587718963623 -6.09573221206665 -2.5
-2.060717821121216 -7.114433288574219 -2.5
-0.2982421815395355 -7.400864124298096 -2.5
0.2982470691204071 -7.400868892669678 -2.5
0.8928027153015137 -7.352870941162109 -2.5
1.4815722703933716 -7.257182598114014 -2.5
2.060717821121216 -7.114433288574219 -2.5
2.6265087127685547 -6.925546646118164 -2.5
5.130918025970459 -5.341850280761719 -2.5
5.921376705169678 -4.449618816375732 -2.5
6.260214805603027 -3.9587156772613525 -2.5
6.814169883728027 -2.9032421112060547 -2.5
7.191640377044678 -1.7725781202316284 -2.5
7.310956954956055 -1.188149333000183 -2.5
7.382861137390137 -0.595996081829071 -2.5
-6.776904106140137 -2.262460947036743 -2.5
-6.5728759765625 -2.8004345893859863 -2.5
-6.038535118103027 -3.818535089492798 -2.5
-5.347797870635986 -4.737739086151123 -2.5
-4.518559455871582 -5.534233093261719 -2.5
-3.5722997188568115 -6.187392234802246 -2.5
-3.0628318786621094 -6.454780101776123 -2.5
-0.8611816167831421 -7.092494964599609 -2.5
-0.2876855432987213 -7.1387939453125 -2.5
1.9877489805221558 -6.862504959106445 -2.5
2.533505916595459 -6.680302619934082 -2.5
3.5722997188568115 -6.187392234802246 -2.5
4.058588981628418 -5.879872798919678 -2.5
4.949223518371582 -5.152699947357178 -2.5
5.711689472198486 -4.292050838470459 -2.5
6.326215744018555 -3.32024884223938 -2.5
6.519853591918945 -2.777836799621582 -2.479832649230957
6.936982154846191 -1.709814429283142 -2.5
7.121420860290527 -0.5748974680900574 -2.5
-6.898412704467773 4.882812390860636e-06 -2.5
-6.809072017669678 -1.1065869331359863 -2.5
-6.346401214599609 -2.7039403915405273 -2.5
-5.830468654632568 -3.686967611312866 -2.5
-5.514882564544678 -4.1441650390625 -2.5
-5.163530349731445 -4.57449197769165 -2.5
-4.778696060180664 -4.975146293640137 -2.5
-4.362871170043945 -5.343539714813232 -2.5
-2.957289934158325 -6.232378005981445 -2.5
-1.9192577600479126 -6.626044750213623 -2.5
-0.8315087556838989 -6.848110198974609 -2.5
1.3798632621765137 -6.758994102478027 -2.5
1.9192626476287842 -6.626049518585205 -2.5
2.957289934158325 -6.232363224029541 -2.5
3.9187450408935547 -5.677279949188232 -2.5
4.362865924835205 -5.34353494644165 -2.5
5.163530349731445 -4.574487209320068 -2.5
5.514887809753418 -4.1441650390625 -2.5
5.830468654632568 -3.686967611312866 -2.5
6.108237266540527 -3.2058446407318115 -2.5
6.543388366699219 -2.184506893157959 -2.5
6.809072017669678 -1.1065869331359863 -2.5
6.876044750213623 -0.5550927519798279 -2.5
-6.580507755279541 -1.0694433450698853 -2.5
-6.473105430603027 -1.595483422279358 -2.5
-6.323744773864746 -2.1111717224121094 -2.5
-6.133354187011719 -2.613173723220825 -2.5
-5.9031982421875 -3.0982372760772705 -2.5
-5.329755783081055 -4.005048751831055 -2.5
-4.618281364440918 -4.80813455581665 -2.5
-3.7872021198272705 -5.486703872680664 -2.5
-3.3334226608276367 -5.773652076721191 -2.5
-2.858022451400757 -6.023159027099609 -2.5
-2.364091634750366 -6.233608245849609 -2.5
-1.8548290729522705 -6.403623104095459 -2.5
-1.3335399627685547 -6.53209924697876 -2.5
-0.8035986423492432 -6.618237018585205 -2.5
-0.26844725012779236 -6.661440372467041 -2.5
0.26844725012779236 -6.661435604095459 -2.5
0.8035986423492432 -6.618237018585205 -2.5
1.3335448503494263 -6.5321044921875 -2.5
1.854833960533142 -6.403623104095459 -2.5
2.3640966415405273 -6.233598709106445 -2.5
2.858022451400757 -6.023159027099609 -2.5
3.3334131240844727 -5.773647308349609 -2.5
4.216415882110596 -5.164165019989014 -2.5
4.618276119232178 -4.80813455581665 -2.5
5.634750843048096 -3.5631980895996094 -2.5
5.90319299697876 -3.0982275009155273 -2.5
6.323744773864746 -2.1111669540405273 -2.5
6.473114967346191 -1.5954736471176147 -2.5
6.580507755279541 -1.0694286823272705 -2.5
-6.427651405334473 -0.5188964605331421 -2.5
-6.261176586151123 -1.54324209690094 -2.5
-6.11669397354126 -2.042050838470459 -2.5
-4.078359127044678 -4.995087623596191 -2.5
-3.663198232650757 -5.307060241699219 -2.5
-1.794106364250183 -6.193959712982178 -2.5
-0.7772851586341858 -6.401547908782959 -2.5
-0.25965818762779236 -6.443329811096191 -2.5
0.25965818762779236 -6.443334579467773 -2.5
2.286689519882202 -6.029506683349609 -2.5
3.2242870330810547 -5.584614276885986 -2.5
4.467074871063232 -4.650712966918945 -2.5
5.450258731842041 -3.446533203125 -2.5
5.932548522949219 -2.5276172161102295 -2.5
6.11669921875 -2.042050838470459 -2.5
6.365058422088623 -1.0344140529632568 -2.5
-6.242421627044678 9.765624781721272e-06 -2.5
-6.061025142669678 -1.4939160346984863 -2.5
-5.921162128448486 -1.976772427558899 -2.5
-5.742895603179932 -2.4468164443969727 -2.5
-5.527387619018555 -2.900995969772339 -2.5
-5.276034832000732 -3.336367130279541 -2.5
-4.990458965301514 -3.7500829696655273 -2.5
-4.672519207000732 -4.139492034912109 -2.5
-4.324272155761719 -4.502045631408691 -2.5
-3.947993040084839 -4.835410118103027 -2.5
-3.5461034774780273 -5.137407302856445 -2.5
-3.121210813522339 -5.406093597412109 -2.5
-2.2135937213897705 -5.836757659912109 -2.5
-1.7367528676986694 -5.995956897735596 -2.5
0.25136229395866394 -6.237358093261719 -2.5
0.75244140625 -6.1968994140625 -2.5
1.2486474514007568 -6.116259574890137 -2.5
2.2135937213897705 -5.836757659912109 -2.5
2.676074266433716 -5.639711856842041 -2.5
3.5461034774780273 -5.137402057647705 -2.5
4.990463733673096 -3.750077962875366 -2.5
5.527392387390137 -2.900991201400757 -2.5
5.742900371551514 -2.4468164443969727 -2.5
5.921162128448486 -1.9767675399780273 -2.5
6.06102991104126 -1.4939111471176147 -2.5
6.161577224731445 -1.0013525485992432 -2.5
6.222182273864746 -0.5023046731948853 -2.5
-6.047372817993164 4.882812390860636e-06 -2.5
-5.969062328338623 -0.9700683355331421 -2.5
-5.871650218963623 -1.447231411933899 -2.5
-5.736152172088623 -1.915004849433899 -2.5
-5.563457012176514 -2.370366096496582 -2.5
-5.354687213897705 -2.8103466033935547 -2.5
-4.52651834487915 -4.010151386260986 -2.5
-3.435302734375 -4.976894378662109 -2.5
-2.1444287300109863 -5.654384613037109 -2.5
-0.24350585043430328 -6.042465686798096 -2.5
0.24350585043430328 -6.042470455169678 -2.5
0.728930652141571 -6.00329065322876 -2.5
1.6824853420257568 -5.808613300323486 -2.5
2.1444287300109863 -5.654399394989014 -2.5
3.435302734375 -4.976879596710205 -2.5
3.8246335983276367 -4.684326171875 -2.5
4.189159870147705 -4.361381530761719 -2.5
4.526528358459473 -4.010146617889404 -2.5
4.834526062011719 -3.6329100131988525 -2.5
5.111181735992432 -3.23211407661438 -2.5
5.354682445526123 -2.810351610183716 -2.5
5.871654987335205 -1.447231411933899 -2.5
-5.862519264221191 0.0 -2.5
-5.786601543426514 -0.9404150247573853 -2.5
-5.692158222198486 -1.4029881954193115 -2.5
-5.393398284912109 -2.297910213470459 -2.5
-4.954941272735596 -3.133315324783325 -2.5
-4.388154029846191 -3.887578010559082 -2.5
-3.7077245712280273 -4.541132926940918 -2.5
-2.9312596321105957 -5.077085018157959 -2.5
-2.0788769721984863 -5.481543064117432 -2.5
-1.6310497522354126 -5.631049633026123 -2.5
-1.1726561784744263 -5.744032859802246 -2.5
-0.7066503763198853 -5.819770336151123 -2.5
-0.23605956137180328 -5.857758522033691 -2.5
0.23605956137180328 -5.857763767242432 -2.5
0.7066503763198853 -5.819775104522705 -2.5
2.5132226943969727 -5.296494007110596 -2.5
2.931264638900757 -5.077085018157959 -2.5
3.707719564437866 -4.541127681732178 -2.5
4.061108112335205 -4.228066444396973 -2.5
4.388159275054932 -3.887568235397339 -2.5
5.191005706787109 -2.724443197250366 -2.5
5.393398284912109 -2.297905206680298 -2.5
5.786601543426514 -0.9404052495956421 -2.5
5.843505859375 -0.47172850370407104 -2.5
-5.687026023864746 0.0 -2.5
-5.668583869934082 -0.4576171636581421 -2.5
-5.394350528717041 -1.8008935451507568 -2.5
-4.806611061096191 -3.0395164489746094 -2.5
-3.596733331680298 -4.405195236206055 -2.5
-3.230600595474243 -4.68032693862915 -2.5
-2.843510627746582 -4.925102233886719 -2.5
-2.437978506088257 -5.137944221496582 -2.5
-2.0166454315185547 -5.317461013793945 -2.5
0.22899901866912842 -5.682406902313232 -2.5
0.6854931712150574 -5.645561218261719 -2.5
1.1375536918640137 -5.572089672088623 -2.5
1.5822314023971558 -5.462490081787109 -2.5
2.0166454315185547 -5.317455768585205 -2.5
2.843515634536743 -4.925102233886719 -2.5
3.230605363845825 -4.68032693862915 -2.5
3.59673810005188 -4.405195236206055 -2.5
3.9395408630371094 -4.101489067077637 -2.5
4.546450138092041 -3.4164257049560547 -2.5
5.231947898864746 -2.229116201400757 -2.5
5.394350528717041 -1.8008984327316284 -2.5
5.521772384643555 -1.3609960079193115 -2.5
5.613379001617432 -0.9122607111930847 -2.5
-5.502260684967041 -0.4441845715045929 -2.5
-5.236069202423096 -1.7480517625808716 -2.5
-5.078427791595459 -2.1637158393859863 -2.5
-4.887856483459473 -2.5653467178344727 -2.5
-4.413051605224609 -3.3161914348602295 -2.5
-4.131894588470459 -3.660537004470825 -2.5
-3.8239452838897705 -3.981152296066284 -2.5
-3.135810375213623 -4.542993068695068 -2.5
-2.366445302963257 -4.987187385559082 -2.5
-1.1041698455810547 -5.40859842300415 -2.5
-0.6653808355331421 -5.479907035827637 -2.5
-0.22227539122104645 -5.515683650970459 -2.5
0.22227539122104645 -5.515678405761719 -2.5
1.1041747331619263 -5.408593654632568 -2.5
1.9574755430221558 -5.161440372467041 -2.5
2.760077953338623 -4.780595779418945 -2.5
3.491201162338257 -4.275937557220459 -2.5
3.8239452838897705 -3.981147289276123 -2.5
4.413051605224609 -3.3161914348602295 -2.5
5.236069202423096 -1.7480517625808716 -2.5
5.502260684967041 -0.4441845715045929 -2.5
-5.291840553283691 -0.8600048422813416 -2.5
-5.20547342300415 -1.2830370664596558 -2.5
-5.08535623550415 -1.6977441310882568 -2.5
-4.747168064117432 -2.491503953933716 -2.5
-4.531293869018555 -2.86541485786438 -2.5
-4.286020278930664 -3.2207372188568115 -2.5
-3.713881731033325 -3.8665575981140137 -2.5
-3.3907079696655273 -4.152865886688232 -2.5
-2.6806347370147705 -4.642992973327637 -2.5
-2.2983250617980957 -4.843637466430664 -2.5
-0.6462255716323853 -5.32217264175415 -2.5
-0.21587401628494263 -5.356918811798096 -2.5
1.491601586341858 -5.149589538574219 -2.5
3.045546770095825 -4.4122314453125 -2.5
3.3907127380371094 -4.15286111831665 -2.5
4.01296854019165 -3.55517578125 -2.5
4.531289100646973 -2.86541485786438 -2.5
4.932260513305664 -2.101430654525757 -2.5
5.085361003875732 -1.6977392435073853 -2.5
5.205478191375732 -1.2830370664596558 -2.5
