ply
format ascii 1.0
element vertex 773
property float x
property float y
property float z
end_header
-15.712909698486328 -13.920419692993164 5.6248459815979
3.4564599990844727 -16.93104362487793 4.425596714019775
-15.726166725158691 -13.932157516479492 5.133383750915527
3.4497485160827637 -16.89826202392578 4.213948726654053
-15.732733726501465 -13.93798828125 4.889363765716553
3.4431347846984863 -16.86579132080078 4.004241466522217
-15.739291191101074 -13.943788528442383 4.646399974822998
-15.75230884552002 -13.955322265625 4.163357257843018
-28.55936050415039 -2.305546760559082 5.339123249053955
-15.758793830871582 -13.961054801940918 3.9231579303741455
3.4200439453125 -16.752723693847656 3.1861228942871094
-15.765238761901855 -13.966776847839355 3.683748722076416
3.418764591217041 -16.746444702148438 2.9893462657928467
-15.778090476989746 -13.978163719177246 3.207062244415283
3.416215658187866 -16.733964920043945 2.5984585285186768
24.29233741760254 -10.349989891052246 4.0169525146484375
3.4149534702301025 -16.72774314880371 2.4042444229125977
3.413691282272339 -16.721561431884766 2.2107763290405273
-15.797250747680664 -13.995136260986328 2.496448278427124
24.002309799194336 -10.22640609741211 2.7933380603790283
-15.809955596923828 -14.006386756896973 2.0249431133270264
3.409926652908325 -16.703153610229492 1.634350299835205
23.98772430419922 -10.220185279846191 2.4997215270996094
23.973169326782227 -10.213973999023438 2.2070837020874023
16.721508026123047 -24.225282669067383 2.1649158000946045
23.95866584777832 -10.207802772521973 1.9153497219085693
16.67253303527832 -24.15434455871582 1.8318322896957397
23.944204330444336 -10.201650619506836 1.6244421005249023
-15.847933769226074 -14.0400390625 0.6160577535629272
3.4024975299835205 -16.666748046875 0.4949541985988617
16.729310989379883 -24.236610412597656 0.8567221164703369
23.901025772094727 -10.18325138092041 0.7559378147125244
-15.854252815246582 -14.045634269714355 0.38145413994789124
3.401262044906616 -16.660722732543945 0.30623534321784973
16.729320526123047 -24.236600875854492 0.5303075909614563
3.400034189224243 -16.654687881469727 0.11772888153791428
23.872377395629883 -10.171034812927246 0.17971985042095184
-15.866918563842773 -14.056855201721191 -0.08809203654527664
16.729310989379883 -24.236610412597656 -0.12238296121358871
-15.87325668334961 -14.062460899353027 -0.32314667105674744
16.72932243347168 -24.236600875854492 -0.4487588405609131
23.843801498413086 -10.158866882324219 -0.39493805170059204
-15.879594802856445 -14.068076133728027 -0.5584697127342224
16.729320526123047 -24.236600875854492 -0.7752447128295898
23.829540252685547 -10.152792930603027 -0.6818598508834839
-15.88595199584961 -14.073710441589355 -0.7941230535507202
23.815284729003906 -10.146718978881836 -0.9686123728752136
-5.925073146820068 -20.455713272094727 -1.2699830532073975
3.3926756381988525 -16.618621826171875 -1.0114622116088867
23.786787033081055 -10.134570121765137 -1.5418654680252075
-28.533403396606445 -7.032841682434082 -2.0795085430145264
-28.275096893310547 -9.439570426940918 -2.1093575954437256
-15.905082702636719 -14.090654373168945 -1.5036184787750244
-16.771820068359375 -17.46126937866211 -1.7132415771484375
16.69589614868164 -24.188173294067383 -2.0797553062438965
17.034400939941406 -17.734697341918945 -1.7400704622268677
-29.5029296875 -4.79470682144165 -2.4482340812683105
-27.828519821166992 -6.859140396118164 -2.347599983215332
-27.186317443847656 -9.076112747192383 -2.347599983215332
-25.378353118896484 -13.319580078125 -2.347599983215332
-21.585678100585938 -16.22063446044922 -2.211595296859741
-16.46658706665039 -23.855966567993164 -2.3742871284484863
-14.502216339111328 -25.11858367919922 -2.375699281692505
-12.437495231628418 -26.211463928222656 -2.376372814178467
-10.286293983459473 -27.12269401550293 -2.3759713172912598
-4.134213924407959 -20.250732421875 -1.6929162740707397
-3.4884910583496094 -28.730224609375 -2.3705270290374756
3.489081859588623 -28.73515510559082 -2.3709299564361572
3.390204906463623 -16.606571197509766 -1.3882685899734497
8.0557222366333 -27.811542510986328 -2.371631622314453
10.262829780578613 -27.060888290405273 -2.3705544471740723
12.407035827636719 -26.147294998168945 -2.370551347732544
14.458125114440918 -25.042186737060547 -2.3684701919555664
12.832521438598633 -13.360087394714355 -1.5173285007476807
21.54915428161621 -19.09088897705078 -2.3580875396728516
22.833332061767578 -9.728339195251465 -2.0329129695892334
27.186307907104492 -9.076123237609863 -2.347599983215332
-26.512319564819336 -4.308681488037109 -2.5
-26.079662322998047 -6.428075790405273 -2.5
-22.33365249633789 -11.721611022949219 -2.347599983215332
-21.318031311035156 -13.48070240020752 -2.347599983215332
-15.233476638793945 -13.495683670043945 -1.8942272663116455
-14.393061637878418 -20.85194206237793 -2.3582327365875244
-6.153076171875 -16.224334716796875 -1.6150240898132324
-5.87438440322876 -20.280731201171875 -1.9652117490768433
0.8241015672683716 -20.449676513671875 -1.9048908948898315
3.388979434967041 -16.600555419921875 -1.5769563913345337
7.055229187011719 -24.357479095458984 -2.3602519035339355
12.659669876098633 -21.92720603942871 -2.3565878868103027
14.37125015258789 -20.820341110229492 -2.3546600341796875
11.292299270629883 -13.83056640625 -1.66184663772583
12.832846641540527 -13.3604097366333 -1.7242251634597778
18.87950325012207 -16.72579002380371 -2.347599983215332
20.16415023803711 -15.152372360229492 -2.347599983215332
21.31802749633789 -13.480712890625 -2.347599983215332
22.333642959594727 -11.721611022949219 -2.347599983215332
22.71018409729004 -9.675859451293945 -2.2975966930389404
23.924701690673828 -7.987246036529541 -2.347599983215332
-23.89984893798828 -1.9293944835662842 -2.5
-23.667064666748047 -3.8462889194488525 -2.5
-21.89725112915039 -9.329530715942383 -2.4816818237304688
-19.93683624267578 -10.463651657104492 -2.347599983215332
-18.00016975402832 -13.526259422302246 -2.347599983215332
-15.233476638793945 -13.495683670043945 -2.1219518184661865
-14.706225395202637 -15.310800552368164 -2.21347713470459
-12.790483474731445 -18.530214309692383 -2.347599983215332
-11.257953643798828 -19.49933624267578 -2.347599983215332
-9.659619331359863 -20.357234954833984 -2.3493590354919434
-6.153203010559082 -16.224668502807617 -1.8092195987701416
-6.276899337768555 -21.670391082763672 -2.3523173332214355
-4.202118873596191 -20.583330154418945 -2.190370798110962
-2.719980478286743 -22.400976181030273 -2.3527731895446777
-0.9083251953125 -22.540048599243164 -2.352024555206299
0.8445849418640137 -20.957948684692383 -2.1869328022003174
2.719374895095825 -22.396034240722656 -2.3522491455078125
11.257946968078613 -19.49933624267578 -2.347599983215332
16.8533878326416 -14.93080997467041 -2.347599983215332
18.00016975402832 -13.526249885559082 -2.347599983215332
19.936830520629883 -10.463671684265137 -2.347599983215332
23.28081703186035 -5.738222599029541 -2.5
23.667064666748047 -3.846269369125366 -2.5
-21.57870101928711 -1.7420116662979126 -2.5
-21.368539810180664 -3.472734212875366 -2.5
-20.534770965576172 -6.855507850646973 -2.5
-19.169145584106445 -10.060731887817383 -2.5
-17.70915985107422 -11.198583602905273 -2.4196224212646484
-14.082504272460938 -14.661455154418945 -2.347599983215332
-12.857084274291992 -15.747089385986328 -2.347599983215332
-11.548295974731445 -16.7305850982666 -2.347599983215332
-8.714956283569336 -18.36641502380371 -2.347599983215332
-5.655932426452637 -19.52654266357422 -2.347599983215332
-0.8185693025588989 -20.312685012817383 -2.347599983215332
0.8185790777206421 -20.312685012817383 -2.347599983215332
12.833466529846191 -13.361063957214355 -2.13938045501709
15.2166109085083 -13.480731964111328 -2.347599983215332
16.25202178955078 -12.212597846984863 -2.347599983215332
17.488271713256836 -11.05892562866211 -2.3894429206848145
19.91653823852539 -8.485644340515137 -2.5
20.53476333618164 -6.855507850646973 -2.5
21.019813537597656 -5.18093729019165 -2.5
21.36854362487793 -3.472734212875366 -2.5
-19.72798728942871 9.765624781721272e-06 -2.5
-19.472515106201172 -3.16460919380188 -2.5
-18.712718963623047 -6.247226238250732 -2.5
-17.468265533447266 -9.168046951293945 -2.5
-15.733134269714355 -11.822714805603027 -2.4939348697662354
-14.094003677368164 -12.486190795898438 -2.386127233505249
-10.523603439331055 -15.246073722839355 -2.347599983215332
-7.941674709320068 -16.736757278442383 -2.347599983215332
-6.153451919555664 -16.225311279296875 -2.199028491973877
-3.7055418491363525 -18.15096664428711 -2.347599983215332
-0.7459325790405273 -18.51034164428711 -2.347599983215332
2.2329931259155273 -18.39029312133789 -2.347599983215332
6.569184303283691 -17.321523666381836 -2.347599983215332
11.261191368103027 -13.79246997833252 -2.2564141750335693
12.83297061920166 -13.360536575317383 -2.347599983215332
18.14933967590332 -7.732705116271973 -2.5
19.15471649169922 -4.721230506896973 -2.5
19.472509384155273 -3.16460919380188 -2.5
19.664012908935547 -1.5874511003494263 -2.5
-17.589624404907227 -4.335458755493164 -2.5
-17.183744430541992 -5.736786842346191 -2.5
-13.560053825378418 -12.01317310333252 -2.5
-12.449262619018555 -12.96108341217041 -2.4800472259521484
-9.6637544631958 -14.000370979309082 -2.347599983215332
-2.050546884536743 -16.887664794921875 -2.347599983215332
3.223757266998291 -15.791181564331055 -2.2241125106811523
4.547128677368164 -15.698691368103027 -2.2554495334625244
7.292792797088623 -15.369218826293945 -2.347599983215332
8.505846977233887 -14.73256778717041 -2.347599983215332
9.663749694824219 -14.000361442565918 -2.347599983215332
10.8831787109375 -13.329463005065918 -2.3747003078460693
12.385565757751465 -12.894745826721191 -2.467355251312256
13.560068130493164 -12.013163566589355 -2.5
16.666400909423828 -7.100888729095459 -2.5
18.057310104370117 -1.4577343463897705 -2.5
-16.743764877319336 0.0 -2.5
-16.68946647644043 -1.347314476966858 -2.5
-16.25721549987793 -4.007060527801514 -2.5
-15.88206958770752 -5.302206993103027 -2.5
-15.403905868530273 -6.56298828125 -2.5
-14.8258638381958 -7.781210899353027 -2.5
-13.385668754577637 -10.058691024780273 -2.5
-11.598808288574219 -12.075634956359863 -2.5
-10.589516639709473 -12.96981430053711 -2.5
-9.461586952209473 -13.707480430603027 -2.486868143081665
-8.080517768859863 -13.995849609375 -2.4129889011383057
-5.575473308563232 -14.701327323913574 -2.347599983215332
-4.374423503875732 -15.10228443145752 -2.347599983215332
-0.6330956816673279 -15.710311889648438 -2.347599983215332
0.6331103444099426 -15.710311889648438 -2.347599983215332
1.8952196836471558 -15.608427047729492 -2.347599983215332
3.145026683807373 -15.405302047729492 -2.347599983215332
4.374428749084473 -15.10228443145752 -2.347599983215332
8.055346488952637 -13.952255249023438 -2.4054760932922363
11.59881591796875 -12.075644493103027 -2.5
12.532885551452637 -11.103163719177246 -2.5
13.385687828063965 -10.058691024780273 -2.5
15.882064819335938 -5.302226543426514 -2.5
-15.510629653930664 -1.2521483898162842 -2.5
-15.359580039978027 -2.496171712875366 -2.5
-15.108920097351074 -3.7240331172943115 -2.5
-13.778656959533691 -7.231591701507568 -2.5
-11.647645950317383 -10.318915367126465 -2.5
-8.839712142944336 -12.806532859802246 -2.5
-5.454970359802246 -14.3836030960083 -2.4714293479919434
-4.2071533203125 -14.524785041809082 -2.4294273853302
-2.9859862327575684 -14.626376152038574 -2.3982996940612793
-1.7838475704193115 -14.691288948059082 -2.3775956630706787
0.5931103229522705 -14.717714309692383 -2.366424083709717
1.7825145721435547 -14.6802339553833 -2.3758058547973633
5.442910194396973 -14.351777076721191 -2.4659624099731445
6.6571044921875 -14.029550552368164 -2.494821786880493
10.779547691345215 -11.222684860229492 -2.5
11.647650718688965 -10.3189058303833 -2.5
13.152079582214355 -8.316864967346191 -2.5
14.315878868103027 -6.099423885345459 -2.5
14.760258674621582 -4.927695274353027 -2.5
-14.531059265136719 9.765624781721272e-06 -2.5
-14.483935356140137 -1.1692675352096558 -2.5
-14.342880249023438 -2.3309569358825684 -2.5
-14.108808517456055 -3.477529287338257 -2.5
-13.368266105651855 -5.695703029632568 -2.5
-12.86661148071289 -6.752919673919678 -2.5
-5.149242877960205 -3.256171703338623 -1.0481687784194946
-11.616747856140137 -8.729433059692383 -2.5
-10.06600570678711 -10.479843139648438 -2.5
-7.265542030334473 -12.584277153015137 -2.5
-4.042792797088623 -13.9573335647583 -2.5
-2.905263662338257 -14.230937004089355 -2.4988667964935303
-1.7493212223052979 -14.406982421875 -2.496859312057495
-0.5841162204742432 -14.49501895904541 -2.49582576751709
0.5841113328933716 -14.4946870803833 -2.4957666397094727
1.7492040395736694 -14.405966758728027 -2.4966821670532227
2.9049413204193115 -14.229257583618164 -2.4985716342926025
5.152782917022705 -13.586767196655273 -2.5
9.190102577209473 -11.255839347839355 -2.5
10.066020011901855 -10.47982406616211 -2.5
11.61674976348877 -8.729423522949219 -2.5
12.281503677368164 -7.766357421875 -2.5
12.86661148071289 -6.752939224243164 -2.5
13.783242225646973 -4.601523399353027 -2.5
14.108808517456055 -3.4775097370147705 -2.5
14.342880249023438 -2.3309569358825684 -2.5
14.483927726745605 -1.1692675352096558 -2.5
-13.449223518371582 -2.1857128143310547 -2.5
-13.229741096496582 -3.2608494758605957 -2.5
-12.924448013305664 -4.314814567565918 -2.5
-5.295014381408691 -2.7790331840515137 -1.0971896648406982
-4.737358093261719 -2.995732307434082 -1.028402328491211
-4.521098613739014 -3.397392511367798 -1.037619948387146
-7.74026346206665 -11.213720321655273 -2.5
-3.790903329849243 -13.0877046585083 -2.5
-2.725473642349243 -13.350312232971191 -2.5
-1.6423925161361694 -13.526328086853027 -2.5
-0.5486376881599426 -13.614619255065918 -2.5
0.5486499071121216 -13.614628791809082 -2.5
2.7255003452301025 -13.350302696228027 -2.5
3.790903329849243 -13.0877046585083 -2.5
4.83172607421875 -12.74022388458252 -2.5
6.812836647033691 -11.80019474029541 -2.5
7.74026346206665 -11.21371078491211 -2.5
9.438838005065918 -9.826874732971191 -2.5
11.516288757324219 -7.282451152801514 -2.5
12.064926147460938 -6.332167625427246 -2.5
12.535344123840332 -5.340810298919678 -2.5
12.924443244934082 -4.314824104309082 -2.5
13.229731559753418 -3.2608494758605957 -2.5
13.449223518371582 -2.185722589492798 -2.5
13.581488609313965 -1.0964159965515137 -2.5
-12.781869888305664 -1.0318652391433716 -2.5
-12.657387733459473 -2.0570311546325684 -2.5
-12.1635103225708 -4.060781002044678 -2.5
-5.091245174407959 -2.6720898151397705 -1.120962381362915
-4.530112266540527 -2.8646678924560547 -1.0449339151382446
-4.298945426940918 -3.230458974838257 -1.0483566522598267
-8.883110046386719 -9.248320579528809 -2.5
-8.110126495361328 -9.933115005493164 -2.5
-7.284550666809082 -10.553495407104492 -2.5
-2.565014600753784 -12.56429672241211 -2.5
-1.5456981658935547 -12.729950904846191 -2.5
-0.5163378715515137 -12.813055992126465 -2.5
3.5677099227905273 -12.317167282104492 -2.5
7.284550666809082 -10.553485870361328 -2.5
8.11013126373291 -9.93310546875 -2.5
8.883124351501465 -9.248300552368164 -2.5
10.251615524291992 -7.703593730926514 -2.5
10.83825397491455 -6.853701114654541 -2.5
11.354598999023438 -5.959355354309082 -2.5
11.797304153442383 -5.0263671875 -2.5
12.450819969177246 -3.06884765625 -2.5
12.7818603515625 -1.0318554639816284 -2.5
-12.10750961303711 -9.765624781721272e-06 -2.5
-11.950727462768555 -1.9421972036361694 -2.5
-11.484428405761719 -3.834062337875366 -2.5
-5.04226541519165 -2.6463963985443115 -1.1758267879486084
-7.657333850860596 -9.378554344177246 -2.5
-6.053759574890137 -10.485419273376465 -2.5
-5.190405368804932 -10.9385347366333 -2.5
-4.293383598327637 -11.320732116699219 -2.5
-3.368525266647339 -11.629491806030273 -2.5
-2.421811580657959 -11.862841606140137 -2.5
0.4875268340110779 -12.097695350646973 -2.5
2.421821117401123 -11.862832069396973 -2.5
5.190405368804932 -10.9385347366333 -2.5
6.877853870391846 -9.964277267456055 -2.5
8.387163162231445 -8.731972694396973 -2.5
9.062604904174805 -8.028769493103027 -2.5
10.233149528503418 -6.471054553985596 -2.5
10.720678329467773 -5.626640319824219 -2.5
11.13866138458252 -4.745741844177246 -2.5
11.484418869018555 -3.834062337875366 -2.5
11.950727462768555 -1.942177653312683 -2.5
12.068246841430664 -0.9742480516433716 -2.5
-11.464526176452637 0.0 -2.5
-11.42733383178711 -0.9225097298622131 -2.5
-4.287236213684082 -2.7110838890075684 -1.1061314344406128
-4.054340839385986 -3.046640634536743 -1.1059024333953857
-4.914760589599609 -10.357636451721191 -2.5
-4.065361022949219 -10.719511032104492 -2.5
-2.2931981086730957 -11.232831954956055 -2.5
-1.3819042444229126 -11.380937576293945 -2.5
-0.461616188287735 -11.455214500427246 -2.5
0.46163085103034973 -11.455214500427246 -2.5
3.189626455307007 -11.01187515258789 -2.5
6.512587547302246 -9.435107231140137 -2.5
7.941747665405273 -8.268241882324219 -2.5
9.689682006835938 -6.127382755279541 -2.5
10.151318550109863 -5.327822208404541 -2.5
10.547125816345215 -4.493710994720459 -2.5
10.874513626098633 -3.6304588317871094 -2.5
-10.883706092834473 0.0 -2.5
-10.848407745361328 -0.875781238079071 -2.5
-10.74276351928711 -1.74587881565094 -2.5
-10.323588371276855 -3.4465136528015137 -2.5
-4.94644021987915 -2.5960936546325684 -1.2831840515136719
-7.539403915405273 -7.849365234375 -2.5
-6.883344650268555 -8.430585861206055 -2.5
-6.18264627456665 -8.957128524780273 -2.5
-5.441850662231445 -9.425565719604492 -2.5
-4.665766716003418 -9.83290958404541 -2.5
-3.8594138622283936 -10.176435470581055 -2.5
-3.0280418395996094 -10.45401382446289 -2.5
-2.177016496658325 -10.663759231567383 -2.5
-1.3118994235992432 -10.80435562133789 -2.5
-0.43824705481529236 -10.874892234802246 -2.5
0.4382568299770355 -10.874882698059082 -2.5
1.3119043111801147 -10.804335594177246 -2.5
3.8594138622283936 -10.176435470581055 -2.5
5.441855430603027 -9.425556182861328 -2.5
6.18264627456665 -8.957109451293945 -2.5
6.883351802825928 -8.430556297302246 -2.5
8.146576881408691 -7.217236042022705 -2.5
10.012792587280273 -4.266044616699219 -2.5
10.742758750915527 -1.7458691596984863 -2.5
10.848407745361328 -0.875781238079071 -2.5
-10.322772979736328 -0.8333398103713989 -2.5
-10.222241401672363 -1.6612889766693115 -2.5
-10.055415153503418 -2.478456974029541 -2.5
-4.898124694824219 -2.570742130279541 -1.3353506326675415
-3.8666064739227295 -2.90557599067688 -1.1675492525100708
-5.178183555603027 -8.968876838684082 -2.5
-2.8813183307647705 -9.947480201721191 -2.5
-2.071537971496582 -10.147069931030273 -2.5
-1.2483203411102295 -10.28084945678711 -2.5
-0.41700682044029236 -10.347968101501465 -2.5
2.071550130844116 -10.14706039428711 -2.5
2.8813257217407227 -9.947461128234863 -2.5
4.439692497253418 -9.356464385986328 -2.5
5.178173542022705 -8.968867301940918 -2.5
7.17410135269165 -7.46902322769165 -2.5
7.751855373382568 -6.867528915405273 -2.5
8.279315948486328 -6.221503734588623 -2.5
9.170092582702637 -4.812841892242432 -2.5
9.527636528015137 -4.059345722198486 -2.5
10.222243309020996 -1.6612792015075684 -2.5
-9.747421264648438 -1.5841211080551147 -2.5
-9.58834457397461 -2.363330125808716 -2.5
-4.850121974945068 -2.545536994934082 -1.3866753578186035
-4.213056564331055 -2.6641697883605957 -1.2619205713272095
-3.7994384765625 -2.855107307434082 -1.2031556367874146
-3.7004833221435547 -3.2783398628234863 -1.2515541315078735
-3.615043878555298 -3.763671875 -1.3211238384246826
-6.245590686798096 -7.649472713470459 -2.5
-5.609809398651123 -8.127226829528809 -2.5
-4.233471393585205 -8.921845436096191 -2.5
-3.501821279525757 -9.233573913574219 -2.5
-2.747490167617798 -9.4854097366333 -2.5
-1.1903417110443115 -9.803300857543945 -2.5
0.39763182401657104 -9.867304801940918 -2.5
2.747485399246216 -9.4854097366333 -2.5
4.233461856842041 -8.921835899353027 -2.5
4.93765115737915 -8.552255630493164 -2.5
5.609814167022705 -8.127206802368164 -2.5
6.245595455169678 -7.649453163146973 -2.5
7.391774654388428 -6.548534870147705 -2.5
8.346508979797363 -5.278007507324219 -2.5
9.085067749023438 -3.870781183242798 -2.5
9.367084503173828 -3.127207040786743 -2.5
9.747419357299805 -1.5841113328933716 -2.5
-9.434609413146973 0.0 -2.5
-8.949067115783691 -2.9876463413238525 -2.5
-4.802793025970459 -2.520703077316284 -1.4372844696044922
-4.188701152801514 -2.6487693786621094 -1.3132305145263672
-3.740043878555298 -2.8104588985443115 -1.239668607711792
-3.629770517349243 -3.215703010559082 -1.2849841117858887
-3.3455467224121094 -8.821513175964355 -2.5
-1.8871581554412842 -9.243945121765137 -2.5
-1.1372265815734863 -9.365829467773438 -2.5
-0.3798925578594208 -9.426962852478027 -2.5
2.624872922897339 -9.06209945678711 -2.5
4.044536113739014 -8.523691177368164 -2.5
4.717309474945068 -8.170605659484863 -2.5
5.359472751617432 -7.764531135559082 -2.5
5.966879844665527 -7.308085918426514 -2.5
7.061903953552246 -6.256308555603027 -2.5
7.974025726318359 -5.04248046875 -2.5
8.679633140563965 -3.6980466842651367 -2.5
8.949048042297363 -2.9876463413238525 -2.5
9.404006004333496 -0.75916987657547 -2.5
-9.000004768371582 -0.7265625 -2.5
-8.766899108886719 -2.1608691215515137 -2.5
-5.5052490234375 -2.345576047897339 -1.656859040260315
-4.164482116699219 -2.6334569454193115 -1.364248514175415
-3.5626707077026367 -3.15625 -1.317842960357666
-5.710522174835205 -6.994130611419678 -2.5
-3.870795726776123 -8.157519340515137 -2.5
-3.201835870742798 -8.44253921508789 -2.5
-1.0883642435073853 -8.9634370803833 -2.5
-0.36357420682907104 -9.021952629089355 -2.5
2.5121142864227295 -8.672792434692383 -2.5
3.2018213272094727 -8.442519187927246 -2.5
3.870783567428589 -8.157500267028809 -2.5
5.129228591918945 -7.430947303771973 -2.5
5.710515022277832 -6.994121074676514 -2.5
6.254799842834473 -6.511933326721191 -2.5
7.21837854385376 -5.424277305603027 -2.5
7.99502420425415 -4.196132659912109 -2.5
8.306747436523438 -3.5391697883605957 -2.5
8.564594268798828 -2.8592870235443115 -2.5
-8.6551513671875 0.0 -2.5
-8.627084732055664 -0.6964550614356995 -2.5
-8.543066024780273 -1.3883984088897705 -2.5
-8.403647422790527 -2.0713281631469727 -2.5
-5.469580173492432 -2.330371141433716 -1.717276930809021
-4.682290077209473 -2.457460880279541 -1.5274096727371216
-4.138994216918945 -2.6173338890075684 -1.4145045280456543
-3.5998876094818115 -2.705146312713623 -1.3006691932678223
-3.495961904525757 -3.097158193588257 -1.3490657806396484
-3.389101505279541 -3.5284276008605957 -1.4131513833999634
-5.473910808563232 -6.704335689544678 -2.5
-3.710395336151123 -7.819511413574219 -2.5
-2.408022403717041 -8.313437461853027 -2.5
-1.7312548160552979 -8.480254173278809 -2.5
0.3485034108161926 -8.648124694824219 -2.5
1.0432592630386353 -8.592041015625 -2.5
2.4080052375793457 -8.313437461853027 -2.5
3.710395336151123 -7.819511413574219 -2.5
5.473901271820068 -6.704326152801514 -2.5
5.995625019073486 -6.242118835449219 -2.5
6.478471755981445 -5.739433288574219 -2.5
7.315244197845459 -4.625888347625732 -2.5
7.663754940032959 -4.022265434265137 -2.5
8.403644561767578 -2.0713086128234863 -2.5
8.543075561523438 -1.3883886337280273 -2.5
8.627089500427246 -0.6964648365974426 -2.5
-8.28173828125 -0.6685839891433716 -2.5
-8.201079368591309 -1.3328124284744263 -2.5
-8.067240715026855 -1.9884082078933716 -2.5
-7.881078720092773 -2.631093740463257 -2.5
-3.562612295150757 -2.677128791809082 -1.3408743143081665
-3.4294140338897705 -3.0381932258605957 -1.3785723447799683
-3.3053369522094727 -3.44122052192688 -1.4356967210769653
-3.1454832553863525 -3.8525195121765137 -1.4964849948883057
-4.719872951507568 -6.83791971206665 -2.5
-4.154345512390137 -7.195527076721191 -2.5
-1.0015087127685547 -8.2481050491333 -2.5
2.3116209506988525 -7.980644226074219 -2.5
3.5618579387664795 -7.506484031677246 -2.5
4.154330730438232 -7.195537090301514 -2.5
4.719862937927246 -6.837900161743164 -2.5
6.642304420471191 -4.991376876831055 -2.5
7.022402286529541 -4.44070291519165 -2.5
7.35696268081665 -3.8612303733825684 -2.5
7.643801212310791 -3.256718635559082 -2.5
7.881073951721191 -2.631103515625 -2.5
8.067235946655273 -1.9883984327316284 -2.5
8.201068878173828 -1.3328124284744263 -2.5
8.281740188598633 -0.6685742139816284 -2.5
-7.98681116104126 0.0 -2.5
-7.883393287658691 -1.2811815738677979 -2.5
-5.424975395202637 -2.3113670349121094 -1.845802903175354
-4.032279968261719 -2.549863338470459 -1.4933539628982544
-3.056635618209839 -3.74371075630188 -1.5128207206726074
-4.537026405334473 -6.57302713394165 -2.5
-3.423891544342041 -7.215703010559082 -2.5
-1.59756338596344 -7.825409889221191 -2.5
-0.3216015696525574 -7.980351448059082 -2.5
3.4238767623901367 -7.21569299697876 -2.5
3.9933958053588867 -6.916787147521973 -2.5
7.754733562469482 -1.911376953125 -2.5
7.960912704467773 -0.6426757574081421 -2.5
-7.686967372894287 0.0 -2.5
-7.662035942077637 -0.6185449361801147 -2.5
-7.587416648864746 -1.2330858707427979 -2.5
-7.463598251342773 -1.83962881565094 -2.5
-7.291362285614014 -2.4342284202575684 -2.5
-5.393784046173096 -2.2980663776397705 -1.9067789316177368
-4.558032035827637 -2.3922362327575684 -1.674151062965393
-3.9769773483276367 -2.514892578125 -1.5303226709365845
-3.12811017036438 -3.256708860397339 -1.4686129093170166
-4.366694450378418 -6.326250076293945 -2.5
-3.29534649848938 -6.944804668426514 -2.5
-2.725834846496582 -7.187441349029541 -2.5
-2.1386523246765137 -7.383486270904541 -2.5
-0.9265722632408142 -7.630927562713623 -2.5
0.9265576004981995 -7.630927562713623 -2.5
2.1386401653289795 -7.383486270904541 -2.5
3.8434789180755615 -6.657109260559082 -2.5
4.366689205169678 -6.326259613037109 -2.5
5.753774166107178 -5.097392559051514 -2.5
6.145283222198486 -4.617890357971191 -2.5
6.806464672088623 -3.5723142623901367 -2.5
7.071850299835205 -3.0130369663238525 -2.5
7.463595867156982 -1.83962881565094 -2.5
7.662035942077637 -0.6185546517372131 -2.5
-7.406869888305664 9.765624781721272e-06 -2.5
-7.382856369018555 -0.5960156321525574 -2.5
-7.191586971282959 -1.7723437547683716 -2.5
-7.025688171386719 -2.345527410507202 -2.5
-5.393784046173096 -2.2980663776397705 -1.9788836240768433
-3.923901319503784 -2.481328010559082 -1.5669976472854614
-3.054448127746582 -3.1800193786621094 -1.4882537126541138
-2.877875804901123 -3.5247557163238525 -1.5358675718307495
-3.703447103500366 -6.41455078125 -2.5
-3.1752781867980957 -6.691757678985596 -2.5
-2.626518487930298 -6.925556659698486 -2.5
0.2982421815395355 -7.400868892669678 -2.5
1.4815673828125 -7.257187366485596 -2.5
2.060717821121216 -7.114452838897705 -2.5
2.6265110969543457 -6.925556659698486 -2.5
4.207582950592041 -6.09573221206665 -2.5
4.684443473815918 -5.737411975860596 -2.5
5.130912780761719 -5.341865062713623 -2.5
5.544116020202637 -4.911660194396973 -2.5
5.921367168426514 -4.449618816375732 -2.5
6.814167499542236 -2.903251886367798 -2.5
7.191637992858887 -1.7725976705551147 -2.5
7.382846355438232 -0.5960058569908142 -2.5
-7.144584655761719 0.0 -2.5
-7.052070140838623 -1.146093726158142 -2.5
-5.393784046173096 -2.2980663776397705 -2.0515296459198
-3.879081964492798 -2.4529881477355957 -1.6059681177139282
-3.1520018577575684 -2.792431592941284 -1.4735006093978882
-2.797114133834839 -3.425849437713623 -1.5475698709487915
-2.6331005096435547 -3.8147168159484863 -1.6219302415847778
-3.5722997188568115 -6.187402248382568 -2.5
-2.533505916595459 -6.680312156677246 -2.5
-1.9877489805221558 -6.862519264221191 -2.5
-1.429101586341858 -7.000205039978027 -2.5
-0.8611962795257568 -7.092499732971191 -2.5
-0.2876855432987213 -7.138798713684082 -2.5
0.28767088055610657 -7.138808250427246 -2.5
0.8611840605735779 -7.092490196228027 -2.5
1.4290918111801147 -7.000205039978027 -2.5
3.062812328338623 -6.454794883728027 -2.5
3.5722923278808594 -6.187411785125732 -2.5
4.058588981628418 -5.8798828125 -2.5
4.949216365814209 -5.152705192565918 -2.5
5.711689472198486 -4.292060375213623 -2.5
6.57287073135376 -2.8004393577575684 -2.5
6.776901721954346 -2.2624707221984863 -2.5
7.052070140838623 -1.1460741758346558 -2.5
7.121418476104736 -0.574902355670929 -2.5
-6.876035213470459 -0.5550878643989563 -2.5
-6.809072017669678 -1.106591820716858 -2.5
-3.865668773651123 -2.4445018768310547 -1.6575276851654053
-3.389101505279541 -2.546757698059082 -1.536340355873108
-3.0969433784484863 -2.74365234375 -1.4994282722473145
-2.917900323867798 -3.0378613471984863 -1.5265142917633057
-2.568373918533325 -3.720937490463257 -1.6385167837142944
-3.449208974838257 -5.974208831787109 -2.5
-2.9572997093200684 -6.232382774353027 -2.5
-0.8315234184265137 -6.848124980926514 -2.5
-0.27776122093200684 -6.892822265625 -2.5
0.2777636647224426 -6.892822265625 -2.5
1.919252872467041 -6.626044750213623 -2.5
2.957289934158325 -6.232382774353027 -2.5
3.4492039680480957 -5.974208831787109 -2.5
4.778691291809082 -4.975156307220459 -2.5
5.830458641052246 -3.6869726181030273 -2.5
6.108232498168945 -3.20586895942688 -2.5
6.346388816833496 -2.7039451599121094 -2.5
6.697948932647705 -1.65090811252594 -2.5
6.80907678604126 -1.106591820716858 -2.5
6.876042366027832 -0.5550878643989563 -2.5
-6.666840553283691 9.765624781721272e-06 -2.5
-5.393784046173096 -2.2980663776397705 -2.1985442638397217
-3.8615965843200684 -2.4419238567352295 -1.7132912874221802
-3.0494627952575684 -2.701591730117798 -1.5277230739593506
-2.853686571121216 -2.97100567817688 -1.5447732210159302
-2.6598241329193115 -3.257695198059082 -1.5770652294158936
-2.858027219772339 -6.023163795471191 -2.5
-2.3641014099121094 -6.233603477478027 -2.5
-1.854833960533142 -6.403632640838623 -2.5
-0.2684570252895355 -6.661445140838623 -2.5
1.854824185371399 -6.403632640838623 -2.5
4.216408729553223 -5.164179801940918 -2.5
4.618271350860596 -4.808144569396973 -2.5
5.329755783081055 -4.005068302154541 -2.5
5.634746074676514 -3.5632030963897705 -2.5
5.903181076049805 -3.0982420444488525 -2.5
6.133354187011719 -2.6131834983825684 -2.5
6.323740005493164 -2.1111717224121094 -2.5
6.473119735717773 -1.59548819065094 -2.5
6.580502986907959 -1.069433569908142 -2.5
-6.448559284210205 -9.765624781721272e-06 -2.5
-6.427660942077637 -0.5189062356948853 -2.5
-6.261186599731445 -1.5432616472244263 -2.5
-6.116703987121582 -2.042060613632202 -2.5
-4.536025524139404 -2.380693197250366 -1.9860271215438843
-3.857485294342041 -2.439335823059082 -1.7694027423858643
-3.320131778717041 -2.494921922683716 -1.6100698709487915
-2.602841854095459 -3.1879100799560547 -1.5955145359039307
-2.449770450592041 -3.5491113662719727 -1.6718777418136597
-2.7644481658935547 -5.82595682144165 -2.5
-0.25965818762779236 -6.443349361419678 -2.5
0.2596508860588074 -6.443339824676514 -2.5
0.7772802710533142 -6.401542663574219 -2.5
1.2898778915405273 -6.318261623382568 -2.5
1.79409658908844 -6.19396448135376 -2.5
2.7644457817077637 -5.82595682144165 -2.5
3.6631932258605957 -5.307070255279541 -2.5
4.078361511230469 -4.995087623596191 -2.5
4.46707010269165 -4.650722503662109 -2.5
4.82681131362915 -4.276201248168945 -2.5
5.709919452667236 -2.9968066215515137 -2.5
6.261171817779541 -1.54324209690094 -2.5
6.365043640136719 -1.0344336032867432 -2.5
-6.242421627044678 0.0 -2.5
-6.061025142669678 -1.4939160346984863 -2.5
-5.921166896820068 -1.9767773151397705 -2.5
-4.537480354309082 -2.381464719772339 -2.0522687435150146
-3.855536937713623 -2.4380955696105957 -1.826910376548767
-3.299267530441284 -2.479248046875 -1.6527851819992065
-2.9488525390625 -2.6124510765075684 -1.5777593851089478
-2.731450080871582 -2.843740224838257 -1.5791311264038086
-2.554799795150757 -3.1290526390075684 -1.6177831888198853
-3.121210813522339 -5.406093597412109 -2.5
-2.2135937213897705 -5.836777210235596 -2.5
-1.7367528676986694 -5.995956897735596 -2.5
-0.25135740637779236 -6.237363338470459 -2.5
0.2513525187969208 -6.237363338470459 -2.5
0.75244140625 -6.196913719177246 -2.5
1.7367430925369263 -5.995956897735596 -2.5
3.1212010383605957 -5.406113147735596 -2.5
3.546093702316284 -5.137402057647705 -2.5
3.947990655899048 -4.835419654846191 -2.5
4.324282169342041 -4.502060413360596 -2.5
4.990456581115723 -3.7500975131988525 -2.5
5.276020526885986 -3.336367130279541 -2.5
5.527377605438232 -2.901005744934082 -2.5
5.921162128448486 -1.9767773151397705 -2.5
-6.047382831573486 0.0 -2.5
-6.027768611907959 -0.48662108182907104 -2.5
-5.871654987335205 -1.4472460746765137 -2.5
-5.393784046173096 -2.2980663776397705 -2.4237518310546875
-3.298578977584839 -2.4787206649780273 -1.7057405710220337
-2.674262523651123 -2.7841992378234863 -1.5959382057189941
-2.508852481842041 -3.0727930068969727 -1.6399285793304443
-2.3456883430480957 -3.398310422897339 -1.707041621208191
-2.592460870742798 -5.463505744934082 -2.5
-2.144423723220825 -5.654404163360596 -2.5
-1.209633708000183 -5.92516565322876 -2.5
-0.2434960901737213 -6.04248046875 -2.5
0.7289257645606995 -6.003300666809082 -2.5
2.144423723220825 -5.654404163360596 -2.5
3.8246264457702637 -4.684335708618164 -2.5
4.189159870147705 -4.361386775970459 -2.5
4.834528923034668 -3.6329197883605957 -2.5
5.969062328338623 -0.9700683355331421 -2.5
-5.862519264221191 0.0 -2.5
-5.692152976989746 -1.4029979705810547 -2.5
-5.393403053283691 -2.297929525375366 -2.5
-4.535815238952637 -2.3805761337280273 -2.1844570636749268
-3.2978906631469727 -2.478203058242798 -1.7591592073440552
-2.873417854309082 -2.5456347465515137 -1.637026309967041
-2.633481502532959 -2.741748094558716 -1.6211581230163574
-2.298896551132202 -3.330517530441284 -1.7257437705993652
-2.296499013900757 -3.977656126022339 -1.95862877368927
-2.5132176876068115 -5.296504020690918 -2.5
-2.0788769721984863 -5.481552600860596 -2.5
-1.6310595273971558 -5.631044864654541 -2.5
-1.1726610660552979 -5.744042873382568 -2.5
-0.7066650390625 -5.819785118103027 -2.5
0.7066430449485779 -5.819775104522705 -2.5
1.1726512908935547 -5.744052410125732 -2.5
1.6310473680496216 -5.631054401397705 -2.5
2.9312596321105957 -5.077089786529541 -2.5
3.3302831649780273 -4.824755668640137 -2.5
3.707714796066284 -4.541132926940918 -2.5
4.388154029846191 -3.887578010559082 -2.5
4.686743259429932 -3.521865129470825 -2.5
4.954936504364014 -3.1333203315734863 -2.5
5.393388748168945 -2.297919988632202 -2.5
5.560808181762695 -1.85647451877594 -2.5
5.692165374755859 -1.4029881954193115 -2.5
5.84350061416626 -0.471748024225235 -2.5
-5.687031269073486 -1.9531249563442543e-05 -2.5
-5.668583869934082 -0.45762693881988525 -2.5
-5.613383769989014 -0.9122753739356995 -2.5
-5.231943130493164 -2.229130744934082 -2.5
-3.858876943588257 -2.4402148723602295 -2.007066011428833
-2.840449094772339 -2.516416072845459 -1.6681829690933228
-2.596240282058716 -2.7029783725738525 -1.647550106048584
-2.283637762069702 -3.9553709030151367 -2.007755756378174
-0.6854931712150574 -5.645566463470459 -2.5
0.22898925840854645 -5.68240213394165 -2.5
0.685498058795929 -5.645566463470459 -2.5
1.5822265148162842 -5.462490081787109 -2.5
2.437980890274048 -5.137948989868164 -2.5
3.939531087875366 -4.101503849029541 -2.5
4.256792068481445 -3.7712011337280273 -2.5
4.546450138092041 -3.416435480117798 -2.5
5.394340515136719 -1.8009082078933716 -2.5
5.521762371063232 -1.3610057830810547 -2.5
5.613381385803223 -0.9122655987739563 -2.5
-5.502265453338623 -0.4441894292831421 -2.5
-5.448681354522705 -0.8855078220367432 -2.5
-5.359750747680664 -1.3210742473602295 -2.5
-5.078432559967041 -2.1637206077575684 -2.5
-4.887861251831055 -2.5653514862060547 -2.5
-3.855170726776123 -2.437861204147339 -2.0657455921173096
-2.8274266719818115 -2.504873037338257 -1.71072518825531
-2.559990167617798 -2.665234327316284 -1.6736544370651245
-2.366450071334839 -4.987196922302246 -2.5
-1.9574657678604126 -5.161445140838623 -2.5
-0.6653906106948853 -5.479921817779541 -2.5
-0.22228026390075684 -5.515693187713623 -2.5
1.535805583000183 -5.302226543426514 -2.5
1.9574755430221558 -5.161445140838623 -2.5
2.366445302963257 -4.987187385559082 -2.5
4.131894588470459 -3.6605467796325684 -2.5
4.413051605224609 -3.3162012100219727 -2.5
4.887851238250732 -2.5653514862060547 -2.5
5.078427791595459 -2.163710832595825 -2.5
5.3597412109375 -1.3210644721984863 -2.5
5.448674201965332 -0.885498046875 -2.5
-5.361269474029541 0.0 -2.5
-4.747172832489014 -2.491503953933716 -2.5
-3.8504979610443115 -2.4349021911621094 -2.124386787414551
-3.297661066055298 -2.478037118911743 -1.923492431640625
-2.2220311164855957 -3.219179630279541 -1.8239998817443848
-2.260068416595459 -3.9145703315734863 -2.1077754497528076
-2.29833984375 -4.843652248382568 -2.5
-1.9011279344558716 -5.012880802154541 -2.5
-1.491601586341858 -5.149609088897705 -2.5
-1.0724023580551147 -5.252919673919678 -2.5
-0.6462304592132568 -5.322177410125732 -2.5
0.6462206840515137 -5.322187423706055 -2.5
1.4915941953659058 -5.149599552154541 -2.5
1.9011279344558716 -5.012880802154541 -2.5
2.298327684402466 -4.843652248382568 -2.5
2.6806323528289795 -4.642997741699219 -2.5
3.045546770095825 -4.412246227264404 -2.5
3.3907079696655273 -4.152871131896973 -2.5
3.713874340057373 -3.8665525913238525 -2.5
4.01296854019165 -3.5551953315734863 -2.5
4.286030292510986 -3.2207422256469727 -2.5
4.53127908706665 -2.865419864654541 -2.5
4.747168064117432 -2.491503953933716 -2.5
4.932246208190918 -2.101445198059082 -2.5
5.08535623550415 -1.6977441310882568 -2.5
