ply
format ascii 1.0
element vertex 745
property float x
property float y
property float z
end_header
9.185556411743164 -15.909785270690918 4.273472309112549
-12.554033279418945 -15.375839233398438 4.386201858520508
9.180991172790527 -15.901865005493164 4.057403087615967
-12.509496688842773 -15.321298599243164 3.459414005279541
-26.535003662109375 -6.540273189544678 4.468320369720459
-12.498530387878418 -15.307841300964355 3.231114387512207
9.174736022949219 -15.891035079956055 3.0001347064971924
-12.487611770629883 -15.294482231140137 3.004042863845825
-26.491762161254883 -6.529619216918945 3.842311382293701
-12.476758003234863 -15.281200408935547 2.7781262397766113
-26.525278091430664 -6.537890434265137 3.539499521255493
-12.465951919555664 -15.267958641052246 2.5533041954040527
9.171034812927246 -15.884638786315918 2.3760149478912354
9.169818878173828 -15.882518768310547 2.169346809387207
-26.5202579498291 -6.53665018081665 2.924375534057617
-12.444497108459473 -15.241679191589355 2.1066927909851074
9.168593406677246 -15.880410194396973 1.9632714986801147
-12.433833122253418 -15.228622436523438 1.8847814798355103
-26.51814842224121 -6.536122798919678 2.313244342803955
6.995224475860596 -24.150331497192383 2.1295559406280518
-26.517093658447266 -6.535869121551514 2.008612632751465
-12.412616729736328 -15.20263671875 1.4434517621994019
-26.516048431396484 -6.535605430603027 1.7045830488204956
-12.40206527709961 -15.189725875854492 1.223915696144104
9.163749694824219 -15.872011184692383 1.1438884735107422
-12.391552925109863 -15.176825523376465 1.0050534009933472
-3.128247022628784 -25.76335906982422 1.3312780857086182
-26.513872146606445 -6.535078048706055 1.0975326299667358
6.995219707489014 -24.15032196044922 1.0105160474777222
-12.370600700378418 -15.1511812210083 0.569134533405304
6.995219707489014 -24.15032196044922 0.731602132320404
-26.5095157623291 -6.533994197845459 0.49170348048210144
-12.3601655960083 -15.138398170471191 0.35196226835250854
-12.349745750427246 -15.12563419342041 0.13524292409420013
-26.505149841308594 -6.532919883728027 -0.11344283819198608
-12.33935546875 -15.112910270690918 -0.08107803016901016
-26.502973556518555 -6.532382488250732 -0.4159426689147949
-12.328974723815918 -15.100194931030273 -0.2970525920391083
6.995219707489014 -24.15032196044922 -0.3831333816051483
9.1553316116333 -15.857431411743164 -0.2790188491344452
9.154130935668945 -15.855351448059082 -0.48195144534111023
-26.498598098754883 -6.531308650970459 -1.0211808681488037
9.152929306030273 -15.85326099395752 -0.6849535703659058
-26.494232177734375 -6.530234336853027 -1.6272237300872803
-12.287572860717773 -15.049491882324219 -1.158591628074646
6.995219707489014 -24.15032196044922 -1.4993627071380615
9.150517463684082 -15.849101066589355 -1.0913490056991577
-12.149110794067383 -6.376347541809082 -0.9709060192108154
6.995224475860596 -24.150331497192383 -1.7791717052459717
21.811601638793945 -16.390380859375 -1.9306373596191406
27.24569320678711 -11.608271598815918 -2.0956549644470215
-27.186323165893555 -9.076123237609863 -2.347599983215332
-21.518285751342773 -16.169912338256836 -2.2046926021575928
-12.266899108886719 -15.024179458618164 -1.5886834859848022
-16.3919677734375 -23.747840881347656 -2.3635292053222656
-14.445024490356445 -25.019500732421875 -2.366332530975342
-12.39797306060791 -26.12815284729004 -2.3688206672668457
-10.262113571166992 -27.058895111083984 -2.37038516998291
-4.422963619232178 -15.2698335647583 -1.302135944366455
-5.798896312713623 -28.404911041259766 -2.3745856285095215
-3.496840715408325 -28.7991886138916 -2.3762154579162598
0.8239843845367432 -20.44759750366211 -1.6761868000030518
5.803476333618164 -28.427391052246094 -2.3764657974243164
5.81518030166626 -20.076385498046875 -1.7120146751403809
10.27926254272461 -27.104217529296875 -2.3743507862091064
12.4171724319458 -26.168651580810547 -2.3724915981292725
9.148110389709473 -15.844931602478027 -1.4986059665679932
16.41962432861328 -23.787939071655273 -2.367518901824951
18.254697799682617 -22.357967376708984 -2.3641715049743652
21.525386810302734 -19.06982421875 -2.355487585067749
22.938989639282227 -17.237567901611328 -2.350254774093628
24.224271774291992 -15.318495750427246 -2.347599983215332
25.37833595275879 -13.319608688354492 -2.347599983215332
26.367835998535156 -11.23427677154541 -2.347599983215332
27.18631362915039 -9.076132774353027 -2.347599983215332
-26.860151290893555 3.9062499126885086e-05 -2.5
-26.773061752319336 -2.161318302154541 -2.5
-26.512319564819336 -4.308642387390137 -2.5
-23.924720764160156 -7.987236022949219 -2.347599983215332
-11.424389839172363 -5.995991230010986 -1.2008733749389648
-10.5838623046875 -6.692831993103027 -1.1655246019363403
-20.164159774780273 -15.152362823486328 -2.347599983215332
-13.329516410827637 -13.877470016479492 -1.7909445762634277
-12.256567001342773 -15.011513710021973 -1.803747534751892
-14.366386413574219 -20.81330108642578 -2.353862762451172
-12.654916763305664 -21.91890525817871 -2.3557000160217285
-8.990131378173828 -23.705018997192383 -2.359678268432617
-4.365434646606445 -15.07119083404541 -1.460405945777893
-3.091381788253784 -15.142548561096191 -1.4384582042694092
-1.0225096940994263 -25.37297821044922 -2.363497495651245
0.8327490091323853 -20.665096282958984 -1.9249584674835205
3.061415910720825 -25.21304702758789 -2.3639321327209473
5.850224494934082 -20.197372436523438 -1.9571336507797241
15.979398727416992 -19.571239471435547 -2.3516321182250977
17.47640037536621 -18.194883346557617 -2.3481364250183105
20.16414451599121 -15.152382850646973 -2.347599983215332
22.33363914489746 -11.721611022949219 -2.347599983215332
25.477840423583984 -8.50576114654541 -2.5
26.512319564819336 -4.308676719665527 -2.5
-23.89984893798828 -1.9293700456619263 -2.5
-23.66707420349121 -3.846259593963623 -2.5
-11.357206344604492 -5.96072244644165 -1.3373321294784546
-13.329516410827637 -13.877470016479492 -2.0062625408172607
-4.363745212554932 -15.065351486206055 -1.6353434324264526
-0.9089452624320984 -22.555213928222656 -2.3536086082458496
8.163832664489746 -17.204853057861328 -1.9855564832687378
12.790478706359863 -18.530214309692383 -2.347599983215332
14.240062713623047 -17.44091796875 -2.347599983215332
16.853384017944336 -14.93080997467041 -2.347599983215332
19.030214309692383 -12.033964157104492 -2.347599983215332
22.743587493896484 -7.592939376831055 -2.5
23.28081512451172 -5.738222599029541 -2.5
23.89981460571289 -1.9293993711471558 -2.5
-21.648900985717773 2.9296874345163815e-05 -2.5
-21.57869529724121 -1.7419872283935547 -2.5
-21.368558883666992 -3.47271466255188 -2.5
-21.019819259643555 -5.180908203125 -2.5
-12.341728210449219 -5.258315086364746 -1.5491803884506226
-10.396254539489746 -6.574189186096191 -1.4204518795013428
-16.252016067504883 -12.212587356567383 -2.347599983215332
-13.28170394897461 -13.827675819396973 -2.2140934467315674
-9.968437194824219 -14.441757202148438 -2.026437997817993
-8.714970588684082 -18.366376876831055 -2.347599983215332
-7.208827972412109 -19.008094787597656 -2.347599983215332
2.4504051208496094 -20.180946350097656 -2.347599983215332
7.208818435668945 -19.00810432434082 -2.347599983215332
8.163827896118164 -17.204824447631836 -2.199131965637207
12.857074737548828 -15.747079849243164 -2.347599983215332
14.082514762878418 -14.661444664001465 -2.347599983215332
16.25200080871582 -12.212597846984863 -2.347599983215332
18.104827880859375 -11.448798179626465 -2.473684787750244
21.019811630249023 -5.180927753448486 -2.5
21.368539810180664 -3.472729444503784 -2.5
21.578693389892578 -1.7420165538787842 -2.5
-19.154726028442383 -4.721205711364746 -2.5
-11.28892993927002 -5.924887657165527 -1.6156339645385742
-15.601118087768555 -11.72347640991211 -2.473008632659912
-12.832968711853027 -13.360536575317383 -2.347599983215332
-11.679369926452637 -14.30458927154541 -2.3401942253112793
-9.262690544128418 -16.043437957763672 -2.347599983215332
-2.232978582382202 -18.39029312133789 -2.347599983215332
-0.7459521293640137 -18.510351181030273 -2.347599983215332
0.7459276914596558 -18.51034164428711 -2.347599983215332
2.232978582382202 -18.39029312133789 -2.347599983215332
5.154067039489746 -17.793954849243164 -2.347599983215332
7.941694259643555 -16.736738204956055 -2.347599983215332
8.719779968261719 -15.103036880493164 -2.209998846054077
11.716279029846191 -14.34984302520752 -2.347599983215332
12.832968711853027 -13.360536575317383 -2.347599983215332
15.751259803771973 -11.836308479309082 -2.4968109130859375
17.468252182006836 -9.16805648803711 -2.5
19.154720306396484 -4.721215724945068 -2.5
19.472503662109375 -3.1645848751068115 -2.5
19.66400909423828 -1.587441325187683 -2.5
-17.8814640045166 -2.906005859375 -2.5
-17.183753967285156 -5.736767292022705 -2.5
-12.320966720581055 -5.249472618103027 -1.848173975944519
-10.33693790435791 -6.536679744720459 -1.6877727508544922
-13.557475090026855 -12.010869026184082 -2.4995224475860596
-10.846919059753418 -13.285038948059082 -2.3667869567871094
-6.032441139221191 -15.906200408935547 -2.347599983215332
-0.6849951148033142 -16.997900009155273 -2.347599983215332
0.684985339641571 -16.997909545898438 -2.347599983215332
4.732944011688232 -16.34004783630371 -2.347599983215332
6.032421588897705 -15.906220436096191 -2.347599983215332
7.292788028717041 -15.36922836303711 -2.347599983215332
8.505854606628418 -14.73256778717041 -2.347599983215332
13.56005859375 -12.013163566589355 -2.5
16.04096221923828 -8.418964385986328 -2.5
16.666385650634766 -7.100878715515137 -2.5
-16.257221221923828 -4.007040977478027 -2.5
-15.882064819335938 -5.302216529846191 -2.5
-12.322680473327637 -5.250205039978027 -1.9999260902404785
-11.27712345123291 -5.918691158294678 -1.9015954732894897
-10.319730758666992 -6.525810241699219 -1.8230597972869873
-13.3856782913208 -10.058671951293945 -2.5
-12.532880783081055 -11.103163719177246 -2.5
-9.402099609375 -13.621278762817383 -2.4712328910827637
-1.895205020904541 -15.608407974243164 -2.347599983215332
3.145009756088257 -15.405292510986328 -2.347599983215332
4.374423503875732 -15.102274894714355 -2.347599983215332
6.772411823272705 -14.272558212280273 -2.3587634563446045
8.108550071716309 -14.04442310333252 -2.4213647842407227
9.484086990356445 -13.740068435668945 -2.4927852153778076
10.58951187133789 -12.969804763793945 -2.5
11.598798751831055 -12.075634956359863 -2.5
12.532880783081055 -11.103163719177246 -2.5
13.385663986206055 -10.058691024780273 -2.5
14.151655197143555 -8.948965072631836 -2.5
15.882055282592773 -5.302211761474609 -2.5
16.257211685180664 -4.007040977478027 -2.5
-15.510634422302246 -1.2521337270736694 -2.5
-15.359580039978027 -2.496161937713623 -2.5
-14.760268211364746 -4.927704811096191 -2.5
-11.277714729309082 -5.919008731842041 -2.0462288856506348
-11.6476411819458 -10.3189058303833 -2.5
-10.779545783996582 -11.222695350646973 -2.5
-7.780551433563232 -13.476288795471191 -2.5
-6.655961990356445 -14.027109146118164 -2.4943902492523193
-5.435429573059082 -14.332050323486328 -2.4625744819641113
-0.5933544635772705 -14.723808288574219 -2.3674049377441406
0.5937597751617432 -14.734101295471191 -2.36906099319458
6.660751819610596 -14.037226676940918 -2.496187925338745
9.841532707214355 -12.05370044708252 -2.5
13.77865219116211 -7.231611251831055 -2.5
15.10888671875 -3.7239696979522705 -2.5
15.359575271606445 -2.496166944503784 -2.5
15.510629653930664 -1.2521435022354126 -2.5
-14.531054496765137 9.765624781721272e-06 -2.5
-14.108808517456055 -3.4775047302246094 -2.5
-13.36827564239502 -5.695683479309082 -2.5
-10.876665115356445 -9.635859489440918 -2.5
-10.066015243530273 -10.47982406616211 -2.5
-9.19009780883789 -11.255810737609863 -2.5
-7.265536785125732 -12.584247589111328 -2.5
-6.229360103607178 -13.12807559967041 -2.5
-4.042797565460205 -13.9573335647583 -2.5
-1.7491991519927979 -14.40591812133789 -2.4966750144958496
-0.584155261516571 -14.495253562927246 -2.495863914489746
0.5841699242591858 -14.496200561523438 -2.4960272312164307
4.042788028717041 -13.9573335647583 -2.5
5.152773380279541 -13.586776733398438 -2.5
10.066010475158691 -10.479843139648438 -2.5
10.876640319824219 -9.635869026184082 -2.5
13.78322696685791 -4.601523399353027 -2.5
14.108803749084473 -3.4775097370147705 -2.5
-13.581499099731445 -1.0964062213897705 -2.5
-13.449228286743164 -2.1857030391693115 -2.5
-13.229745864868164 -3.2608299255371094 -2.5
-12.924443244934082 -4.314814567565918 -2.5
-12.535351753234863 -5.340805530548096 -2.5
-10.347460746765137 -6.543339729309082 -2.2462685108184814
-9.438827514648438 -9.826855659484863 -2.5
-8.6174898147583 -10.554491996765137 -2.5
-7.740268230438232 -11.213701248168945 -2.5
-5.841220378875732 -12.310107231140137 -2.5
-4.831728458404541 -12.74022388458252 -2.5
-3.790903329849243 -13.087695121765137 -2.5
-2.7254881858825684 -13.350302696228027 -2.5
-0.5486621260643005 -13.614608764648438 -2.5
4.831723690032959 -12.740234375 -2.5
6.812827110290527 -11.800175666809082 -2.5
9.438833236694336 -9.826874732971191 -2.5
10.198954582214355 -9.03548812866211 -2.5
12.06493091583252 -6.332167625427246 -2.5
13.229731559753418 -3.2608349323272705 -2.5
13.581488609313965 -1.0964062213897705 -2.5
-12.823447227478027 1.4648437172581907e-05 -2.5
-12.781874656677246 -1.0318408012390137 -2.5
-12.657387733459473 -2.057016611099243 -2.5
-12.163515090942383 -4.060766696929932 -2.5
-11.797319412231445 -5.026357173919678 -2.5
-10.838266372680664 -6.853691101074219 -2.5
-7.2845458984375 -10.553476333618164 -2.5
-6.411728382110596 -11.105420112609863 -2.5
-5.497314453125 -11.585341453552246 -2.5
-3.5677099227905273 -12.317138671875 -2.5
-2.565014600753784 -12.56429672241211 -2.5
-1.5456981658935547 -12.729960441589355 -2.5
-0.516357421875 -12.813036918640137 -2.5
2.565009593963623 -12.564287185668945 -2.5
3.567700147628784 -12.317148208618164 -2.5
4.547245979309082 -11.990126609802246 -2.5
5.497309684753418 -11.58536148071289 -2.5
8.110121726989746 -9.933115005493164 -2.5
8.883105278015137 -9.248310089111328 -2.5
9.598481178283691 -8.503524780273438 -2.5
11.797308921813965 -5.026347637176514 -2.5
12.450800895690918 -3.068862199783325 -2.5
12.7818603515625 -1.0318652391433716 -2.5
-12.107519149780273 1.9531249563442543e-05 -2.5
-11.950732231140137 -1.9421727657318115 -2.5
-11.755693435668945 -2.8975048065185547 -2.5
-11.138667106628418 -4.745737075805664 -2.5
-10.72066879272461 -5.626640319824219 -2.5
-10.233154296875 -6.471054553985596 -2.5
-9.679266929626465 -7.273496150970459 -2.5
-7.65734338760376 -9.378524780273438 -2.5
0.48750486969947815 -12.097684860229492 -2.5
3.3685107231140137 -11.629491806030273 -2.5
4.293378829956055 -11.320722579956055 -2.5
5.190400123596191 -10.938525199890137 -2.5
6.877846717834473 -9.964286804199219 -2.5
8.387163162231445 -8.731963157653809 -2.5
9.062597274780273 -8.028769493103027 -2.5
11.95071792602539 -1.9421727657318115 -2.5
12.068246841430664 -0.9742528796195984 -2.5
-11.464526176452637 1.4648437172581907e-05 -2.5
-11.131396293640137 -2.7436375617980957 -2.5
-10.874502182006836 -3.63042950630188 -2.5
-9.165234565734863 -6.887216567993164 -2.5
-7.941747665405273 -8.268241882324219 -2.5
-7.250678539276123 -8.880468368530273 -2.5
-6.512578010559082 -9.4351167678833 -2.5
-2.2931933403015137 -11.23281192779541 -2.5
-1.3818895816802979 -11.3809175491333 -2.5
-0.46162596344947815 -11.455204963684082 -2.5
0.46162107586860657 -11.455214500427246 -2.5
1.3818895816802979 -11.380927085876465 -2.5
2.2931981086730957 -11.23282241821289 -2.5
4.914751052856445 -10.357617378234863 -2.5
7.250678539276123 -8.880468368530273 -2.5
8.581308364868164 -7.602382659912109 -2.5
9.165214538574219 -6.887216567993164 -2.5
10.151312828063965 -5.327826976776123 -2.5
10.547109603881836 -4.493700981140137 -2.5
10.874496459960938 -3.6304588317871094 -2.5
11.131376266479492 -2.7436375617980957 -2.5
11.316044807434082 -1.8390380144119263 -2.5
11.427338600158691 -0.9225097298622131 -2.5
-10.883715629577637 1.4648437172581907e-05 -2.5
-10.742777824401855 -1.7458593845367432 -2.5
-10.323593139648438 -3.4465136528015137 -2.5
-9.198803901672363 -5.816953182220459 -2.5
-8.700907707214355 -6.538280963897705 -2.5
-8.146562576293945 -7.217216491699219 -2.5
-7.539399147033691 -7.849345684051514 -2.5
-6.182656288146973 -8.957109451293945 -2.5
-5.441850662231445 -9.425556182861328 -2.5
-2.177016496658325 -10.663749694824219 -2.5
-1.3118798732757568 -10.80434513092041 -2.5
-0.43824705481529236 -10.874873161315918 -2.5
0.438232421875 -10.874873161315918 -2.5
2.177011728286743 -10.663749694824219 -2.5
3.8594043254852295 -10.176435470581055 -2.5
4.665756702423096 -9.832890510559082 -2.5
5.441845417022705 -9.425556182861328 -2.5
6.883339881896973 -8.43056583404541 -2.5
8.700888633728027 -6.538310527801514 -2.5
9.198793411254883 -5.816962718963623 -2.5
9.637036323547363 -5.057909965515137 -2.5
10.01278305053711 -4.266054630279541 -2.5
10.323578834533691 -3.446523427963257 -2.5
10.5674409866333 -2.6046435832977295 -2.5
10.742753982543945 -1.7458642721176147 -2.5
10.848402976989746 -0.8757763504981995 -2.5
-10.356351852416992 1.4648437172581907e-05 -2.5
-10.322772979736328 -0.8333251476287842 -2.5
-10.222250938415527 -1.6612695455551147 -2.5
-10.055429458618164 -2.4784326553344727 -2.5
-8.753090858459473 -5.535117149353027 -2.5
-8.27932071685791 -6.221494197845459 -2.5
-6.54983377456665 -8.022079467773438 -2.5
-5.178178787231445 -8.968856811523438 -2.5
-4.439692497253418 -9.3564453125 -2.5
-2.071533203125 -10.14706039428711 -2.5
-0.4170165956020355 -10.347949028015137 -2.5
2.071537971496582 -10.14706039428711 -2.5
4.439687252044678 -9.356454849243164 -2.5
5.178173542022705 -8.968867301940918 -2.5
5.883070945739746 -8.523115158081055 -2.5
7.174091815948486 -7.469033241271973 -2.5
7.751845359802246 -6.867528915405273 -2.5
8.279306411743164 -6.221503734588623 -2.5
9.527626991271973 -4.059340953826904 -2.5
10.055419921875 -2.4784374237060547 -2.5
10.222250938415527 -1.6612744331359863 -2.5
10.322768211364746 -0.8333398103713989 -2.5
-9.875307083129883 9.765624781721272e-06 -2.5
-9.843280792236328 -0.7946093678474426 -2.5
-9.747426986694336 -1.5841113328933716 -2.5
-9.367094993591309 -3.127187490463257 -2.5
-7.894741058349609 -5.932509422302246 -2.5
-6.840854167938232 -7.122079849243164 -2.5
-6.245581150054932 -7.649453163146973 -2.5
-5.609809398651123 -8.127206802368164 -2.5
-4.937655925750732 -8.552255630493164 -2.5
-4.233466625213623 -8.921835899353027 -2.5
-3.501826047897339 -9.23355484008789 -2.5
-0.3976464867591858 -9.867284774780273 -2.5
0.39763182401657104 -9.867294311523438 -2.5
2.7474756240844727 -9.485400199890137 -2.5
3.501821279525757 -9.233564376831055 -2.5
5.609809398651123 -8.127216339111328 -2.5
6.245585918426514 -7.649462699890137 -2.5
6.84084939956665 -7.122089862823486 -2.5
7.894731044769287 -5.93252420425415 -2.5
8.346503257751465 -5.278012752532959 -2.5
8.744140625 -4.589282035827637 -2.5
9.085078239440918 -3.870781183242798 -2.5
9.843276023864746 -0.7946337461471558 -2.5
-9.434614181518555 1.4648437172581907e-05 -2.5
-9.404013633728027 -0.7591552734375 -2.5
-9.312431335449219 -1.513403296470642 -2.5
-9.1604585647583 -2.2578418254852295 -2.5
-8.679648399353027 -3.6980419158935547 -2.5
-6.535571098327637 -6.804247856140137 -2.5
-4.044545650482178 -8.523691177368164 -2.5
-3.3455564975738525 -8.821494102478027 -2.5
-2.624868154525757 -9.062089920043945 -2.5
-1.1372168064117432 -9.36581039428711 -2.5
-0.37989744544029236 -9.426942825317383 -2.5
0.3798828125 -9.426942825317383 -2.5
1.1372119188308716 -9.36581039428711 -2.5
2.624868154525757 -9.06209945678711 -2.5
3.3455517292022705 -8.821503639221191 -2.5
4.044545650482178 -8.523691177368164 -2.5
5.359457969665527 -7.76452112197876 -2.5
6.535571098327637 -6.804267406463623 -2.5
8.35391616821289 -4.384482383728027 -2.5
8.94906234741211 -2.9876415729522705 -2.5
9.160439491271973 -2.2578418254852295 -2.5
9.312421798706055 -1.5134130716323853 -2.5
9.404008865356445 -0.7591650485992432 -2.5
-9.029292106628418 1.4648437172581907e-05 -2.5
-9.000004768371582 -0.7265429496765137 -2.5
-8.766908645629883 -2.160839796066284 -2.5
-8.56460952758789 -2.8592772483825684 -2.5
-8.306753158569336 -3.5391650199890137 -2.5
-7.63146448135376 -4.825849533081055 -2.5
-6.758515357971191 -5.987509727478027 -2.5
-5.710512638092041 -6.994111061096191 -2.5
-4.514643669128418 -7.819560527801514 -2.5
-3.2018260955810547 -8.442509651184082 -2.5
-2.512094736099243 -8.672773361206055 -2.5
-1.0883642435073853 -8.963427543640137 -2.5
-0.36356931924819946 -9.021943092346191 -2.5
1.088354468345642 -8.9634370803833 -2.5
2.512089729309082 -8.672782897949219 -2.5
3.2018163204193115 -8.44252872467041 -2.5
6.758505821228027 -5.987514495849609 -2.5
7.218388557434082 -5.424277305603027 -2.5
7.995028972625732 -4.196123123168945 -2.5
8.306753158569336 -3.5391697883605957 -2.5
8.564594268798828 -2.8592822551727295 -2.5
8.766899108886719 -2.160839796066284 -2.5
8.912348747253418 -1.448388695716858 -2.5
-8.655165672302246 1.9531249563442543e-05 -2.5
-8.627094268798828 -0.6964452862739563 -2.5
-8.209731101989746 -2.7408056259155273 -2.5
-7.663759708404541 -4.022250652313232 -2.5
-6.91930627822876 -5.199521541595459 -2.5
-5.995629787445068 -6.242109298706055 -2.5
-5.47390604019165 -6.704306602478027 -2.5
-3.069164991378784 -8.092695236206055 -2.5
-1.7312548160552979 -8.480224609375 -2.5
1.0432616472244263 -8.592041015625 -2.5
1.7312450408935547 -8.480243682861328 -2.5
2.408007860183716 -8.313427925109863 -2.5
3.069159984588623 -8.092704772949219 -2.5
3.710400342941284 -7.819491863250732 -2.5
5.99563455581665 -6.242118835449219 -2.5
6.919291973114014 -5.199526309967041 -2.5
8.403647422790527 -2.0713133811950684 -2.5
-8.281743049621582 -0.6685595512390137 -2.5
-8.067251205444336 -1.9883935451507568 -2.5
-7.881088733673096 -2.6310887336730957 -2.5
-7.643818378448486 -3.256723642349243 -2.5
-7.022417068481445 -4.440707683563232 -2.5
-3.5618603229522705 -7.506474494934082 -2.5
-2.3116064071655273 -7.980624675750732 -2.5
-1.001499056816101 -8.248095512390137 -2.5
1.001499056816101 -8.248085975646973 -2.5
1.6619384288787842 -8.140761375427246 -2.5
2.946298837661743 -7.768740177154541 -2.5
3.5618650913238525 -7.506474494934082 -2.5
4.154340744018555 -7.195527076721191 -2.5
4.719862937927246 -6.837910175323486 -2.5
5.75560998916626 -5.992240905761719 -2.5
6.642304420471191 -4.991376876831055 -2.5
7.356967449188232 -3.8612303733825684 -2.5
7.881073951721191 -2.631093740463257 -2.5
8.067235946655273 -1.9883935451507568 -2.5
8.281728744506836 -0.6685693264007568 -2.5
-7.754731178283691 -1.9113622903823853 -2.5
-7.575795650482178 -2.5291748046875 -2.5
-7.347714900970459 -3.130561351776123 -2.5
-6.750385761260986 -4.268681526184082 -2.5
-5.978227615356445 -5.296240329742432 -2.5
-5.532660961151123 -5.760112285614014 -2.5
-4.537026405334473 -6.573017597198486 -2.5
-2.832158088684082 -7.46780252456665 -2.5
-2.2220752239227295 -7.671474456787109 -2.5
-1.5975682735443115 -7.825390338897705 -2.5
-0.9627050757408142 -7.928574085235596 -2.5
-0.32160642743110657 -7.980331897735596 -2.5
0.3215917944908142 -7.980321884155273 -2.5
0.962695300579071 -7.928574085235596 -2.5
2.2220654487609863 -7.671474456787109 -2.5
2.832163095474243 -7.46780252456665 -2.5
3.993408203125 -6.91677713394165 -2.5
5.051220417022705 -6.186630725860596 -2.5
5.978217601776123 -5.296240329742432 -2.5
7.071972370147705 -3.7116551399230957 -2.5
7.347704887390137 -3.130561351776123 -2.5
7.754735946655273 -1.9113720655441284 -2.5
7.883383750915527 -1.281166911125183 -2.5
-7.686972618103027 1.4648437172581907e-05 -2.5
-7.587421894073486 -1.2330663204193115 -2.5
-7.463603496551514 -1.8396093845367432 -2.5
-7.071860313415527 -3.0130369663238525 -2.5
-6.806474685668945 -3.5723047256469727 -2.5
-6.496953010559082 -4.108407974243164 -2.5
-6.145302772521973 -4.617880821228027 -2.5
-5.753788948059082 -5.097392559051514 -2.5
-3.8434863090515137 -6.657089710235596 -2.5
-2.725825071334839 -7.187421798706055 -2.5
-2.1386425495147705 -7.383456707000732 -2.5
-1.5375878810882568 -7.53161096572876 -2.5
-0.30952146649360657 -7.680732250213623 -2.5
0.30952146649360657 -7.680732250213623 -2.5
0.9265576004981995 -7.630918025970459 -2.5
2.1386473178863525 -7.383466720581055 -2.5
2.725830078125 -7.187441349029541 -2.5
3.29534649848938 -6.944794654846191 -2.5
5.324941158294678 -5.543862342834473 -2.5
5.753774166107178 -5.097392559051514 -2.5
7.071845531463623 -3.0130321979522705 -2.5
7.463593482971191 -1.8396190404891968 -2.5
7.587421894073486 -1.2330809831619263 -2.5
7.662040710449219 -0.6185449361801147 -2.5
-7.406884670257568 1.4648437172581907e-05 -2.5
-7.191655158996582 -1.7725781202316284 -2.5
-6.814179420471191 -2.903247117996216 -2.5
-6.55846643447876 -3.442148447036743 -2.5
-6.260219573974609 -3.9587206840515137 -2.5
-5.130932331085205 -5.341850280761719 -2.5
-3.1752684116363525 -6.691738128662109 -2.5
-2.626513719558716 -6.925537109375 -2.5
-1.4815624952316284 -7.257177352905273 -2.5
-0.2982519567012787 -7.400868892669678 -2.5
0.8927880525588989 -7.352870941162109 -2.5
2.060717821121216 -7.114433288574219 -2.5
3.1752684116363525 -6.691738128662109 -2.5
3.703437328338623 -6.414531230926514 -2.5
4.207582950592041 -6.095736980438232 -2.5
5.130912780761719 -5.341860294342041 -2.5
6.260210037231445 -3.9587156772613525 -2.5
7.310961723327637 -1.188149333000183 -2.5
-7.144589900970459 1.4648437172581907e-05 -2.5
-7.121425628662109 -0.5748876929283142 -2.5
-7.052074909210205 -1.1460644006729126 -2.5
-6.936992168426514 -1.709804654121399 -2.5
-6.776908874511719 -2.262460947036743 -2.5
-6.57287073135376 -2.800429582595825 -2.5
-6.326225280761719 -3.320258617401123 -2.5
-6.038544654846191 -3.818535089492798 -2.5
-4.518579006195068 -5.534238338470459 -2.5
-4.058583736419678 -5.879872798919678 -2.5
-2.533510684967041 -6.680302619934082 -2.5
-1.4290966987609863 -7.000195026397705 -2.5
0.8611816167831421 -7.092499732971191 -2.5
3.5722949504852295 -6.187392234802246 -2.5
4.058583736419678 -5.87987756729126 -2.5
4.5185546875 -5.534233093261719 -2.5
5.711684226989746 -4.292060375213623 -2.5
6.038530349731445 -3.818544864654541 -2.5
6.936977386474609 -1.709814429283142 -2.5
7.121420860290527 -0.574902355670929 -2.5
-6.898417949676514 4.882812390860636e-06 -2.5
-6.697963714599609 -1.6508935689926147 -2.5
-6.108237266540527 -3.2058496475219727 -2.5
-5.514887809753418 -4.144160270690918 -2.5
-5.163544654846191 -4.57449197769165 -2.5
-4.362875938415527 -5.343539714813232 -2.5
-3.9187450408935547 -5.677270412445068 -2.5
-2.9572949409484863 -6.232372760772705 -2.5
-2.4462060928344727 -6.450117111206055 -2.5
-1.9192626476287842 -6.626044750213623 -2.5
-1.3798730373382568 -6.758994102478027 -2.5
-0.2777783274650574 -6.892812252044678 -2.5
0.8315087556838989 -6.848105430603027 -2.5
1.919252872467041 -6.626044750213623 -2.5
2.4462060928344727 -6.450126647949219 -2.5
2.9572949409484863 -6.232372760772705 -2.5
3.4492039680480957 -5.974194049835205 -2.5
3.9187352657318115 -5.67727518081665 -2.5
4.778696060180664 -4.975146293640137 -2.5
5.163535118103027 -4.574487209320068 -2.5
5.514877796173096 -4.144174575805664 -2.5
5.830463886260986 -3.686957836151123 -2.5
6.543393611907959 -2.184506893157959 -2.5
6.697954177856445 -1.6508984565734863 -2.5
6.80907678604126 -1.1065820455551147 -2.5
6.876039981842041 -0.5550878643989563 -2.5
-6.666850566864014 9.765624781721272e-06 -2.5
-6.645224571228027 -0.536450207233429 -2.5
-6.580512523651123 -1.069433569908142 -2.5
-6.323744773864746 -2.1111717224121094 -2.5
-6.133359432220459 -2.6131787300109863 -2.5
-4.216420650482178 -5.164165019989014 -2.5
-3.7871923446655273 -5.486703872680664 -2.5
-3.3334178924560547 -5.773652076721191 -2.5
-2.8580322265625 -6.023159027099609 -2.5
-2.364091634750366 -6.233593463897705 -2.5
-1.8548290729522705 -6.403613090515137 -2.5
0.8035986423492432 -6.618222713470459 -2.5
1.854824185371399 -6.403613090515137 -2.5
2.364086866378784 -6.233603477478027 -2.5
3.3334226608276367 -5.773652076721191 -2.5
4.216406345367432 -5.164165019989014 -2.5
4.618276119232178 -4.808144569396973 -2.5
4.990200042724609 -4.420937538146973 -2.5
5.329751014709473 -4.005058288574219 -2.5
5.634741306304932 -3.5632030963897705 -2.5
5.903188228607178 -3.0982322692871094 -2.5
6.580502986907959 -1.069433569908142 -2.5
6.645219802856445 -0.5364599227905273 -2.5
-6.11669397354126 -2.042050838470459 -2.5
-5.932558536529541 -2.5276122093200684 -2.5
-5.155268669128418 -3.8739209175109863 -2.5
-4.826830863952637 -4.276181697845459 -2.5
-4.467074871063232 -4.650717735290527 -2.5
-1.7941161394119263 -6.193954944610596 -2.5
-1.289882779121399 -6.318242073059082 -2.5
-0.7772900462150574 -6.401552677154541 -2.5
-0.2596679627895355 -6.443329811096191 -2.5
0.7772802710533142 -6.401542663574219 -2.5
1.2898730039596558 -6.318251609802246 -2.5
2.764453172683716 -5.82595682144165 -2.5
3.2242822647094727 -5.584619045257568 -2.5
3.663198232650757 -5.307060241699219 -2.5
4.078364372253418 -4.995082855224609 -2.5
4.46707010269165 -4.650717735290527 -2.5
5.932543754577637 -2.5276219844818115 -2.5
6.365058422088623 -1.0344189405441284 -2.5
6.427651405334473 -0.5188915729522705 -2.5
-6.222177505493164 -0.5022948980331421 -2.5
-6.161596775054932 -1.0013476610183716 -2.5
-6.06103515625 -1.4939111471176147 -2.5
-5.527387619018555 -2.900995969772339 -2.5
-5.276034832000732 -3.336357355117798 -2.5
-4.990468502044678 -3.7500829696655273 -2.5
-4.324277400970459 -4.502050876617432 -2.5
-3.948002815246582 -4.835410118103027 -2.5
-2.2135984897613525 -5.836762428283691 -2.5
-0.25136229395866394 -6.237353324890137 -2.5
0.2513476610183716 -6.237353324890137 -2.5
1.2486474514007568 -6.116264343261719 -2.5
3.121210813522339 -5.406093597412109 -2.5
3.546098470687866 -5.137412071228027 -2.5
4.324267387390137 -4.502050876617432 -2.5
4.672524452209473 -4.139477252960205 -2.5
4.990458965301514 -3.7500927448272705 -2.5
5.921152114868164 -1.9767773151397705 -2.5
6.161577224731445 -1.0013525485992432 -2.5
6.222172737121582 -0.5023095607757568 -2.5
-6.027773380279541 -0.4866064488887787 -2.5
-5.736156940460205 -1.915004849433899 -2.5
-5.354692459106445 -2.810356378555298 -2.5
-4.189169883728027 -4.361381530761719 -2.5
-3.824638605117798 -4.684321403503418 -2.5
-3.023696184158325 -5.237177848815918 -2.5
-2.1444287300109863 -5.654384613037109 -2.5
-1.209633708000183 -5.925160884857178 -2.5
-0.24351073801517487 -6.042465686798096 -2.5
0.2434960901737213 -6.042465686798096 -2.5
1.6824804544448853 -5.808608055114746 -2.5
2.592460870742798 -5.463496208190918 -2.5
3.435292959213257 -4.976889610290527 -2.5
3.8246238231658936 -4.684330940246582 -2.5
4.189159870147705 -4.361376762390137 -2.5
5.354682445526123 -2.810351610183716 -2.5
5.736152172088623 -1.9150097370147705 -2.5
5.871645450592041 -1.4472265243530273 -2.5
6.027758598327637 -0.48662108182907104 -2.5
-5.692182540893555 -1.4029881954193115 -2.5
-5.191010475158691 -2.724443197250366 -2.5
-4.686752796173096 -3.521855354309082 -2.5
-2.5132176876068115 -5.296494007110596 -2.5
-2.078867197036743 -5.481537818908691 -2.5
-1.6310595273971558 -5.631069183349609 -2.5
-0.7066454887390137 -5.819770336151123 -2.5
0.7066454887390137 -5.819770336151123 -2.5
1.6310497522354126 -5.631049633026123 -2.5
3.707714796066284 -4.5411376953125 -2.5
4.061108112335205 -4.228071212768555 -2.5
4.388159275054932 -3.887563467025757 -2.5
4.686738014221191 -3.5218701362609863 -2.5
4.954936504364014 -3.133315324783325 -2.5
5.190996170043945 -2.7244482040405273 -2.5
5.560810565948486 -1.8564696311950684 -2.5
5.692158222198486 -1.402993083000183 -2.5
-5.668583869934082 -0.45760253071784973 -2.5
-5.521772384643555 -1.360986351966858 -2.5
-5.394350528717041 -1.8008886575698853 -2.5
-5.231953144073486 -2.2291259765625 -2.5
-4.546450138092041 -3.4164257049560547 -2.5
-4.256806373596191 -3.771191358566284 -2.5
-3.9395458698272705 -4.101493835449219 -2.5
-3.230600595474243 -4.680322170257568 -2.5
-2.437998056411743 -5.137934684753418 -2.5
-2.016650438308716 -5.317451000213623 -2.5
-1.5822362899780273 -5.462480545043945 -2.5
-0.22899901866912842 -5.682412147521973 -2.5
1.137548804283142 -5.572089672088623 -2.5
1.5822216272354126 -5.462485313415527 -2.5
2.437983274459839 -5.137944221496582 -2.5
2.843505859375 -4.925107479095459 -2.5
3.230595588684082 -4.68032693862915 -2.5
3.9395360946655273 -4.101493835449219 -2.5
4.256792068481445 -3.771191358566284 -2.5
4.546440124511719 -3.416445255279541 -2.5
5.231943130493164 -2.229120969772339 -2.5
5.613379001617432 -0.9122607111930847 -2.5
5.6685791015625 -0.45762205123901367 -2.5
-5.52017068862915 0.0 -2.5
-5.502265453338623 -0.4441845715045929 -2.5
-5.359760761260986 -1.3210644721984863 -2.5
-5.236073970794678 -1.7480517625808716 -2.5
-4.131904125213623 -3.6605420112609863 -2.5
-3.491215705871582 -4.275942325592041 -2.5
-3.135815382003784 -4.543002605438232 -2.5
-2.760087728500366 -4.780600547790527 -2.5
-2.366450071334839 -4.987187385559082 -2.5
-1.9574657678604126 -5.161425590515137 -2.5
-1.1041796207427979 -5.408588886260986 -2.5
0.22227050364017487 -5.515683650970459 -2.5
0.6653759479522705 -5.479911804199219 -2.5
1.5358006954193115 -5.302211761474609 -2.5
1.9574706554412842 -5.161440372467041 -2.5
3.135805606842041 -4.542993068695068 -2.5
4.887861251831055 -2.5653467178344727 -2.5
5.236069202423096 -1.7480615377426147 -2.5
5.359755516052246 -1.3210595846176147 -2.5
5.448671817779541 -0.885498046875 -2.5
5.502260684967041 -0.4441894292831421 -2.5
-5.343891620635986 -0.4314013719558716 -2.5
-5.291845798492432 -0.85999995470047 -2.5
-5.205483436584473 -1.2830321788787842 -2.5
-4.932255744934082 -2.101430654525757 -2.5
-4.747172832489014 -2.491508722305298 -2.5
-4.531289100646973 -2.865410089492798 -2.5
-4.286035060882568 -3.2207372188568115 -2.5
-4.01296854019165 -3.555170774459839 -2.5
-3.0455565452575684 -4.412236213684082 -2.5
-2.6806395053863525 -4.642978191375732 -2.5
-2.298349618911743 -4.843637466430664 -2.5
-0.6462353467941284 -5.32217264175415 -2.5
-0.2158837914466858 -5.356914043426514 -2.5
0.21586912870407104 -5.356914043426514 -2.5
0.6462255716323853 -5.322167873382568 -2.5
1.9011181592941284 -5.012866020202637 -2.5
2.298334836959839 -4.843637466430664 -2.5
2.6806297302246094 -4.642992973327637 -2.5
3.045542001724243 -4.412240982055664 -2.5
3.3907079696655273 -4.15286111831665 -2.5
3.713876962661743 -3.8665623664855957 -2.5
4.01296854019165 -3.55517578125 -2.5
4.286020278930664 -3.2207372188568115 -2.5
4.747162818908691 -2.491513729095459 -2.5
4.9322509765625 -2.101430654525757 -2.5
5.085351467132568 -1.69775390625 -2.5
5.291840553283691 -0.8600048422813416 -2.5
5.343876838684082 -0.4314013719558716 -2.5
