ply
format ascii 1.0
element vertex 762
property float x
property float y
property float z
end_header
9.543309211730957 -16.529491424560547 5.114241123199463
9.545222282409668 -16.53280258178711 4.889190673828125
9.554652214050293 -16.54912567138672 3.780440092086792
9.556510925292969 -16.552349090576172 3.56156063079834
9.56204891204834 -16.561952590942383 2.9095921516418457
9.565716743469238 -16.56830596923828 2.4782729148864746
-22.08245086669922 -9.408514976501465 2.839280366897583
9.567543983459473 -16.57146453857422 2.263444185256958
-22.08256721496582 -11.589828491210938 2.670121908187866
9.573006629943848 -16.580917358398438 1.6216223239898682
9.574812889099121 -16.584056854248047 1.408392310142517
9.57662582397461 -16.58719253540039 1.1954302787780762
9.578433990478516 -16.590322494506836 0.9826809763908386
9.583850860595703 -16.599712371826172 0.3451949954032898
4.368802547454834 -6.329301834106445 0.05326705798506737
2.501594066619873 -6.596166610717773 -0.10749740153551102
2.963510751724243 -6.2454833984375 -0.10533828288316727
4.304931640625 -6.236762523651123 -0.11547698825597763
5.098526477813721 -6.244560241699219 -0.12284240126609802
6.009938716888428 -6.257011413574219 -0.13220153748989105
2.4250903129577637 -6.394443035125732 -0.18002791702747345
2.9530444145202637 -6.22341775894165 -0.18133391439914703
3.5911595821380615 -6.220063209533691 -0.1890687495470047
4.289106369018555 -6.213837623596191 -0.19875839352607727
5.991055965423584 -6.237353324890137 -0.22766631841659546
2.9426465034484863 -6.201494216918945 -0.2568397521972656
3.578564405441284 -6.198246955871582 -0.26779890060424805
5.062358379364014 -6.200258731842041 -0.29950225353240967
5.953607082366943 -6.1983642578125 -0.41699767112731934
2.9220311641693115 -6.158056735992432 -0.4064686596393585
-14.038129806518555 -20.33772850036621 -1.7486846446990967
-8.154162406921387 -21.500713348388672 -1.6271737813949585
3.53948712348938 -6.130566120147705 -0.5009207129478455
4.226462364196777 -6.123085975646973 -0.5264748930931091
5.00894021987915 -6.134838581085205 -0.5604307651519775
5.919137001037598 -6.162480354309082 -0.6046398878097534
14.687800407409668 -13.012260437011719 -1.3885421752929688
14.533439636230469 -10.92116641998291 -1.2864141464233398
15.480148315429688 -9.789057731628418 -1.2960469722747803
-13.948190689086914 -17.083446502685547 -1.806435465812683
-7.776498794555664 -20.504873275756836 -1.7962441444396973
-8.062748908996582 -27.835790634155273 -2.3737003803253174
-1.8775488138198853 -15.46303653717041 -1.275852918624878
-1.169045329093933 -29.00967788696289 -2.378060817718506
1.9376220703125 -6.689438343048096 -0.5704406499862671
2.3386497497558594 -6.166508674621582 -0.540190577507019
2.9016528129577637 -6.11510705947876 -0.5544039607048035
3.526618480682373 -6.1082763671875 -0.5777166485786438
4.215151309967041 -6.106698989868164 -0.6077739000320435
5.907028675079346 -6.149868011474609 -0.6984501481056213
14.444889068603516 -12.797060012817383 -1.5806797742843628
12.366744995117188 -6.490566253662109 -1.1439731121063232
-26.860151290893555 9.765624781721272e-06 -2.5
-26.079647064208984 -6.428081035614014 -2.5
-25.477840423583984 -8.505751609802246 -2.5
-24.71079444885254 -10.52828598022461 -2.5
-23.783491134643555 -12.482539176940918 -2.5
-13.948190689086914 -17.083452224731445 -2.052706480026245
-12.631449699401855 -21.87830924987793 -2.3513357639312744
-7.848876953125 -20.69572639465332 -2.060121536254883
-1.8776586055755615 -15.463930130004883 -1.4498711824417114
-0.6209863424301147 -15.409750938415527 -1.4354218244552612
0.6218823194503784 -15.431859970092773 -1.4374816417694092
1.8946630954742432 -6.541122913360596 -0.633837103843689
2.3333423137664795 -6.152514457702637 -0.6124412417411804
4.208388805389404 -6.096894264221191 -0.6895225644111633
14.397500038146973 -12.755078315734863 -1.7902785539627075
13.381375312805176 -10.055448532104492 -1.557917594909668
12.023655891418457 -7.603310585021973 -1.3240777254104614
25.47783660888672 -8.505756378173828 -2.5
26.5123233795166 -4.308686256408691 -2.5
26.77305793762207 -2.1613523960113525 -2.5
-23.977596282958984 4.882812390860636e-06 -2.5
-23.667064666748047 -3.8462841510772705 -2.5
-23.28081512451172 -5.738222599029541 -2.5
-22.058876037597656 -9.398407936096191 -2.5
-16.853384017944336 -14.930805206298828 -2.347599983215332
-15.212980270385742 -15.838393211364746 -2.289754629135132
-13.831025123596191 -16.93995475769043 -2.280167818069458
-7.986464500427246 -21.058578491210938 -2.3482518196105957
-6.272021293640137 -21.653499603271484 -2.3504858016967773
-1.8777319192886353 -15.464545249938965 -1.6242399215698242
0.6208178400993347 -15.40538501739502 -1.6075326204299927
2.720576047897339 -22.40593719482422 -2.3532931804656982
1.8533471822738647 -6.398496150970459 -0.6945544481277466
2.890993595123291 -6.092641353607178 -0.7031297087669373
4.201630592346191 -6.087109088897705 -0.7711776494979858
4.981738090515137 -6.101518630981445 -0.8212815523147583
14.560439109802246 -12.899428367614746 -2.028202533721924
13.125125885009766 -9.862895011901855 -1.7117916345596313
12.167753219604492 -6.386127948760986 -1.4327753782272339
22.058862686157227 -9.398432731628418 -2.5
22.74359893798828 -7.592929363250732 -2.5
23.28082275390625 -5.738222599029541 -2.5
23.667062759399414 -3.8462841510772705 -2.5
23.899816513061523 -1.9293944835662842 -2.5
-21.64889144897461 4.882812390860636e-06 -2.5
-21.578691482543945 -1.7420116662979126 -2.5
-21.36854362487793 -3.4727439880371094 -2.5
-21.01980972290039 -5.180942058563232 -2.5
-20.534765243530273 -6.855512619018555 -2.5
-19.169139862060547 -10.060747146606445 -2.5
-16.193815231323242 -14.346484184265137 -2.4983649253845215
-12.753437042236328 -15.620131492614746 -2.32865571975708
-11.548288345336914 -16.730575561523438 -2.347599983215332
-7.208825588226318 -19.00811004638672 -2.347599983215332
-5.655934810638428 -19.52653694152832 -2.347599983215332
-1.8778173923492432 -15.465205192565918 -1.7990282773971558
2.324589729309082 -6.129438400268555 -0.7570167183876038
2.887331485748291 -6.084921836853027 -0.7777758836746216
4.194882869720459 -6.077333927154541 -0.8527572154998779
4.972354412078857 -6.090034008026123 -0.9079107642173767
11.970602989196777 -6.282651424407959 -1.5611811876296997
19.91653823852539 -8.485639572143555 -2.5
20.53476333618164 -6.855517387390137 -2.5
21.36854362487793 -3.472729444503784 -2.5
21.578685760498047 -1.7420165538787842 -2.5
-19.727983474731445 4.882812390860636e-06 -2.5
-19.472515106201172 -3.164599657058716 -2.5
-17.4682559967041 -9.168061256408691 -2.5
-15.77138900756836 -11.851435661315918 -2.5
-13.666056632995605 -14.227875709533691 -2.5
-9.262687683105469 -16.043437957763672 -2.347599983215332
-6.569191932678223 -17.321514129638672 -2.347599983215332
-5.154086589813232 -17.793949127197266 -2.347599983215332
-1.87789785861969 -15.465892791748047 -1.9742876291275024
-0.6187597513198853 -15.35445785522461 -1.9473503828048706
2.232985734939575 -18.390296936035156 -2.347599983215332
1.7928564548492432 -6.189667701721191 -0.8166171312332153
3.5054736137390137 -6.0716552734375 -0.8884501457214355
4.188137054443359 -6.067563533782959 -0.9342854022979736
11.787302017211914 -6.186450004577637 -1.6869593858718872
19.472509384155273 -3.1645946502685547 -2.5
-18.116058349609375 4.882812390860636e-06 -2.5
-18.05730438232422 -1.4577343463897705 -2.5
-17.881450653076172 -2.9060301780700684 -2.5
-17.183740615844727 -5.736772537231445 -2.5
-16.66639518737793 -7.100883483886719 -2.5
-16.040971755981445 -8.4189453125 -2.5
-15.311501502990723 -9.682412147521973 -2.5
-14.482744216918945 -10.883075714111328 -2.5
-11.457406997680664 -14.032787322998047 -2.5
-8.505849838256836 -14.73256778717041 -2.347599983215332
-6.032433986663818 -15.906206130981445 -2.347599983215332
-4.732956409454346 -16.340044021606445 -2.347599983215332
-3.402785539627075 -16.66790008544922 -2.347599983215332
1.2587841749191284 -10.3670015335083 -1.4411437511444092
1.490200161933899 -7.299472332000732 -1.0280969142913818
1.7818334102630615 -6.151601314544678 -0.8838099241256714
2.3188719749450684 -6.114360332489014 -0.9024178981781006
2.88000226020813 -6.06948709487915 -0.927092432975769
3.5008275508880615 -6.063618183135986 -0.9662214517593384
4.181391716003418 -6.057787895202637 -1.015777587890625
5.844006061553955 -6.084262371063232 -1.1641968488693237
13.56005859375 -12.01317310333252 -2.5
13.035406112670898 -9.795473098754883 -2.2501606941223145
10.783283233642578 -6.818940162658691 -1.760649561882019
11.713733673095703 -6.147836685180664 -1.825596570968628
17.589632034301758 -4.335458755493164 -2.5
-16.743759155273438 0.0 -2.5
-16.68946647644043 -1.3473193645477295 -2.5
-16.526933670043945 -2.6858983039855957 -2.5
-14.825859069824219 -7.781215667724609 -2.5
-14.151655197143555 -8.948969841003418 -2.5
-13.385676383972168 -10.05868148803711 -2.5
-11.59881591796875 -12.075634956359863 -2.5
-10.589509010314941 -12.969804763793945 -2.5
-8.358927726745605 -14.478099822998047 -2.496134042739868
-6.980414867401123 -14.710922241210938 -2.4312102794647217
-5.585707664489746 -14.72829532623291 -2.3519091606140137
-4.374435901641846 -15.102274894714355 -2.347599983215332
-0.618762195110321 -15.35445785522461 -2.2944250106811523
0.6195776462554932 -15.375804901123047 -2.2976162433624268
1.7778661251068115 -6.137895584106445 -0.9541147947311401
4.944267272949219 -6.055629730224609 -1.1672558784484863
12.532880783081055 -11.103168487548828 -2.5
13.385676383972168 -10.05868148803711 -2.5
10.72647476196289 -6.783012390136719 -1.894915223121643
11.664338111877441 -6.121913909912109 -1.9668898582458496
15.882064819335938 -5.302216529846191 -2.5
16.257211685180664 -4.007045745849609 -2.5
16.52692985534668 -2.6858935356140137 -2.5
16.689464569091797 -1.347314476966858 -2.5
-15.510626792907715 -1.2521532773971558 -2.5
-13.77865982055664 -7.231601238250732 -2.5
-13.152077674865723 -8.316879272460938 -2.5
-12.440192222595215 -9.348207473754883 -2.5
-10.779553413391113 -11.222695350646973 -2.5
-9.841532707214355 -12.053715705871582 -2.5
-1.787331461906433 -14.719985008239746 -2.382239580154419
0.593310534954071 -14.722763061523438 -2.367236614227295
1.1681591272354126 -9.620654106140137 -1.5569791793823242
1.3863964080810547 -6.791005611419678 -1.1135269403457642
1.7738988399505615 -6.124204158782959 -1.0243390798568726
5.825798034667969 -6.065297603607178 -1.3511229753494263
11.647640228271484 -10.318915367126465 -2.5
12.44019889831543 -9.3482027053833 -2.5
11.66434097290039 -6.121913909912109 -2.116377353668213
14.31588363647461 -6.099423885345459 -2.5
14.760259628295898 -4.927700042724609 -2.5
15.359575271606445 -2.4961767196655273 -2.5
-14.531054496765137 0.0 -2.5
-14.483932495117188 -1.1692675352096558 -2.5
-14.342875480651855 -2.3309521675109863 -2.5
-14.108805656433105 -3.4775195121765137 -2.5
-13.783231735229492 -4.601523399353027 -2.5
-12.281503677368164 -7.766357421875 -2.5
-11.616740226745605 -8.729418754577637 -2.5
-10.066015243530273 -10.479838371276855 -2.5
-9.19009017944336 -11.255834579467773 -2.5
-8.254582405090332 -11.958818435668945 -2.5
-7.265524864196777 -12.584267616271973 -2.5
-6.229350566864014 -13.12808609008789 -2.5
-5.152782917022705 -13.586767196655273 -2.5
-4.042797565460205 -13.957338333129883 -2.5
-2.9065868854522705 -14.237382888793945 -2.5
-0.5841357111930847 -14.495136260986328 -2.495845079421997
0.9474340677261353 -7.802797794342041 -1.3522944450378418
1.3366650342941284 -6.547407150268555 -1.1496849060058594
1.769936442375183 -6.110522270202637 -1.094498872756958
3.486887216567993 -6.039462566375732 -1.1998043060302734
4.168647289276123 -6.039320945739746 -1.2625243663787842
4.932896614074707 -6.041698932647705 -1.3419042825698853
5.819999694824219 -6.059267520904541 -1.4454576969146729
10.876648902893066 -9.635873794555664 -2.5
11.616765022277832 -8.729423522949219 -2.5
11.664338111877441 -6.121909141540527 -2.266396999359131
13.368273735046387 -5.695683479309082 -2.5
13.783230781555176 -4.601528167724609 -2.5
14.108804702758789 -3.4775195121765137 -2.5
-13.62567138671875 -2.9296874345163815e-05 -2.5
-13.581488609313965 -1.096411108970642 -2.5
-13.449223518371582 -2.185722589492798 -2.5
-13.229731559753418 -3.260854482650757 -2.5
-10.8929443359375 -8.18551254272461 -2.5
-10.198957443237305 -9.035492897033691 -2.5
-8.6174898147583 -10.554511070251465 -2.5
-5.841217994689941 -12.3101167678833 -2.5
-4.831728458404541 -12.740219116210938 -2.5
-3.790900707244873 -13.0877046585083 -2.5
-0.5486474633216858 -13.614619255065918 -2.5
0.4244067370891571 -10.531484603881836 -1.9338552951812744
1.2928320169448853 -6.332705020904541 -1.1858723163604736
1.7659765481948853 -6.096845626831055 -1.164613127708435
2.2998900413513184 -6.064311504364014 -1.1899926662445068
4.927735328674316 -6.035376071929932 -1.4295721054077148
5.818323612213135 -6.057519435882568 -1.5410597324371338
10.638179779052734 -6.727182388305664 -2.3093786239624023
12.064936637878418 -6.332162857055664 -2.5
13.229734420776367 -3.2608447074890137 -2.5
13.449225425720215 -2.185722589492798 -2.5
13.581487655639648 -1.0964159965515137 -2.5
-12.823444366455078 0.0 -2.5
-12.781865119934082 -1.0318652391433716 -2.5
-12.657387733459473 -2.0570361614227295 -2.5
-11.354601860046387 -5.959355354309082 -2.5
-10.838249206542969 -6.853691101074219 -2.5
-9.59848403930664 -8.503520011901855 -2.5
-8.8831148147583 -9.248300552368164 -2.5
-6.411725997924805 -11.10543441772461 -2.5
-4.547255992889404 -11.990131378173828 -2.5
-1.5456981658935547 -12.72994613647461 -2.5
-0.5163427591323853 -12.813041687011719 -2.5
0.41432616114616394 -10.28139591217041 -2.0060412883758545
0.8289403915405273 -6.826943397521973 -1.3407241106033325
1.2622265815734863 -6.182792663574219 -1.2302298545837402
1.7620165348052979 -6.083178520202637 -1.2346962690353394
2.294245481491089 -6.049428462982178 -1.26133394241333
2.866340160369873 -6.040688514709473 -1.3035176992416382
4.172888278961182 -6.045473575592041 -1.4321017265319824
5.817216873168945 -6.056366920471191 -1.6371554136276245
9.59848690032959 -8.503515243530273 -2.5
10.838247299194336 -6.853705883026123 -2.5
12.163509368896484 -4.060776233673096 -2.5
12.657387733459473 -2.0570263862609863 -2.5
12.781864166259766 -1.0318652391433716 -2.5
-12.10750961303711 0.0 -2.5
-12.068246841430664 -0.9742480516433716 -2.5
-11.950724601745605 -1.9421923160552979 -2.5
-11.484414100646973 -3.8340673446655273 -2.5
-11.13866138458252 -4.745747089385986 -2.5
-10.720673561096191 -5.626650333404541 -2.5
-10.233149528503418 -6.471059322357178 -2.5
-9.679262161254883 -7.273490905761719 -2.5
-9.062602043151855 -8.028769493103027 -2.5
-8.387160301208496 -8.731972694396973 -2.5
-4.293381214141846 -11.320717811584473 -2.5
-3.368522882461548 -11.629477500915527 -2.5
-2.42181396484375 -11.86282730102539 -2.5
-1.4593944549560547 -12.019232749938965 -2.5
0.41676023602485657 -10.341772079467773 -2.137136697769165
0.8025121688842773 -6.609257698059082 -1.3747249841690063
1.7580615282058716 -6.069526195526123 -1.3047711849212646
2.291074275970459 -6.041069030761719 -1.3340728282928467
4.917377948760986 -6.022690296173096 -1.6054449081420898
10.233146667480469 -6.47106409072876 -2.5
10.720670700073242 -5.626640319824219 -2.5
11.138664245605469 -4.745741844177246 -2.5
11.75568675994873 -2.897524356842041 -2.5
12.06825065612793 -0.97425776720047 -2.5
-11.316057205200195 -1.8390429019927979 -2.5
-11.13137435913086 -2.74365234375 -2.5
-9.68969440460205 -6.127397537231445 -2.5
-9.165224075317383 -6.887216567993164 -2.5
-8.581311225891113 -7.602372646331787 -2.5
-7.941752910614014 -8.268241882324219 -2.5
-7.250685691833496 -8.880473136901855 -2.5
-5.732255935668945 -9.928559303283691 -2.5
-4.914745807647705 -10.357622146606445 -2.5
-4.065371036529541 -10.719491958618164 -2.5
-0.46162596344947815 -11.455214500427246 -2.5
0.7852758765220642 -6.467299461364746 -1.4206433296203613
1.2478612661361694 -6.112411975860596 -1.3603909015655518
2.869377374649048 -6.047089576721191 -1.459574580192566
4.177175045013428 -6.051684379577637 -1.6035009622573853
4.916543006896973 -6.021669864654541 -1.6951994895935059
5.818567752838135 -6.057773113250732 -1.8316391706466675
9.165221214294434 -6.887216567993164 -2.5
11.131378173828125 -2.7436375617980957 -2.5
-10.883708000183105 4.882812390860636e-06 -2.5
-10.848405838012695 -0.875781238079071 -2.5
-10.742758750915527 -1.7458739280700684 -2.5
-10.323588371276855 -3.446523427963257 -2.5
-8.700896263122559 -6.538300514221191 -2.5
-7.539411544799805 -7.849355220794678 -2.5
-6.182643890380859 -8.957109451293945 -2.5
-5.441850662231445 -9.425565719604492 -2.5
-4.665754318237305 -9.832880973815918 -2.5
-3.0280394554138184 -10.453989028930664 -2.5
-2.1770215034484863 -10.663749694824219 -2.5
-1.3118847608566284 -10.80434513092041 -2.5
-0.4382348656654358 -10.874868392944336 -2.5
0.7701171636581421 -6.342460632324219 -1.46757173538208
1.2435449361801147 -6.091269493103027 -1.428032398223877
2.293447256088257 -6.047319412231445 -1.4856176376342773
2.870913028717041 -6.05032205581665 -1.5382872819900513
3.4942235946655273 -6.052163124084473 -1.6052534580230713
4.991032600402832 -6.112905025482178 -1.8127202987670898
5.819249153137207 -6.058481216430664 -1.9296119213104248
8.146567344665527 -7.217231273651123 -2.5
9.637039184570312 -5.057909965515137 -2.5
10.01278018951416 -4.266044616699219 -2.5
10.742759704589844 -1.7458691596984863 -2.5
-10.222241401672363 -1.66128408908844 -2.5
-9.823376655578613 -3.2795262336730957 -2.5
-9.170097351074219 -4.812841892242432 -2.5
-8.279314041137695 -6.221503734588623 -2.5
-7.751838207244873 -6.867538928985596 -2.5
-6.549829006195068 -8.022089958190918 -2.5
-5.883078575134277 -8.523110389709473 -2.5
-5.178178787231445 -8.968862533569336 -2.5
-3.6724119186401367 -9.683363914489746 -2.5
-2.8813230991363525 -9.947465896606445 -2.5
-2.071537971496582 -10.14706039428711 -2.5
-1.248317837715149 -10.280844688415527 -2.5
-0.41700926423072815 -10.347963333129883 -2.5
0.41700926423072815 -10.347953796386719 -2.5
0.7643163800239563 -6.294697284698486 -1.5306848287582397
1.755031704902649 -6.059067249298096 -1.5227669477462769
4.181689262390137 -6.05822229385376 -1.776997685432434
4.914018630981445 -6.018579006195068 -1.8756285905838013
5.830872535705566 -6.07058572769165 -2.031918525695801
7.751842021942139 -6.867534160614014 -2.5
8.279312133789062 -6.221498966217041 -2.5
9.170098304748535 -4.812831878662109 -2.5
9.823379516601562 -3.2795262336730957 -2.5
10.05541706085205 -2.478442430496216 -2.5
10.222243309020996 -1.6612792015075684 -2.5
10.322772026062012 -0.8333495855331421 -2.5
-9.843276023864746 -0.7946386337280273 -2.5
-9.038825035095215 -3.851083993911743 -2.4872725009918213
-8.744142532348633 -4.589286804199219 -2.5
-8.346503257751465 -5.278017520904541 -2.5
-6.840864181518555 -7.122089862823486 -2.5
-6.245588302612305 -7.649462699890137 -2.5
-5.609809398651123 -8.127216339111328 -2.5
-4.937653541564941 -8.552265167236328 -2.5
-3.5018310546875 -9.233564376831055 -2.5
-2.747485399246216 -9.485404968261719 -2.5
-1.190334439277649 -9.803296089172363 -2.5
-0.3976367115974426 -9.867284774780273 -2.5
0.3976391553878784 -9.867284774780273 -2.5
0.759838879108429 -6.2578125 -1.5958434343338013
2.8740062713623047 -6.056840896606445 -1.69719398021698
4.184186935424805 -6.061840534210205 -1.864673137664795
6.840859413146973 -7.122094631195068 -2.5
7.894737243652344 -5.932514667510986 -2.5
9.085078239440918 -3.870790958404541 -2.5
9.588340759277344 -2.3633203506469727 -2.5
9.747419357299805 -1.5841162204742432 -2.5
9.843278884887695 -0.7946386337280273 -2.5
-9.434601783752441 -4.882812390860636e-06 -2.5
-9.404006004333496 -0.7591796517372131 -2.5
-9.160446166992188 -2.2578563690185547 -2.5
-8.94906234741211 -2.9876365661621094 -2.5
-8.353922843933105 -4.384482383728027 -2.5
-7.54241943359375 -5.667768478393555 -2.5
-6.535575866699219 -6.804252624511719 -2.5
-5.359467506408691 -7.7645263671875 -2.5
-4.717302322387695 -8.170595169067383 -2.5
-4.044538497924805 -8.523686408996582 -2.5
-2.624870538711548 -9.062104225158691 -2.5
-1.8871630430221558 -9.24393081665039 -2.5
1.2420654296875 -6.084043025970459 -1.645416259765625
2.8755688667297363 -6.060136795043945 -1.777437686920166
3.5001463890075684 -6.062426567077637 -1.8549505472183228
4.186721324920654 -6.065507888793945 -1.9529552459716797
7.974029541015625 -5.04248046875 -2.5
8.679640769958496 -3.6980466842651367 -2.5
8.94906234741211 -2.9876365661621094 -2.5
9.160446166992188 -2.2578563690185547 -2.5
9.404006958007812 -0.75916987657547 -2.5
-9.029281616210938 -4.882812390860636e-06 -2.5
-8.99999713897705 -0.7265576124191284 -2.5
-8.91235065460205 -1.4484081268310547 -2.5
-8.766899108886719 -2.1608641147613525 -2.5
-8.564597129821777 -2.8592870235443115 -2.5
-8.306742668151855 -3.5391600131988525 -2.5
-7.99502420425415 -4.196117877960205 -2.5
-7.631454944610596 -4.825849533081055 -2.5
-7.218390941619873 -5.424272537231445 -2.5
-6.758510589599609 -5.987519264221191 -2.5
-5.710522174835205 -6.994121074676514 -2.5
-2.5121068954467773 -8.672778129577637 -2.5
-1.8060864210128784 -8.8468017578125 -2.5
-1.0883593559265137 -8.963441848754883 -2.5
-0.36357176303863525 -9.021947860717773 -2.5
2.8771727085113525 -6.063515663146973 -1.858262538909912
4.914018630981445 -6.018579006195068 -2.1512985229492188
7.995028972625732 -4.196113109588623 -2.5
8.306751251220703 -3.539174795150757 -2.5
8.564597129821777 -2.8592870235443115 -2.5
-8.627084732055664 -0.6964501738548279 -2.5
-8.543070793151855 -1.3883886337280273 -2.5
-8.403644561767578 -2.0713231563568115 -2.5
-7.962563514709473 -3.392534017562866 -2.5
-7.315248966217041 -4.625888347625732 -2.5
-6.919301509857178 -5.199511528015137 -2.5
-5.473908424377441 -6.704316139221191 -2.5
-4.91668701171875 -7.123051643371582 -2.5
-4.32757568359375 -7.495575904846191 -2.5
-3.069155216217041 -8.092704772949219 -2.5
-2.408017635345459 -8.313422203063965 -2.5
-1.0432616472244263 -8.592050552368164 -2.5
0.75154048204422 -6.189472675323486 -1.8009302616119385
1.27886962890625 -6.264301776885986 -1.8467364311218262
1.891787052154541 -6.531200885772705 -1.9640520811080933
2.299990177154541 -6.06456995010376 -1.8734688758850098
2.878974437713623 -6.067309379577637 -1.9397999048233032
3.504343271255493 -6.06969690322876 -2.0244243144989014
4.191872596740723 -6.072973728179932 -2.1314499378204346
4.914021015167236 -6.018579006195068 -2.244291305541992
5.995633602142334 -6.242124080657959 -2.5
6.919300556182861 -5.199516296386719 -2.5
7.315248966217041 -4.625888347625732 -2.5
7.962563514709473 -3.392529249191284 -2.5
8.543072700500488 -1.3883886337280273 -2.5
8.627087593078613 -0.6964501738548279 -2.5
-8.308676719665527 -4.882812390860636e-06 -2.5
-8.281730651855469 -0.6685644388198853 -2.5
-7.881081581115723 -2.631098508834839 -2.5
-7.643810749053955 -3.256723642349243 -2.5
-7.356965065002441 -3.8612401485443115 -2.5
-7.022411823272705 -4.440707683563232 -2.5
-6.642314434051514 -4.991376876831055 -2.5
-6.219133377075195 -5.509677410125732 -2.5
-5.755627155303955 -5.992231369018555 -2.5
-5.254782676696777 -6.435946941375732 -2.5
-4.719865798950195 -6.837895393371582 -2.5
-4.154338359832764 -7.195512771606445 -2.5
-2.946298837661743 -7.768754482269287 -2.5
-1.6619482040405273 -8.140761375427246 -2.5
-1.001501441001892 -8.248095512390137 -2.5
1.244753360748291 -6.09719705581665 -1.8724279403686523
1.7433056831359863 -6.018579006195068 -1.8853715658187866
2.299494504928589 -6.063271522521973 -1.951174020767212
2.8807835578918457 -6.071123123168945 -2.0219626426696777
3.506643056869507 -6.073686599731445 -2.110229015350342
4.719868183135986 -6.837904930114746 -2.5
4.914019584655762 -6.018579006195068 -2.337878942489624
6.219130516052246 -5.50967264175415 -2.5
6.642310619354248 -4.991372108459473 -2.5
7.356967449188232 -3.8612353801727295 -2.5
8.281733512878418 -0.6685693264007568 -2.5
-7.986814022064209 -4.882812390860636e-06 -2.5
-7.883386135101318 -1.2811864614486694 -2.5
-7.575783729553223 -2.529169797897339 -2.5
-7.347702503204346 -3.130561351776123 -2.5
-6.750370979309082 -4.2686767578125 -2.5
-6.385002136230469 -4.798012733459473 -2.5
-5.978215217590332 -5.296230316162109 -2.5
-3.993408203125 -6.916781902313232 -2.5
-1.597570776939392 -7.825405120849609 -2.5
-0.3215966820716858 -7.980331897735596 -2.5
0.7524487376213074 -6.196967601776123 -1.9539955854415894
1.7433031797409058 -6.018579006195068 -1.9613498449325562
2.298967123031616 -6.06188440322876 -2.0293402671813965
4.537027359008789 -6.573017597198486 -2.5
5.532656192779541 -5.760112285614014 -2.5
5.978212833404541 -5.296235084533691 -2.5
6.384999752044678 -4.798022270202637 -2.5
6.750373363494873 -4.2686767578125 -2.5
7.071969985961914 -3.7116503715515137 -2.5
7.347707271575928 -3.130556583404541 -2.5
7.754730224609375 -1.9113671779632568 -2.5
-7.463588714599609 -1.8396142721176147 -2.5
-7.071850299835205 -3.0130321979522705 -2.5
-6.4969482421875 -4.108417987823486 -2.5
-4.861584186553955 -5.954360008239746 -2.5
-3.8434813022613525 -6.6571044921875 -2.5
-2.725839853286743 -7.187436580657959 -2.5
-1.5375927686691284 -7.5316162109375 -2.5
-0.9265649318695068 -7.630912780761719 -2.5
-0.30952146649360657 -7.680732250213623 -2.5
0.30952146649360657 -7.680732250213623 -2.5
0.7540332078933716 -6.210000038146973 -2.0344862937927246
1.2287060022354126 -6.018579006195068 -1.9977728128433228
1.7433031797409058 -6.018579006195068 -2.0378570556640625
3.295341730117798 -6.944789886474609 -2.5
3.8434836864471436 -6.657114028930664 -2.5
5.324946403503418 -5.543862342834473 -2.5
5.75377893447876 -5.097402095794678 -2.5
6.496942043304443 -4.108417987823486 -2.5
7.291364669799805 -2.434218645095825 -2.5
7.4635910987854 -1.8396142721176147 -2.5
-7.310956954956055 -1.1881542205810547 -2.5
-6.814174652099609 -2.903251886367798 -2.5
-6.558461666107178 -3.442138671875 -2.5
-6.260214805603027 -3.9587206840515137 -2.5
-5.921371936798096 -4.449618816375732 -2.5
-5.544126033782959 -4.911660194396973 -2.5
-5.130927562713623 -5.341855525970459 -2.5
-4.684440612792969 -5.737397193908691 -2.5
-3.703437328338623 -6.414535999298096 -2.5
-2.060724973678589 -7.114433288574219 -2.5
-1.4815648794174194 -7.257182598114014 -2.5
-0.8928002715110779 -7.352870941162109 -2.5
-0.2982470691204071 -7.400859355926514 -2.5
1.2287060022354126 -6.018579006195068 -2.073317527770996
2.3011815547943115 -6.067714691162109 -2.190338134765625
3.1752684116363525 -6.691747665405273 -2.5
5.544124603271484 -4.911669731140137 -2.5
5.921370506286621 -4.449618816375732 -2.5
6.260214805603027 -3.9587156772613525 -2.5
6.814172267913818 -2.9032421112060547 -2.5
-7.121418476104736 -0.574902355670929 -2.5
-6.572873592376709 -2.8004393577575684 -2.5
-4.949233055114746 -5.152695178985596 -2.5
-2.533505916595459 -6.680307388305664 -2.5
-1.9877538681030273 -6.862504959106445 -2.5
0.2876830995082855 -7.138783931732178 -2.5
0.8611865043640137 -7.092490196228027 -2.5
1.2287060022354126 -6.018579006195068 -2.149432420730591
1.7433031797409058 -6.018579006195068 -2.1925601959228516
4.058588981628418 -5.8798828125 -2.5
4.518561840057373 -5.534233093261719 -2.5
4.949228286743164 -5.152695178985596 -2.5
5.711689472198486 -4.292060375213623 -2.5
6.038532733917236 -3.81853985786438 -2.5
6.326218128204346 -3.320258617401123 -2.5
6.5728759765625 -2.8004345893859863 -2.5
6.77690315246582 -2.262455940246582 -2.5
7.052066326141357 -1.1460790634155273 -2.5
-6.898410320281982 0.0 -2.5
-6.87603759765625 -0.5550976395606995 -2.5
-6.697954177856445 -1.6509032249450684 -2.5
-6.54339075088501 -2.184501886367798 -2.5
-6.346394062042236 -2.7039403915405273 -2.5
-6.108242034912109 -3.2058446407318115 -2.5
-5.830468654632568 -3.686962842941284 -2.5
-5.163532733917236 -4.57449197769165 -2.5
-3.9187498092651367 -5.67727518081665 -2.5
-0.2777734398841858 -6.89281702041626 -2.5
0.8315111994743347 -6.848114967346191 -2.5
1.2287036180496216 -6.018579006195068 -2.2261364459991455
2.4462084770202637 -6.450126647949219 -2.5
2.957292318344116 -6.232372760772705 -2.5
3.9187450408935547 -5.67727518081665 -2.5
4.362868785858154 -5.343544960021973 -2.5
4.778693675994873 -4.975156307220459 -2.5
5.163532733917236 -4.57449197769165 -2.5
5.514883995056152 -4.1441650390625 -2.5
6.108237266540527 -3.2058496475219727 -2.5
6.346397399902344 -2.7039451599121094 -2.5
6.543393611907959 -2.184506893157959 -2.5
6.697955131530762 -1.6508984565734863 -2.5
6.80907678604126 -1.1065820455551147 -2.5
-6.645224571228027 -0.5364648103713989 -2.5
-6.473114967346191 -1.5954785346984863 -2.5
-5.634746074676514 -3.5631980895996094 -2.5
-4.9902024269104 -4.420937538146973 -2.5
-4.216411113739014 -5.164174556732178 -2.5
-3.7871997356414795 -5.486703872680664 -2.5
-0.8036010265350342 -6.618227481842041 -2.5
0.26844480633735657 -6.661440372467041 -2.5
0.8035986423492432 -6.618232250213623 -2.5
1.7433031797409058 -6.018579006195068 -2.3496782779693604
2.3640942573547363 -6.233608245849609 -2.5
3.3334178924560547 -5.773652076721191 -2.5
3.7871997356414795 -5.486699104309082 -2.5
4.990201473236084 -4.420937538146973 -2.5
5.329758167266846 -4.005058288574219 -2.5
5.63474702835083 -3.5631980895996094 -2.5
5.90319299697876 -3.0982322692871094 -2.5
6.323742389678955 -2.1111767292022705 -2.5
6.645219802856445 -0.5364550948143005 -2.5
-6.448564529418945 4.882812390860636e-06 -2.5
-6.427651405334473 -0.5188915729522705 -2.5
-6.261178970336914 -1.5432469844818115 -2.5
-5.155258655548096 -3.8739209175109863 -2.5
-3.663203001022339 -5.307055473327637 -2.5
0.25965574383735657 -6.443334579467773 -2.5
0.7772876024246216 -6.401547908782959 -2.5
1.7941014766693115 -6.193954944610596 -2.5
2.286691904067993 -6.029506683349609 -2.5
2.7644505500793457 -5.82595682144165 -2.5
3.2242822647094727 -5.584619045257568 -2.5
4.467074871063232 -4.650717735290527 -2.5
5.155258655548096 -3.8739256858825684 -2.5
5.450261116027832 -3.446533203125 -2.5
5.709921836853027 -2.9967918395996094 -2.5
5.932546138763428 -2.5276172161102295 -2.5
6.116696834564209 -2.042050838470459 -2.5
-6.061022758483887 -1.4939062595367432 -2.5
-5.742900371551514 -2.4468212127685547 -2.5
-5.527387619018555 -2.900995969772339 -2.5
-5.27603006362915 -3.336357355117798 -2.5
-4.990458965301514 -3.7500829696655273 -2.5
-4.672516822814941 -4.139492034912109 -2.5
-3.947988271713257 -4.835410118103027 -2.5
-3.121206045150757 -5.406088829040527 -2.5
-2.2135913372039795 -5.836762428283691 -2.5
-1.2486474514007568 -6.116264343261719 -2.5
-0.75244140625 -6.196904182434082 -2.5
-0.25135740637779236 -6.237358093261719 -2.5
0.25135496258735657 -6.237353324890137 -2.5
1.2486425638198853 -6.116259574890137 -2.5
4.324273586273193 -4.502050876617432 -2.5
4.672516822814941 -4.139487266540527 -2.5
4.990457534790039 -3.7500829696655273 -2.5
5.921163082122803 -1.9767675399780273 -2.5
6.061025142669678 -1.4939160346984863 -2.5
-6.047377586364746 0.0 -2.5
-6.02776575088501 -0.4866064488887787 -2.5
-5.969062328338623 -0.9700683355331421 -2.5
-5.563459396362305 -2.370366096496582 -2.5
-4.83453369140625 -3.6329197883605957 -2.5
-4.526520729064941 -4.010151386260986 -2.5
-4.189162731170654 -4.361376762390137 -2.5
-3.435305118560791 -4.976889610290527 -2.5
-3.023686408996582 -5.237172603607178 -2.5
-2.592475414276123 -5.463505744934082 -2.5
-1.209631323814392 -5.925160884857178 -2.5
-0.7289330959320068 -6.003281116485596 -2.5
-0.2435034066438675 -6.042470455169678 -2.5
0.2435034066438675 -6.042470455169678 -2.5
0.7289330959320068 -6.003281116485596 -2.5
1.209631323814392 -5.925160884857178 -2.5
3.023674249649048 -5.237172603607178 -2.5
3.43530011177063 -4.976889610290527 -2.5
3.8246335983276367 -4.684330940246582 -2.5
4.189162731170654 -4.361386775970459 -2.5
4.526524543762207 -4.010156154632568 -2.5
4.834528923034668 -3.6329150199890137 -2.5
5.111181735992432 -3.232119083404541 -2.5
5.354683876037598 -2.810356378555298 -2.5
5.563461780548096 -2.370371103286743 -2.5
5.969061374664307 -0.9700683355331421 -2.5
6.027763366699219 -0.4866113066673279 -2.5
-5.862521648406982 4.882812390860636e-06 -2.5
-5.843508243560791 -0.4717333912849426 -2.5
-5.786593914031982 -0.9404003620147705 -2.5
-5.692165374755859 -1.402993083000183 -2.5
-5.393398284912109 -2.297905206680298 -2.5
-5.191000938415527 -2.7244482040405273 -2.5
-4.954941272735596 -3.133315324783325 -2.5
-4.686745643615723 -3.521860361099243 -2.5
-4.061108112335205 -4.228046894073486 -2.5
-3.707719564437866 -4.5411376953125 -2.5
-2.5132176876068115 -5.296494007110596 -2.5
-0.7066503763198853 -5.819775104522705 -2.5
-0.23605956137180328 -5.857763767242432 -2.5
0.23605956137180328 -5.857763767242432 -2.5
1.1726561784744263 -5.744042873382568 -2.5
2.9312572479248047 -5.077089786529541 -2.5
3.3302879333496094 -4.824750900268555 -2.5
3.7077221870422363 -4.541142463684082 -2.5
4.388156414031982 -3.8875732421875 -2.5
4.686748027801514 -3.521860361099243 -2.5
4.954941272735596 -3.133315324783325 -2.5
5.393397331237793 -2.297910213470459 -2.5
5.692162990570068 -1.4029979705810547 -2.5
5.843503475189209 -0.4717382788658142 -2.5
-5.687026023864746 0.0 -2.5
-5.613379001617432 -0.9122655987739563 -2.5
-5.394345760345459 -1.8008935451507568 -2.5
-5.035605430603027 -2.642890453338623 -2.5
-4.806613445281982 -3.0395164489746094 -2.5
-3.596730947494507 -4.405195236206055 -2.5
-3.230597972869873 -4.680322170257568 -2.5
-2.437980890274048 -5.137934684753418 -2.5
-2.0166454315185547 -5.317455768585205 -2.5
-0.685498058795929 -5.645556449890137 -2.5
0.22899168729782104 -5.682412147521973 -2.5
0.6854931712150574 -5.645556449890137 -2.5
1.5822290182113647 -5.462485313415527 -2.5
2.0166430473327637 -5.317461013793945 -2.5
2.437983274459839 -5.137944221496582 -2.5
3.596730947494507 -4.405190467834473 -2.5
4.256796836853027 -3.771191358566284 -2.5
4.546450138092041 -3.4164257049560547 -2.5
5.035609245300293 -2.642895460128784 -2.5
5.231945514678955 -2.229120969772339 -2.5
5.394349098205566 -1.8008935451507568 -2.5
5.521767616271973 -1.3609960079193115 -2.5
-5.448671817779541 -0.8854931592941284 -2.5
-5.359748363494873 -1.3210595846176147 -2.5
-5.236071586608887 -1.7480566501617432 -2.5
-5.07843017578125 -2.163710832595825 -2.5
-4.13189697265625 -3.660537004470825 -2.5
-3.4911985397338867 -4.275942325592041 -2.5
-3.135807991027832 -4.543002605438232 -2.5
-2.366447687149048 -4.987192153930664 -2.5
-0.6653808355331421 -5.479907035827637 -2.5
-0.22227539122104645 -5.515683650970459 -2.5
0.22227294743061066 -5.515683650970459 -2.5
0.6653808355331421 -5.479911804199219 -2.5
1.1041747331619263 -5.408603191375732 -2.5
1.9574755430221558 -5.161440372467041 -2.5
2.760080575942993 -4.780595779418945 -2.5
3.8239476680755615 -3.981157064437866 -2.5
4.665580749511719 -2.950331926345825 -2.5
4.887857437133789 -2.5653467178344727 -2.5
5.236071586608887 -1.7480566501617432 -2.5
5.359753131866455 -1.3210644721984863 -2.5
5.44866943359375 -0.885498046875 -2.5
5.502256870269775 -0.4441845715045929 -2.5
-5.36126708984375 4.882812390860636e-06 -2.5
-5.343881607055664 -0.431396484375 -2.5
-5.2918381690979 -0.8600048422813416 -2.5
-5.085353851318359 -1.6977392435073853 -2.5
-4.286025524139404 -3.2207372188568115 -2.5
-3.0455517768859863 -4.4122314453125 -2.5
-2.6806371212005615 -4.642988204956055 -2.5
-2.298332452774048 -4.843637466430664 -2.5
-1.491603970527649 -5.149589538574219 -2.5
-1.0723925828933716 -5.252919673919678 -2.5
-0.6462304592132568 -5.322177410125732 -2.5
-0.21587646007537842 -5.356923580169678 -2.5
0.21587646007537842 -5.356923580169678 -2.5
0.646228015422821 -5.322177410125732 -2.5
1.072390079498291 -5.252914905548096 -2.5
1.4915893077850342 -5.149589538574219 -2.5
1.9011279344558716 -5.012870788574219 -2.5
2.298332452774048 -4.843642234802246 -2.5
3.3907079696655273 -4.152865886688232 -2.5
4.01296854019165 -3.555180549621582 -2.5
4.531289100646973 -2.86541485786438 -2.5
4.747166633605957 -2.4914989471435547 -2.5
4.932258129119873 -2.101445198059082 -2.5
5.205479621887207 -1.2830370664596558 -2.5
5.291839599609375 -0.8600146174430847 -2.5
