ply
format ascii 1.0
element vertex 904
property float x
property float y
property float z
end_header
-5.014936447143555 10.56874942779541 2.584930896759033
-6.454413890838623 11.179384231567383 2.8524413108825684
-10.114272117614746 12.387743949890137 3.5337963104248047
-16.59052276611328 14.697909355163574 4.8976945877075195
3.362494945526123 27.6927490234375 5.840716361999512
-0.6553271412849426 16.261688232421875 3.4075255393981934
-6.454423904418945 11.179394721984863 2.7027673721313477
-10.114267349243164 12.387743949890137 3.3483691215515137
3.362490177154541 27.6927490234375 5.518764972686768
0.8182226419448853 20.30419921875 4.020089626312256
-0.6553271412849426 16.261688232421875 3.2196996212005615
-1.654335856437683 13.624677658081055 2.715200185775757
-2.349980354309082 11.510937690734863 2.324207067489624
-6.454423904418945 11.179394721984863 2.553788661956787
-12.82860279083252 13.355985641479492 3.66367244720459
-16.173608779907227 14.328554153442383 4.274706840515137
11.652260780334473 14.271454811096191 3.433192729949951
3.3949460983276367 27.960039138793945 5.2483978271484375
-2.349980354309082 11.510937690734863 2.1892127990722656
-3.9324657917022705 10.369062423706055 2.066479444503784
-5.014931678771973 10.56874942779541 2.1798667907714844
-6.519345760345459 11.29183578491211 2.429654598236084
-10.114272117614746 12.387743949890137 2.9800446033477783
-12.82861328125 13.355985641479492 3.4508800506591797
-0.6553271412849426 16.261688232421875 2.8464598655700684
-1.654335856437683 13.624677658081055 2.400447368621826
-2.349980354309082 11.510937690734863 2.054776668548584
-3.91973614692688 10.335497856140137 1.9333019256591797
-6.519345760345459 11.29183578491211 2.280452251434326
-8.039896965026855 11.647783279418945 2.4753689765930176
-12.828608512878418 13.355985641479492 3.2389612197875977
-16.590497970581055 14.69789981842041 3.8765830993652344
3.3949460983276367 27.960039138793945 4.605045795440674
0.8298437595367432 20.59282112121582 3.369661808013916
-1.654335856437683 13.624677658081055 2.243997812271118
-2.349980354309082 11.510937690734863 1.9208589792251587
-2.893139600753784 9.988271713256836 1.7002123594284058
-3.9324657917022705 10.369062423706055 1.8131694793701172
-5.014936447143555 10.56874942779541 1.91265869140625
-6.519345760345459 11.29183578491211 2.1318271160125732
-10.114272117614746 12.387743949890137 2.6147499084472656
-16.590532302856445 14.697909355163574 3.623936176300049
-22.521669387817383 11.820273399353027 4.158641815185547
-23.224355697631836 9.894950866699219 4.127468585968018
11.631928443908691 14.24657154083252 2.7982091903686523
3.2624266147613525 26.868671417236328 4.117897033691406
-0.6553271412849426 16.261688232421875 2.4761030673980713
-2.349980354309082 11.510937690734863 1.787427306175232
-5.014936447143555 10.568739891052246 1.7797967195510864
-12.82860279083252 13.355976104736328 2.8175413608551025
-16.590513229370117 14.69789981842041 3.372199535369873
11.625219345092773 14.238348960876465 2.5885305404663086
13.76281452178955 23.837900161743164 3.8762595653533936
-0.6553271412849426 16.261688232421875 2.291884660720825
-2.349980354309082 11.510937690734863 1.6544445753097534
-5.014936447143555 10.56874942779541 1.6473809480667114
-8.039901733398438 11.64779281616211 1.9930919408798218
-12.82860279083252 13.355976104736328 2.607917070388794
-16.590513229370117 14.69789981842041 3.1213061809539795
-22.535385131835938 11.82748031616211 3.5840392112731934
-23.233793258666992 9.898993492126465 3.556450128555298
11.618539810180664 14.230165481567383 2.379743814468384
3.3323826789855957 27.44478416442871 3.581289529800415
0.82984858751297 20.592802047729492 2.669743537902832
-0.6553271412849426 16.261688232421875 2.1082372665405273
-1.6764745712280273 13.806982040405273 1.8016866445541382
-2.349980354309082 11.510937690734863 1.5218743085861206
-2.893139600753784 9.988271713256836 1.3470584154129028
-3.8506932258605957 10.153447151184082 1.4066815376281738
-5.014936447143555 10.56874942779541 1.515377163887024
-6.519345760345459 11.29183578491211 1.6890215873718262
-8.039896965026855 11.647783279418945 1.8333858251571655
-12.82861328125 13.355985641479492 2.398946523666382
-16.590513229370117 14.69789981842041 2.8712005615234375
-22.238544464111328 16.711191177368164 3.603468656539917
-22.54352569580078 11.831738471984863 3.2980406284332275
0.82984858751297 20.592802047729492 2.4378514289855957
-1.6764745712280273 13.806982040405273 1.645190954208374
-3.8506932258605957 10.153447151184082 1.2844982147216797
-5.014936447143555 10.56874942779541 1.383752465248108
-10.114272117614746 12.387743949890137 1.8916949033737183
-12.82861328125 13.355985641479492 2.1905760765075684
-22.54875373840332 11.834491729736328 3.0122735500335693
-23.234760284423828 9.899394035339355 2.987438917160034
3.362499952316284 27.692768096923828 2.986708879470825
-0.6553320288658142 16.261669158935547 1.7424737215042114
-1.6395263671875 13.502635955810547 1.4562808275222778
-2.2912938594818115 11.223485946655273 1.226430892944336
-2.893139600753784 9.988271713256836 1.1133538484573364
-4.9228515625 10.374677658081055 1.2294732332229614
-12.828598022460938 13.355985641479492 1.982747197151184
-16.59050178527832 14.697890281677246 2.373063802719116
-22.238544464111328 16.711191177368164 2.9782915115356445
-23.23512077331543 9.899550437927246 2.704052686691284
3.362494945526123 27.6927490234375 2.6743907928466797
0.8410449028015137 20.870634078979492 2.0024821758270264
-0.6553271412849426 16.261688232421875 1.5602654218673706
-1.6395214796066284 13.502646446228027 1.303999662399292
-2.3258397579193115 11.392675399780273 1.1147387027740479
-2.893139600753784 9.988271713256836 0.996932327747345
-6.266557693481445 10.853994369506836 1.201544165611267
-12.82860279083252 13.355985641479492 1.7754141092300415
-16.59050750732422 14.697890281677246 2.1249184608459473
-23.230018615722656 9.897382736206055 2.4207611083984375
11.592055320739746 14.197724342346191 1.5524190664291382
13.8062105178833 23.913055419921875 2.3387107849121094
-0.6553320288658142 16.261669158935547 1.3784441947937012
-1.6311132907867432 13.433417320251465 1.1461361646652222
-2.349980354309082 11.510937690734863 0.9950588941574097
-2.893139600753784 9.988271713256836 0.8807574510574341
-3.8506884574890137 10.153447151184082 0.9197402596473694
-5.014936447143555 10.568739891052246 0.9908108115196228
-6.38378381729126 11.057021141052246 1.0813829898834229
-7.922792911529541 11.478124618530273 1.181276798248291
-22.238554000854492 16.711200714111328 2.356083393096924
-2.349980354309082 11.510937690734863 0.8640539646148682
-3.876288890838623 10.220927238464355 0.8039599657058716
-5.014936447143555 10.56874942779541 0.8603643774986267
-6.38378381729126 11.057021141052246 0.939011812210083
-8.039896965026855 11.64779281616211 1.040916085243225
-9.92855453491211 12.160263061523438 1.1545867919921875
-22.238554000854492 16.711200714111328 2.0458920001983643
-0.6496142148971558 16.12000846862793 1.006929874420166
-1.6395214796066284 13.502646446228027 0.8489428758621216
-2.349980354309082 11.510937690734863 0.7332614064216614
-2.893139600753784 9.988271713256836 0.6490310430526733
-6.485292911529541 11.232851028442383 0.8095452785491943
-8.039896965026855 11.647783279418945 0.8833523392677307
-15.944428443908691 14.125516891479492 1.3295129537582397
-22.238534927368164 16.711191177368164 1.7362029552459717
11.572402000427246 14.173662185668945 0.938619077205658
3.3323779106140137 27.44475555419922 1.4181618690490723
-1.6764745712280273 13.806982040405273 0.7134557962417603
-2.349980354309082 11.510937690734863 0.6026504635810852
-6.519345760345459 11.29183578491211 0.668839693069458
-8.039896965026855 11.647783279418945 0.7260067462921143
-12.82861328125 13.355985641479492 0.9499648809432983
-22.238534927368164 16.711191177368164 1.426945447921753
-0.650146484375 16.13323211669922 0.6489343047142029
-1.6764745712280273 13.806982040405273 0.5590032935142517
-2.349980354309082 11.510937690734863 0.4721877872943878
-2.893139600753784 9.988271713256836 0.41794830560684204
-8.039896965026855 11.64779281616211 0.568839430809021
11.5593843460083 14.15771484375 0.5318139791488647
12.8088960647583 22.185672760009766 0.7454022169113159
3.362499952316284 27.692768096923828 0.8116930723190308
0.82984858751297 20.592802047729492 0.5996740460395813
-1.6764745712280273 13.806982040405273 0.40468719601631165
-2.349980354309082 11.510937690734863 0.3418411314487457
-2.893139600753784 9.988271713256836 0.3025747537612915
-8.039896965026855 11.64779281616211 0.4118127226829529
-16.38534164428711 14.516122817993164 0.6369451880455017
-22.238563537597656 16.711200714111328 0.8094091415405273
11.484941482543945 24.204004287719727 0.4824807643890381
3.362494945526123 27.692758560180664 0.5023880004882812
-0.650146484375 16.13323211669922 0.2907736003398895
-1.6764745712280273 13.806982040405273 0.2504858374595642
-2.893139600753784 9.988271713256836 0.18727508187294006
-5.014931678771973 10.56874942779541 0.2106756567955017
-6.519350528717041 11.291826248168945 0.2348162829875946
-8.039896965026855 11.64779281616211 0.2548864781856537
-10.114272117614746 12.387743949890137 0.2880096435546875
-12.828593254089355 13.355976104736328 0.3335076868534088
-16.38534164428711 14.516132354736328 0.394233375787735
11.546401023864746 14.141825675964355 0.12644530832767487
0.82984858751297 20.592802047729492 0.14273986220359802
-0.650146484375 16.13323211669922 0.11181274056434631
-1.6764745712280273 13.806982040405273 0.0963275134563446
-2.893139600753784 9.988271713256836 0.072021484375
-5.014936447143555 10.56874942779541 0.08102111518383026
-6.519350528717041 11.291826248168945 0.09030486643314362
-10.114272117614746 12.387743949890137 0.11076171696186066
-16.385351181030273 14.516132354736328 0.15161040425300598
11.539936065673828 14.133895874023438 -0.07582610845565796
12.8088960647583 22.185672760009766 -0.10645706206560135
3.3949460983276367 27.960039138793945 -0.11705413460731506
-0.650146484375 16.13323211669922 -0.06710647791624069
-2.349980354309082 11.510937690734863 -0.04882217198610306
-2.893139600753784 9.988271713256836 -0.04321395605802536
-5.014936447143555 10.56874942779541 -0.048613738268613815
-6.519350528717041 11.291826248168945 -0.054184265434741974
-10.114262580871582 12.387734413146973 -0.06645751744508743
-22.238544464111328 16.711191177368164 -0.11559997498989105
11.533466339111328 14.1259765625 -0.2778872549533844
12.8088960647583 22.185672760009766 -0.39036649465560913
0.8410449028015137 20.870634078979492 -0.3182879686355591
-0.650146484375 16.13323211669922 -0.24604003131389618
-1.6764745712280273 13.806982040405273 -0.21192032098770142
-2.893139600753784 9.988271713256836 -0.1584588587284088
-3.9324657917022705 10.369062423706055 -0.16898681223392487
-5.014931678771973 10.56874942779541 -0.1782589703798294
-6.519345760345459 11.29183578491211 -0.19868560135364532
-10.114276885986328 12.387743949890137 -0.24369291961193085
-16.38534164428711 14.516122817993164 -0.3335728347301483
-22.238534927368164 16.711191177368164 -0.42388808727264404
11.52700138092041 14.118056297302246 -0.4797900319099426
-0.650146484375 16.13323211669922 -0.4250420928001404
-1.6764745712280273 13.806982040405273 -0.36611297726631165
-5.014936447143555 10.56874942779541 -0.3079479932785034
-6.519350528717041 11.291826248168945 -0.34323668479919434
-8.039896965026855 11.64779281616211 -0.3725723326206207
-22.238534927368164 16.711191177368164 -0.7322797775268555
-0.650146484375 16.13323211669922 -0.6041522026062012
-2.893139600753784 9.988271713256836 -0.3890966773033142
-10.114272117614746 12.387743949890137 -0.5983901619911194
-12.82861328125 13.355985641479492 -0.6929342746734619
-16.385351181030273 14.516132354736328 -0.8190869092941284
11.514086723327637 14.102235794067383 -0.8833268284797668
13.99480152130127 20.274959564208984 -1.1953191757202148
11.861201286315918 20.544208526611328 -1.1509950160980225
10.158002853393555 21.40755844116211 -1.149680733680725
0.8410449028015137 20.870634078979492 -1.0134514570236206
-0.650146484375 16.13323211669922 -0.7834092378616333
-2.067143440246582 10.125507354736328 -0.501416027545929
-10.114276885986328 12.387743949890137 -0.775937020778656
-16.38534164428711 14.516132354736328 -1.0621181726455688
13.99480152130127 20.274959564208984 -1.4691210985183716
10.15799331665039 21.407548904418945 -1.4130302667617798
-0.650146484375 16.13323211669922 -0.962859034538269
-1.6764745712280273 13.806982040405273 -0.8293970823287964
-3.9324657917022705 10.369062423706055 -0.6613162159919739
-5.014936447143555 10.56874942779541 -0.6976022124290466
-6.519350528717041 11.291826248168945 -0.7775402665138245
-8.039896965026855 11.647783279418945 -0.8439979553222656
-12.82860279083252 13.355985641479492 -1.104353666305542
-16.3676700592041 14.50047779083252 -1.3040004968643188
-22.238534927368164 16.711191177368164 -1.6588521003723145
11.501166343688965 14.08641529083252 -1.286824345588684
3.3323826789855957 27.44478416442871 -1.9563124179840088
-0.6503808498382568 16.139022827148438 -1.1429564952850342
-1.6764745712280273 13.806982040405273 -0.9841846823692322
-2.893139600753784 9.988271713256836 -0.7358425855636597
-3.9324657917022705 10.369062423706055 -0.7847298979759216
-10.0931978225708 12.361933708190918 -1.1292920112609863
13.75279712677002 2.235048770904541 -1.14124596118927
22.91309928894043 17.218076705932617 -2.347599983215332
21.453304290771484 19.005985260009766 -2.347599983215332
11.836400985717773 20.501239776611328 -1.9389971494674683
10.158002853393555 21.40755844116211 -1.9408423900604248
9.1611328125 24.155927658081055 -2.1160805225372314
7.974071979522705 27.529735565185547 -2.347599983215332
3.332387685775757 27.444765090942383 -2.2644636631011963
0.8224218487739563 20.408416748046875 -1.6729742288589478
-2.067148447036743 10.125507354736328 -0.8464688062667847
-3.9324657917022705 10.369062423706055 -0.9083373546600342
-5.014936447143555 10.56874942779541 -0.9581789970397949
-7.97976541519165 11.560664176940918 -1.1505868434906006
-9.908798217773438 12.13607406616211 -1.2832911014556885
-12.80712890625 13.333613395690918 -1.5143237113952637
-22.238554000854492 16.711191177368164 -2.2784857749938965
-25.378353118896484 13.319580078125 -2.347599983215332
26.77303695678711 2.1613476276397705 -2.5
26.07963752746582 6.428056716918945 -2.5
24.71078109741211 10.528290748596191 -2.5
22.333642959594727 11.72159194946289 -2.347599983215332
21.318012237548828 13.480712890625 -2.347599983215332
11.48824691772461 14.070585250854492 -1.6906828880310059
13.656251907348633 19.78449249267578 -2.2375104427337646
9.949760437011719 20.96870994567871 -2.1602230072021484
8.944106101989746 23.58370018005371 -2.347599983215332
7.017406940460205 24.22694206237793 -2.347599983215332
3.0402488708496094 25.03883171081543 -2.347599983215332
0.8224169611930847 20.408397674560547 -1.9010469913482666
-0.653564453125 16.21817398071289 -1.510725975036621
-2.893139600753784 9.988271713256836 -0.9678683280944824
-3.9324657917022705 10.369062423706055 -1.0321705341339111
-5.014936447143555 10.56874942779541 -1.0888053178787231
-6.300146579742432 10.912158012390137 -1.1727672815322876
-10.070819854736328 12.3345308303833 -1.4820857048034668
-16.590517044067383 14.69789981842041 -2.0629723072052
-24.709497451782227 10.527724266052246 -2.499868631362915
-25.477846145629883 8.505742073059082 -2.5
-26.5123291015625 4.308652400970459 -2.5
13.0750093460083 2.1249022483825684 -1.381138563156128
22.743593215942383 7.592929363250732 -2.5
19.030195236206055 12.0339937210083 -2.347599983215332
12.276249885559082 12.780976295471191 -1.8477388620376587
12.790488243103027 18.530223846435547 -2.347599983215332
11.257944107055664 19.499345779418945 -2.347599983215332
7.984242916107178 21.052724838256836 -2.347599983215332
2.713979482650757 22.351709365844727 -2.347599983215332
0.8224218487739563 20.408416748046875 -2.1295933723449707
-0.6553271412849426 16.261688232421875 -1.6968835592269897
-1.614418864250183 13.29588794708252 -1.3964661359786987
-2.067138671875 10.125507354736328 -1.077500581741333
-2.893139600753784 9.988271713256836 -1.0842257738113403
-4.919189453125 10.366952896118164 -1.1964144706726074
-7.99587869644165 11.584003448486328 -1.4675829410552979
-10.114276885986328 12.387743949890137 -1.6674246788024902
-12.82860279083252 13.355976104736328 -1.9308706521987915
-15.918212890625 14.10228443145752 -2.2173330783843994
-19.03022003173828 12.033964157104492 -2.347599983215332
-19.93683624267578 10.463651657104492 -2.347599983215332
-22.05890655517578 9.398407936096191 -2.5
-22.743602752685547 7.592919826507568 -2.5
-23.28086280822754 5.738203048706055 -2.5
-23.667089462280273 3.846269369125366 -2.5
-23.899824142456055 1.9293749332427979 -2.5
12.934013366699219 2.101982355117798 -1.5132070779800415
20.534759521484375 6.855507850646973 -2.5
19.916528701782227 8.485634803771973 -2.5
18.000591278076172 9.447441101074219 -2.347599983215332
15.216596603393555 13.480751991271973 -2.347599983215332
12.276249885559082 12.780976295471191 -2.0464913845062256
10.852866172790527 13.29238224029541 -1.9816443920135498
11.548280715942383 16.730594635009766 -2.347599983215332
8.714961051940918 18.366405487060547 -2.347599983215332
-1.6395214796066284 13.502646446228027 -1.570728063583374
-2.8368797302246094 9.79403305053711 -1.1774972677230835
-8.039896965026855 11.647783279418945 -1.6343934535980225
-18.0006046295166 9.44742202758789 -2.347599983215332
-19.916542053222656 8.485634803771973 -2.5
-21.36854362487793 3.472724437713623 -2.5
13.333524703979492 1.0764062404632568 -1.6951682567596436
18.712705612182617 6.247226238250732 -2.5
16.403392791748047 8.609169960021973 -2.347599983215332
15.65743637084961 9.9011812210083 -2.347599983215332
12.203486442565918 12.70522403717041 -2.2324466705322266
10.852866172790527 13.29238224029541 -2.1745965480804443
10.523603439331055 15.246044158935547 -2.347599983215332
7.941684246063232 16.73674774169922 -2.347599983215332
2.232973575592041 18.39029312133789 -2.347599983215332
0.7459276914596558 18.510332107543945 -2.347599983215332
-1.6395214796066284 13.502646446228027 -1.7236701250076294
-3.7947020530700684 10.005800247192383 -1.3560943603515625
-4.9906005859375 10.517460823059082 -1.4752438068389893
-8.039896965026855 11.647783279418945 -1.7935339212417603
-12.82861328125 13.355985641479492 -2.346801280975342
-14.809969902038574 11.128973960876465 -2.347599983215332
-15.657455444335938 9.901190757751465 -2.347599983215332
-18.712718963623047 6.247216701507568 -2.5
13.28555679321289 1.0725293159484863 -1.839359998703003
12.87035083770752 2.0916404724121094 -1.7993998527526855
15.0631103515625 7.905732154846191 -2.347599983215332
13.599882125854492 10.219648361206055 -2.347599983215332
11.784403800964355 12.26888656616211 -2.347599983215332
9.663744926452637 14.000350952148438 -2.347599983215332
6.032431602478027 15.906229972839355 -2.347599983215332
0.6849804520606995 16.997900009155273 -2.347599983215332
-1.6395214796066284 13.502646446228027 -1.877038836479187
-2.067148447036743 10.125507354736328 -1.4261318445205688
-5.014936447143555 10.56874942779541 -1.6143419742584229
-8.039896965026855 11.647783279418945 -1.9531186819076538
-10.114272117614746 12.387743949890137 -2.206927537918091
-17.183744430541992 5.736767292022705 -2.5
-17.58963394165039 4.335458755493164 -2.5
-17.8814640045166 2.906005859375 -2.5
13.280219078063965 1.0720995664596558 -1.9893112182617188
12.840292930603027 2.086747884750366 -1.9423288106918335
16.257211685180664 4.007050514221191 -2.5
13.288959503173828 8.403447151184082 -2.347599983215332
12.569677352905273 9.445497512817383 -2.347599983215332
11.768872261047363 10.426318168640137 -2.347599983215332
9.943974494934082 12.17919921875 -2.347599983215332
8.931708335876465 12.939833641052246 -2.347599983215332
7.861523151397705 13.616561889648438 -2.347599983215332
6.74035120010376 14.205009460449219 -2.347599983215332
5.57546854019165 14.701308250427246 -2.347599983215332
4.374423503875732 15.102294921875 -2.347599983215332
1.8951952457427979 15.608407974243164 -2.347599983215332
0.6330907940864563 15.710283279418945 -2.347599983215332
-1.6395214796066284 13.502646446228027 -2.0308778285980225
-6.38378381729126 11.057021141052246 -1.9063161611557007
-8.039896965026855 11.647783279418945 -2.1131937503814697
-10.891752243041992 11.33950138092041 -2.347599983215332
-13.952197074890137 7.322656154632568 -2.3526782989501953
-15.403915405273438 6.562978267669678 -2.5
12.890517234802246 2.094912052154541 -2.098123073577881
12.938715934753418 6.790751934051514 -2.347599983215332
8.300834655761719 12.025810241699219 -2.347599983215332
7.306240081787109 12.654755592346191 -2.347599983215332
6.264257907867432 13.20164966583252 -2.347599983215332
4.065444469451904 14.03555679321289 -2.347599983215332
2.9228711128234863 14.317177772521973 -2.347599983215332
1.7613329887390137 14.505937576293945 -2.347599983215332
0.58837890625 14.600614547729492 -2.347599983215332
-0.5883837938308716 14.600625038146973 -2.347599983215332
-1.6395214796066284 13.502646446228027 -2.1852290630340576
-3.8506932258605957 10.153447151184082 -1.7445932626724243
-6.383779048919678 11.057021141052246 -2.051199197769165
-8.039896965026855 11.647783279418945 -2.2737998962402344
-9.241596221923828 11.318915367126465 -2.347599983215332
-10.937612533569336 9.689863204956055 -2.347599983215332
-11.681840896606445 8.778329849243164 -2.347599983215332
-15.108920097351074 3.724013566970825 -2.5
-15.359575271606445 2.4961814880371094 -2.5
13.9285249710083 1.124423861503601 -2.404132843017578
14.342890739440918 2.330947160720825 -2.5
14.108803749084473 3.4775097370147705 -2.5
13.78323745727539 4.601513385772705 -2.5
12.082260131835938 6.341249942779541 -2.347599983215332
11.532812118530273 7.292929649353027 -2.347599983215332
10.908583641052246 8.197265625 -2.347599983215332
10.213603019714355 9.048466682434082 -2.347599983215332
9.452377319335938 9.840986251831055 -2.347599983215332
7.751386642456055 11.2297945022583 -2.347599983215332
5.849609375 12.327802658081055 -2.347599983215332
3.796337842941284 13.1065034866333 -2.347599983215332
1.644741177558899 13.545751571655273 -2.347599983215332
-0.5494287014007568 13.634238243103027 -2.347599983215332
-2.067143440246582 10.125507354736328 -1.777976632118225
-5.014936447143555 10.56874942779541 -2.0126214027404785
-6.38378381729126 11.057021141052246 -2.1965994834899902
-8.629862785339355 10.569677352905273 -2.347599983215332
-10.213623046875 9.048466682434082 -2.347599983215332
-11.532821655273438 7.292919635772705 -2.347599983215332
-12.84151840209961 6.739736080169678 -2.4951231479644775
-13.78323745727539 4.601513385772705 -2.5
-14.34288501739502 2.3309569358825684 -2.5
12.924443244934082 4.314824104309082 -2.5
12.535331726074219 5.340810298919678 -2.5
11.32945728302002 5.946152210235596 -2.347599983215332
10.81424331665039 6.838525295257568 -2.347599983215332
10.22890567779541 7.6865234375 -2.347599983215332
9.577231407165527 8.484686851501465 -2.347599983215332
8.092167854309082 9.911112785339355 -2.347599983215332
6.397519588470459 11.080849647521973 -2.347599983215332
5.48513650894165 11.559697151184082 -2.347599983215332
3.559804677963257 12.289901733398438 -2.347599983215332
2.559335947036743 12.536474227905273 -2.347599983215332
1.5422704219818115 12.701757431030273 -2.347599983215332
-1.542275309562683 12.701727867126465 -2.347599983215332
-2.067143440246582 10.125507354736328 -1.8961185216903687
-2.893139600753784 9.988271713256836 -1.907949447631836
-7.26842737197876 10.530126571655273 -2.347599983215332
-8.092172622680664 9.911103248596191 -2.347599983215332
-9.57723617553711 8.484686851501465 -2.347599983215332
-10.22890567779541 7.686542987823486 -2.347599983215332
-12.0524263381958 6.325595378875732 -2.497408628463745
-12.535341262817383 5.340790748596191 -2.5
-13.44921875 2.1857128143310547 -2.5
12.823436737060547 9.765624781721272e-06 -2.5
12.1635103225708 4.060771465301514 -2.5
10.690155982971191 5.610634803771973 -2.3537070751190186
9.626669883728027 7.233983993530273 -2.347599983215332
9.013354301452637 7.985156059265137 -2.347599983215332
8.34158706665039 8.684531211853027 -2.347599983215332
7.615732192993164 9.327597618103027 -2.347599983215332
3.350214719772339 11.566298484802246 -2.347599983215332
2.4086523056030273 11.798388481140137 -2.347599983215332
-0.4848730266094208 12.031962394714355 -2.347599983215332
-1.4514745473861694 11.953935623168945 -2.347599983215332
-7.615736961364746 9.327607154846191 -2.347599983215332
-8.341601371765137 8.684531211853027 -2.347599983215332
-9.013368606567383 7.98513650894165 -2.347599983215332
-9.62667465209961 7.233974456787109 -2.347599983215332
-12.450819969177246 3.068857431411743 -2.5
-12.781865119934082 1.0318456888198853 -2.5
12.068246841430664 0.9742480516433716 -2.5
11.950722694396973 1.9421972036361694 -2.5
11.484418869018555 3.8340721130371094 -2.5
11.138667106628418 4.745741844177246 -2.5
10.104559898376465 5.303271293640137 -2.3563287258148193
9.609326362609863 6.076591491699219 -2.347599983215332
7.19054651260376 8.806816101074219 -2.347599983215332
4.873989105224609 10.271728515625 -2.347599983215332
4.031660079956055 10.630595207214355 -2.347599983215332
2.274179697036743 11.139677047729492 -2.347599983215332
1.370424747467041 11.28653335571289 -2.347599983215332
0.4577978551387787 11.360224723815918 -2.347599983215332
-1.3704345226287842 11.286542892456055 -2.347599983215332
-3.8506932258605957 10.153447151184082 -2.242225408554077
-4.873999118804932 10.271708488464355 -2.347599983215332
-6.458583831787109 9.356864929199219 -2.347599983215332
-7.19054651260376 8.806816101074219 -2.347599983215332
-7.875893592834473 8.199677467346191 -2.347599983215332
-9.609335899353027 6.076571941375732 -2.347599983215332
-11.48440933227539 3.834052562713623 -2.5
-11.950732231140137 1.9421874284744263 -2.5
11.464516639709473 -9.765624781721272e-06 -2.5
11.316054344177246 1.8390429019927979 -2.5
10.547114372253418 4.493720531463623 -2.5
10.025307655334473 5.261679649353027 -2.468963623046875
8.606513023376465 6.467372894287109 -2.347599983215332
8.05819320678711 7.13894510269165 -2.347599983215332
7.457612037658691 7.764218807220459 -2.347599983215332
6.808671951293945 8.339120864868164 -2.347599983215332
6.115581035614014 8.859941482543945 -2.347599983215332
5.382817268371582 9.323309898376465 -2.347599983215332
4.61514139175415 9.72622013092041 -2.347599983215332
3.8175437450408936 10.066054344177246 -2.347599983215332
2.995185375213623 10.340604782104492 -2.347599983215332
2.153398275375366 10.548056602478027 -2.347599983215332
1.297646403312683 10.68715763092041 -2.347599983215332
-0.4334960877895355 10.756903648376465 -2.347599983215332
-1.2976512908935547 10.68715763092041 -2.347599983215332
-2.893139600753784 9.988271713256836 -2.2676138877868652
-4.615156173706055 9.72622013092041 -2.347599983215332
-5.382822036743164 9.323320388793945 -2.347599983215332
-6.115590572357178 8.85995101928711 -2.347599983215332
-7.457622051239014 7.764208793640137 -2.347599983215332
-8.058202743530273 7.138925552368164 -2.347599983215332
-8.606508255004883 6.467372894287109 -2.347599983215332
-10.87451171875 3.630439281463623 -2.5
-11.13137149810791 2.743642568588257 -2.5
-11.316054344177246 1.839052677154541 -2.5
-11.427338600158691 0.9224902391433716 -2.5
10.88370132446289 1.9531249563442543e-05 -2.5
10.848407745361328 0.875781238079071 -2.5
10.742753982543945 1.7458691596984863 -2.5
10.012778282165527 4.266054630279541 -2.5
9.6144380569458 5.046044826507568 -2.4941391944885254
8.638036727905273 5.462372779846191 -2.347599983215332
5.805751800537109 8.411084175109863 -2.347599983215332
5.110116958618164 8.850966453552246 -2.347599983215332
4.381332874298096 9.233476638793945 -2.347599983215332
2.84344220161438 9.816718101501465 -2.347599983215332
1.231909155845642 10.145703315734863 -2.347599983215332
0.4115234315395355 10.211953163146973 -2.347599983215332
-0.4115283191204071 10.211933135986328 -2.347599983215332
-1.2319140434265137 10.145712852478027 -2.347599983215332
-2.843451976776123 9.816718101501465 -2.347599983215332
-4.381342887878418 9.233476638793945 -2.347599983215332
-7.079809188842773 7.370849609375 -2.347599983215332
-8.170488357543945 6.139736175537109 -2.347599983215332
-8.887202262878418 5.619912147521973 -2.4153149127960205
-10.01278305053711 4.266054630279541 -2.5
-10.323593139648438 3.4465136528015137 -2.5
-10.567445755004883 2.6046483516693115 -2.5
-10.74276351928711 1.74587881565094 -2.5
-10.848407745361328 0.875781238079071 -2.5
10.356351852416992 9.765624781721272e-06 -2.5
10.322772979736328 0.8333495855331421 -2.5
10.222246170043945 1.6612792015075684 -2.5
9.527636528015137 4.059345722198486 -2.5
9.156977653503418 4.805947303771973 -2.4964213371276855
8.219496726989746 5.197695255279541 -2.347599983215332
7.774604320526123 5.842236042022705 -2.347599983215332
6.736757755279541 7.013720512390137 -2.347599983215332
6.150546550750732 7.533056259155273 -2.347599983215332
-1.1722314357757568 9.654120445251465 -2.347599983215332
-1.9452636241912842 9.528505325317383 -2.347599983215332
-2.7056884765625 9.341073989868164 -2.347599983215332
-4.862519264221191 8.422128677368164 -2.347599983215332
-5.524453163146973 8.003535270690918 -2.347599983215332
-6.150556564331055 7.533056259155273 -2.347599983215332
-6.736772537231445 7.013720512390137 -2.347599983215332
-7.774604320526123 5.842246055603027 -2.347599983215332
-9.527641296386719 4.059335708618164 -2.5
-9.823383331298828 3.2795214653015137 -2.5
-10.055415153503418 2.4784374237060547 -2.5
-10.322772979736328 0.8333495855331421 -2.5
9.747416496276855 1.5841113328933716 -2.5
9.367084503173828 3.1271777153015137 -2.5
7.837695121765137 4.956279277801514 -2.347599983215332
5.267836570739746 7.631786823272705 -2.347599983215332
4.636650085449219 8.030927658081055 -2.347599983215332
3.975395441055298 8.377968788146973 -2.347599983215332
3.2883594036102295 8.670693397521973 -2.347599983215332
2.5799901485443115 8.907177925109863 -2.347599983215332
1.1177685260772705 9.205693244934082 -2.347599983215332
-1.1177783012390137 9.205693244934082 -2.347599983215332
-2.580004930496216 8.907167434692383 -2.347599983215332
-3.2883641719818115 8.670683860778809 -2.347599983215332
-3.97540020942688 8.377968788146973 -2.347599983215332
-4.636655330657959 8.03091812133789 -2.347599983215332
-7.413476467132568 5.570878982543945 -2.347599983215332
-8.744145393371582 4.589277267456055 -2.5
-9.085078239440918 3.870790958404541 -2.5
-9.58834457397461 2.3633105754852295 -2.5
-9.747416496276855 1.5841015577316284 -2.5
9.160444259643555 2.2578418254852295 -2.5
8.94906234741211 2.9876365661621094 -2.5
8.353925704956055 4.384482383728027 -2.5
7.511342525482178 4.749892234802246 -2.3549413681030273
7.08263635635376 5.322255611419678 -2.347599983215332
6.631401062011719 5.874911785125732 -2.347599983215332
6.137163162231445 6.389482498168945 -2.347599983215332
5.603129863739014 6.862587928771973 -2.347599983215332
5.032753944396973 7.291191101074219 -2.347599983215332
3.141606330871582 8.2837495803833 -2.347599983215332
1.77212393283844 8.680419921875 -2.347599983215332
0.3567284941673279 8.852265357971191 -2.347599983215332
-0.35673338174819946 8.852285385131836 -2.347599983215332
-1.0679004192352295 8.794882774353027 -2.347599983215332
-1.772133708000183 8.680429458618164 -2.347599983215332
-3.141616106033325 8.2837495803833 -2.347599983215332
-4.429736137390137 7.672519207000732 -2.347599983215332
-3.5749707221984863 5.179238319396973 -1.6675951480865479
-7.9661865234375 5.037528991699219 -2.497541666030884
-8.679638862609863 3.6980369091033936 -2.5
-8.949071884155273 2.9876365661621094 -2.5
-9.1604585647583 2.2578516006469727 -2.5
-9.40401840209961 0.7591601610183716 -2.5
9.029276847839355 0.0 -2.5
8.999995231628418 0.7265429496765137 -2.5
8.766899108886719 2.160839796066284 -2.5
8.306742668151855 3.5391697883605957 -2.5
7.995019435882568 4.196123123168945 -2.5
6.778354167938232 5.093603610992432 -2.347599983215332
6.346513748168945 5.622529029846191 -2.347599983215332
5.873505592346191 6.114990234375 -2.347599983215332
5.362407207489014 6.567753791809082 -2.347599983215332
4.816537857055664 6.977958679199219 -2.347599983215332
4.239428520202637 7.342900276184082 -2.347599983215332
3.634819269180298 7.660243988037109 -2.347599983215332
3.0066356658935547 7.927870750427246 -2.347599983215332
2.358959913253784 8.144091606140137 -2.347599983215332
1.695986270904541 8.307499885559082 -2.347599983215332
1.022006869316101 8.417031288146973 -2.347599983215332
-1.6959911584854126 8.307499885559082 -2.347599983215332
-2.3589696884155273 8.144082069396973 -2.347599983215332
-3.006640672683716 7.927861213684082 -2.347599983215332
-3.63482403755188 7.660224437713623 -2.347599983215332
-4.239428520202637 7.34289026260376 -2.347599983215332
-3.5597119331359863 5.157109260559082 -1.7350118160247803
-6.346508502960205 5.622519493103027 -2.347599983215332
-6.787807464599609 5.100712776184082 -2.3508737087249756
-7.995034217834473 4.196113109588623 -2.5
-8.306753158569336 3.539179563522339 -2.5
-8.912353515625 1.4483983516693115 -2.5
-9.0 0.7265527248382568 -2.5
8.655156135559082 0.0 -2.5
8.627089500427246 0.6964452862739563 -2.5
8.403642654418945 2.0713183879852295 -2.5
8.209721565246582 2.7408103942871094 -2.5
7.663754940032959 4.022255897521973 -2.5
7.296601295471191 4.614091873168945 -2.4936282634735107
6.497495174407959 4.882538795471191 -2.347599983215332
6.083535194396973 5.389550685882568 -2.347599983215332
5.630131721496582 5.86160135269165 -2.347599983215332
5.140214920043945 6.295634746551514 -2.347599983215332
3.4842138290405273 7.342812538146973 -2.347599983215332
0.32725584506988525 8.120946884155273 -2.347599983215332
-0.9796728491783142 8.068281173706055 -2.347599983215332
-2.261225461959839 7.806640625 -2.347599983215332
-2.882070302963257 7.599365234375 -2.347599983215332
-3.5544238090515137 5.149472713470459 -1.807324767112732
-5.140219688415527 6.295644283294678 -2.347599983215332
-7.315248966217041 4.625898361206055 -2.5
-7.962568283081055 3.392529249191284 -2.5
-8.627089500427246 0.6964550614356995 -2.5
7.356972694396973 3.8612303733825684 -2.5
5.840014457702637 5.173798561096191 -2.347599983215332
5.404750823974609 5.626962661743164 -2.347599983215332
4.432148456573486 6.421064376831055 -2.347599983215332
3.3447265625 7.048876762390137 -2.347599983215332
2.170703172683716 7.494140625 -2.347599983215332
0.3141552805900574 7.795839786529541 -2.347599983215332
-0.31416502594947815 7.795859336853027 -2.347599983215332
-1.560644507408142 7.644501686096191 -2.347599983215332
-3.54913067817688 5.141787052154541 -1.8798855543136597
-4.934453010559082 6.043603420257568 -2.347599983215332
-5.840014457702637 5.173808574676514 -2.347599983215332
-6.624482154846191 4.977978229522705 -2.4932892322540283
-7.356967449188232 3.861220598220825 -2.5
-7.643813133239746 3.256728410720825 -2.5
-7.881083965301514 2.631093740463257 -2.5
7.98681640625 9.765624781721272e-06 -2.5
7.575780868530273 2.5291600227355957 -2.5
6.744843482971191 4.265185356140137 -2.4979538917541504
6.014125823974609 4.519326210021973 -2.354789972305298
4.743295669555664 5.809482097625732 -2.347599983215332
4.260444164276123 6.172324180603027 -2.347599983215332
3.7499706745147705 6.495126724243164 -2.347599983215332
2.6595115661621094 7.012558460235596 -2.347599983215332
2.086606502532959 7.203827857971191 -2.347599983215332
1.5001806020736694 7.348369121551514 -2.347599983215332
0.30198729038238525 7.493857383728027 -2.347599983215332
-2.6595165729522705 7.012558460235596 -2.347599983215332
-3.215165853500366 6.775820255279541 -2.347599983215332
-3.7499754428863525 6.495136737823486 -2.347599983215332
-3.543813467025757 5.134091854095459 -1.952715277671814
-4.743305683135986 5.809482097625732 -2.347599983215332
-5.613774299621582 4.973359107971191 -2.347599983215332
-6.37340784072876 4.789306640625 -2.4954617023468018
-7.575776100158691 2.529169797897339 -2.5
-7.883383750915527 1.281191349029541 -2.5
-7.960917949676514 0.6426659822463989 -2.5
7.662040710449219 0.6185449361801147 -2.5
5.403027057647705 4.786669731140137 -2.347599983215332
4.565219402313232 5.591376781463623 -2.347599983215332
3.609184503555298 6.251288890838623 -2.347599983215332
2.5596630573272705 6.749287128448486 -2.347599983215332
2.0082762241363525 6.933369159698486 -2.347599983215332
0.8700731992721558 7.165732383728027 -2.347599983215332
-0.8700780868530273 7.165722370147705 -2.347599983215332
-1.4438672065734863 7.072490215301514 -2.347599983215332
-3.0944628715515137 6.521435260772705 -2.347599983215332
-3.60918927192688 6.251288890838623 -2.347599983215332
-3.5384764671325684 5.126367092132568 -2.025830030441284
-5.000341892242432 5.205908298492432 -2.347599983215332
-5.437949180603027 4.817597389221191 -2.3627731800079346
-6.139199256896973 4.613320350646973 -2.4975218772888184
-6.4969482421875 4.108417987823486 -2.5
-6.806469440460205 3.5723142623901367 -2.5
-7.071850299835205 3.0130271911621094 -2.5
-7.463593482971191 1.839599609375 -2.5
-7.587421894073486 1.2330760955810547 -2.5
7.310956954956055 1.1881444454193115 -2.5
7.025693416595459 2.345517635345459 -2.5
4.398876667022705 5.387646198272705 -2.347599983215332
1.3912451267242432 6.814794540405273 -2.347599983215332
-0.28006836771965027 6.949716567993164 -2.347599983215332
-2.9817090034484863 6.28380823135376 -2.347599983215332
-3.5331249237060547 5.118593692779541 -2.099252462387085
-4.398876667022705 5.387656211853027 -2.347599983215332
-4.81814432144165 5.016211032867432 -2.347599983215332
-5.416591644287109 4.798691272735596 -2.442493438720703
-6.260210037231445 3.958730459213257 -2.5
-6.814174652099609 2.903251886367798 -2.5
-7.025683403015137 2.345517635345459 -2.5
-7.191640377044678 1.7725878953933716 -2.5
-7.382856369018555 0.595996081829071 -2.5
6.5728759765625 2.8004589080810547 -2.5
6.326215744018555 3.320244073867798 -2.5
5.700878620147705 4.283935546875 -2.495271682739258
5.021791934967041 4.448935508728027 -2.347599983215332
4.243105411529541 5.196865081787109 -2.347599983215332
3.8111767768859863 5.521445274353027 -2.347599983215332
2.8761181831359863 6.061298847198486 -2.347599983215332
2.3790576457977295 6.273056507110596 -2.347599983215332
1.8665771484375 6.444169998168945 -2.347599983215332
1.341982364654541 6.573466777801514 -2.347599983215332
-0.2701513469219208 6.70361328125 -2.347599983215332
-0.8086864948272705 6.660136699676514 -2.347599983215332
-1.3419921398162842 6.573456764221191 -2.347599983215332
-1.8665820360183716 6.444169998168945 -2.347599983215332
-3.3545360565185547 5.810214519500732 -2.347599983215332
-4.243110179901123 5.196875095367432 -2.347599983215332
-5.333256721496582 4.724843502044678 -2.4931998252868652
-6.326220512390137 3.320263624191284 -2.5
-6.57287073135376 2.8004393577575684 -2.5
6.80907678604126 1.1065722703933716 -2.5
6.543393611907959 2.184501886367798 -2.5
6.346386432647705 2.703935384750366 -2.5
6.108232498168945 3.2058496475219727 -2.5
5.830468654632568 3.686962842941284 -2.5
4.487377643585205 4.671875 -2.347599983215332
4.096904277801514 5.017802715301514 -2.347599983215332
3.2389307022094727 5.610009670257568 -2.347599983215332
0.7808251976966858 6.430654048919678 -2.347599983215332
0.2608349621295929 6.472626686096191 -2.347599983215332
-0.2608398497104645 6.472626686096191 -2.347599983215332
-0.7808251976966858 6.430654048919678 -2.347599983215332
-3.2389402389526367 5.610029220581055 -2.347599983215332
-5.153832912445068 4.565898418426514 -2.495302677154541
-5.514882564544678 4.144169807434082 -2.5
-5.830468654632568 3.686953067779541 -2.5
-6.80908203125 1.1065820455551147 -2.5
6.666835784912109 0.0 -2.5
6.645214557647705 0.5364648103713989 -2.5
6.580507755279541 1.0694433450698853 -2.5
6.473114967346191 1.59548819065094 -2.5
6.323740005493164 2.1111814975738525 -2.5
5.90319299697876 3.0982420444488525 -2.5
5.634746074676514 3.5632128715515137 -2.5
4.929853439331055 4.367470741271973 -2.4697670936584473
3.9593799114227295 4.849374771118164 -2.347599983215332
3.1302146911621094 5.421679496765137 -2.347599983215332
2.6837987899780273 5.656005859375 -2.347599983215332
2.219975471496582 5.853613376617432 -2.347599983215332
1.2522460222244263 6.13390588760376 -2.347599983215332
0.7546093463897705 6.214794635772705 -2.347599983215332
0.2520800828933716 6.255351543426514 -2.347599983215332
-0.25208982825279236 6.255351543426514 -2.347599983215332
-0.7546142339706421 6.214785099029541 -2.347599983215332
-1.2522557973861694 6.13390588760376 -2.347599983215332
-1.7417675256729126 6.013251781463623 -2.347599983215332
-2.219980478286743 5.853613376617432 -2.347599983215332
-2.6838085651397705 5.655995845794678 -2.347599983215332
-3.1302196979522705 5.421689510345459 -2.347599983215332
-3.5168943405151367 5.095088005065918 -2.3215625286102295
-5.329760551452637 4.005068302154541 -2.5
-5.634755611419678 3.5632030963897705 -2.5
-5.9031982421875 3.0982322692871094 -2.5
-6.323744773864746 2.1111814975738525 -2.5
-6.580507755279541 1.0694531202316284 -2.5
6.448564529418945 9.765624781721272e-06 -2.5
6.365058422088623 1.034423828125 -2.5
5.709917068481445 2.9967968463897705 -2.5
5.450253963470459 3.446533203125 -2.5
4.814828872680664 4.265575885772705 -2.4937918186187744
3.8297362327575684 4.690595626831055 -2.347599983215332
3.439887523651123 4.983554363250732 -2.347599983215332
2.5959227085113525 5.470810413360596 -2.347599983215332
1.6847264766693115 5.816376686096191 -2.347599983215332
1.211245059967041 5.933075904846191 -2.347599983215332
0.729907214641571 6.011298656463623 -2.347599983215332
0.24381835758686066 6.050556659698486 -2.347599983215332
-0.7299121022224426 6.011298656463623 -2.347599983215332
-2.1472997665405273 5.661962985992432 -2.347599983215332
-3.0277295112609863 5.244189262390137 -2.347599983215332
-3.439892530441284 4.983544826507568 -2.347599983215332
-3.8297412395477295 4.690595626831055 -2.347599983215332
-5.450258731842041 3.446533203125 -2.5
-5.932553768157959 2.5276269912719727 -2.5
-6.261181354522705 1.54324209690094 -2.5
6.161581993103027 1.0013574361801147 -2.5
5.742900371551514 2.446826219558716 -2.5
5.276025295257568 3.336367130279541 -2.5
4.144604206085205 4.315000057220459 -2.396127223968506
3.7073142528533936 4.540634632110596 -2.347599983215332
3.3299314975738525 4.824238300323486 -2.347599983215332
2.9309375286102295 5.076542854309082 -2.347599983215332
2.512944221496582 5.29592752456665 -2.347599983215332
0.7065673470497131 5.819150447845459 -2.347599983215332
-1.1725292205810547 5.743408203125 -2.347599983215332
-2.0786523818969727 5.480947017669678 -2.347599983215332
-2.512944221496582 5.29592752456665 -2.347599983215332
-3.3299267292022705 4.824238300323486 -2.347599983215332
-3.711616039276123 4.5458984375 -2.350318431854248
-4.672524452209473 4.139482498168945 -2.5
-6.222177505493164 0.5022948980331421 -2.5
6.047377586364746 -9.765624781721272e-06 -2.5
5.736152172088623 1.9149999618530273 -2.5
5.563461780548096 2.370371103286743 -2.5
5.354677677154541 2.810351610183716 -2.5
4.522500038146973 4.006591796875 -2.4977803230285645
3.5914745330810547 4.398769378662109 -2.347599983215332
3.225883722305298 4.673505783081055 -2.347599983215332
2.839365243911743 4.917919635772705 -2.347599983215332
2.4344236850738525 5.130449295043945 -2.347599983215332
2.0137059688568115 5.309716701507568 -2.347599983215332
1.579921841621399 5.454521179199219 -2.347599983215332
1.135888695716858 5.56396484375 -2.347599983215332
-2.4344334602355957 5.130449295043945 -2.347599983215332
-2.839370012283325 4.917919635772705 -2.347599983215332
-3.696537971496582 4.527421951293945 -2.4162697792053223
-4.182763576507568 4.354716777801514 -2.4961771965026855
-4.526523113250732 4.010165691375732 -2.5
-4.834526062011719 3.6329197883605957 -2.5
-5.736166954040527 1.9149901866912842 -2.5
-5.969062328338623 0.9700781106948853 -2.5
5.862519264221191 9.765624781721272e-06 -2.5
5.786601543426514 0.9404199123382568 -2.5
5.560810565948486 1.8564550876617432 -2.5
4.954931735992432 3.133310556411743 -2.5
4.050722599029541 4.217255592346191 -2.493608236312866
3.490004777908325 4.274472713470459 -2.353198528289795
3.127270460128784 4.530644416809082 -2.347599983215332
2.752568244934082 4.767587661743164 -2.347599983215332
2.3600096702575684 4.973613262176514 -2.347599983215332
1.5316210985183716 5.287783145904541 -2.347599983215332
1.1011669635772705 5.393896579742432 -2.347599983215332
0.22166503965854645 5.500673770904541 -2.347599983215332
-0.22166991233825684 5.500673770904541 -2.347599983215332
-0.66357421875 5.464990139007568 -2.347599983215332
-1.5316357612609863 5.287783145904541 -2.347599983215332
-2.3600194454193115 4.973613262176514 -2.347599983215332
-3.127270460128784 4.530634880065918 -2.347599983215332
-3.6847898960113525 4.513046741485596 -2.484534740447998
-4.057973384857178 4.224794864654541 -2.4980673789978027
-4.388159275054932 3.887568235397339 -2.5
-5.393393516540527 2.297910213470459 -2.5
-5.560815334320068 1.85647451877594 -2.5
-5.692172527313232 1.4029881954193115 -2.5
-5.786606311798096 0.9404101371765137 -2.5
5.668583869934082 0.4576074182987213 -2.5
5.613368988037109 0.9122655987739563 -2.5
5.521767616271973 1.360986351966858 -2.5
5.394350528717041 1.8008886575698853 -2.5
5.231943130493164 2.229130744934082 -2.5
5.035600662231445 2.642890453338623 -2.5
4.806616306304932 3.039541006088257 -2.5
4.546440124511719 3.416435480117798 -2.5
4.256792068481445 3.771191358566284 -2.5
3.932499885559082 4.094179630279541 -2.4955358505249023
3.4781494140625 4.259960651397705 -2.4175796508789062
2.289365291595459 4.824726581573486 -2.347599983215332
1.068203091621399 5.232411861419678 -2.347599983215332
0.2150292992591858 5.336005687713623 -2.347599983215332
-1.068212866783142 5.232421875 -2.347599983215332
-2.289375066757202 4.82473611831665 -2.347599983215332
-2.670175790786743 4.624873161315918 -2.347599983215332
-3.070141553878784 4.447861194610596 -2.3758273124694824
-4.546450138092041 3.416435480117798 -2.5
-4.806621074676514 3.0395214557647705 -2.5
-5.394350528717041 1.8008886575698853 -2.5
-5.521772384643555 1.3609960079193115 -2.5
-5.6685791015625 0.4576171636581421 -2.5
5.520161151885986 9.765624781721272e-06 -2.5
5.448676586151123 0.8854784965515137 -2.5
5.236073970794678 1.7480566501617432 -2.5
5.078432559967041 2.163710832595825 -2.5
4.887851238250732 2.5653514862060547 -2.5
4.665575981140137 2.950322151184082 -2.5
4.413046836853027 3.3161816596984863 -2.5
3.8199217319488525 3.9769628047943115 -2.497371196746826
3.4675536155700684 4.246992111206055 -2.4830729961395264
2.944643497467041 4.266054630279541 -2.347599983215332
2.5918211936950684 4.489179611206055 -2.347599983215332
1.442177653312683 4.978993892669678 -2.347599983215332
0.6248144507408142 5.145849704742432 -2.347599983215332
0.20872069895267487 5.179443359375 -2.347599983215332
-0.20872558653354645 5.179443359375 -2.347599983215332
-0.6248193383216858 5.145859241485596 -2.347599983215332
-1.0368603467941284 5.078896522521973 -2.347599983215332
-2.2221875190734863 4.683173656463623 -2.347599983215332
-2.5918262004852295 4.489169597625732 -2.347599983215332
-3.485595703125 4.269082069396973 -2.4959864616394043
-4.665590763092041 2.9503417015075684 -2.5
-4.887856483459473 2.5653514862060547 -2.5
-5.078432559967041 2.1637206077575684 -2.5
-5.236064434051514 1.7480566501617432 -2.5
-5.502260684967041 0.44416990876197815 -2.5
5.085351467132568 1.6977245807647705 -2.5
4.531289100646973 2.865419864654541 -2.5
4.012963771820068 3.555166006088257 -2.5
3.7125730514526367 3.8652050495147705 -2.49912166595459
3.382563352584839 4.142890453338623 -2.494000196456909
2.517216682434082 4.359951019287109 -2.347599983215332
2.1582274436950684 4.54836893081665 -2.347599983215332
1.7852343320846558 4.707294940948486 -2.347599983215332
