ply
format ascii 1.0
element vertex 916
property float x
property float y
property float z
end_header
-5.597944259643555 27.420560836791992 7.498862266540527
-7.727118968963623 26.677080154418945 7.441920757293701
-9.8377685546875 25.940067291259766 7.433686256408691
9.11087417602539 15.780497550964355 4.666727066040039
-3.4217236042022705 28.18047332763672 7.270216464996338
-7.727118968963623 26.677080154418945 6.785970211029053
-9.837763786315918 25.940073013305664 6.778461933135986
-14.50991153717041 25.131914138793945 7.0904541015625
18.652952194213867 11.795419692993164 5.133807182312012
-3.4217236042022705 28.18047332763672 6.603476524353027
-7.893735408782959 27.252342224121094 6.600010395050049
-2.2826805114746094 4.810649394989014 1.2385931015014648
-14.509921073913574 25.131908416748047 6.750582695007324
-15.424384117126465 9.753793716430664 4.245217323303223
18.65230369567871 11.795004844665527 4.876495361328125
9.090742111206055 15.745624542236328 4.017553806304932
-3.4988622665405273 28.8151798248291 6.414009094238281
-2.2825098037719727 4.810283184051514 1.1764618158340454
-14.477001190185547 25.074872970581055 6.397908687591553
18.651662826538086 11.794599533081055 4.6204514503479
0.7553271055221558 18.743377685546875 3.927560329437256
-5.788168907165527 28.352357864379883 6.058670520782471
-8.001992225646973 27.626054763793945 6.021916389465332
-10.187719345092773 26.86282730102539 6.015257358551025
-2.2823290824890137 4.809897422790527 1.114687204360962
-14.61572265625 25.315176010131836 6.1202898025512695
18.65101432800293 11.794194221496582 4.365618705749512
0.7587109208106995 18.827411651611328 3.7277019023895264
-3.5217723846435547 29.00448226928711 5.7801737785339355
-5.788173675537109 28.352357864379883 5.724708557128906
-8.001996994018555 27.626054763793945 5.68998384475708
-14.61571216583252 25.315176010131836 5.782931804656982
9.0709810256958 15.711400985717773 3.3806724548339844
0.7602880597114563 18.866376876831055 3.5184576511383057
-5.788178443908691 28.352357864379883 5.392210483551025
-8.001996994018555 27.626049041748047 5.359500408172607
-10.187724113464355 26.862821578979492 5.353572845458984
-2.2816162109375 4.808413028717041 0.9917626976966858
-14.61571216583252 25.315176010131836 5.447049617767334
18.64974021911621 11.793388366699219 3.859276056289673
-3.5217676162719727 29.00448226928711 5.110116958618164
-14.61572265625 25.315176010131836 5.112551212310791
9.057997703552246 15.688910484313965 2.961940288543701
0.7608935236930847 18.881494522094727 3.089639186859131
-3.5217723846435547 29.00448226928711 4.777069568634033
-5.788168907165527 28.352357864379883 4.731232166290283
-2.2809131145477295 4.806923866271973 0.8699237108230591
-8.1361083984375 14.0922212600708 2.6605217456817627
18.64786148071289 11.79220199584961 3.3568029403686523
0.7609912157058716 18.88384246826172 2.875375270843506
-3.5217723846435547 29.00448226928711 4.445232391357422
-2.2805614471435547 4.806186199188232 0.8093701004981995
-8.118593215942383 14.061869621276855 2.4703774452209473
18.646015167236328 11.791034698486328 3.1067540645599365
-3.513544797897339 28.936595916748047 4.104881286621094
-5.748144626617432 28.15630340576172 4.046851634979248
-7.942285060882568 27.419925689697266 4.020089626312256
-8.101186752319336 14.03173828125 2.281681776046753
-16.73112678527832 24.239179611206055 4.147646903991699
21.0284366607666 5.183212757110596 2.8055381774902344
19.85194206237793 8.458125114440918 2.7952868938446045
18.644176483154297 11.789873123168945 2.8575279712677
0.7593359351158142 18.842742919921875 2.4428603649139404
-5.76162576675415 28.222352981567383 3.731311559677124
-7.953061580657959 27.457128524780273 3.7029802799224854
-10.125429153442383 26.69857406616211 3.6988818645477295
-2.280078172683716 4.805160999298096 0.6889776587486267
-8.083930015563965 14.00182056427002 2.094379425048828
-16.815292358398438 24.361122131347656 3.8344922065734863
18.632951736450195 11.7827730178833 2.6077537536621094
9.032402038574219 15.644579887390137 2.136831521987915
-3.521782159805298 29.00448226928711 3.4560699462890625
-5.788178443908691 28.352357864379883 3.4229087829589844
-16.84766960144043 24.40802764892578 3.508172035217285
18.632247924804688 11.782333374023438 2.3602583408355713
9.026068687438965 15.633617401123047 1.9327768087387085
0.7636572122573853 18.950098037719727 2.0305471420288086
-10.144906997680664 26.749984741210938 3.0630407333374023
-8.04977035522461 13.94265079498291 1.723705768585205
-16.84766960144043 24.40802764892578 3.1753392219543457
0.7685497999191284 19.071352005004883 1.8298498392105103
-3.521782159805298 29.00448226928711 2.8010692596435547
-5.788168907165527 28.352357864379883 2.7741923332214355
-7.968369007110596 27.510000228881836 2.7457804679870605
-2.2795262336730957 4.803998947143555 0.5097747445106506
-8.0328369140625 13.913330078125 1.5402147769927979
18.630868911743164 11.78145980834961 1.867025375366211
-1.2014843225479126 29.814687728881836 2.527285099029541
-3.5217723846435547 29.00448226928711 2.4746551513671875
-5.788173675537109 28.352357864379883 2.450913906097412
-10.144916534423828 26.749975204467773 2.4231245517730713
-2.2793407440185547 4.803603172302246 0.45033353567123413
-8.016030311584473 13.884218215942383 1.3578814268112183
9.007216453552246 15.600956916809082 1.3248836994171143
-1.2014843225479126 29.814687728881836 2.1945531368255615
-3.5217723846435547 29.00448226928711 2.148852825164795
-8.001992225646973 27.626054763793945 2.115323543548584
-7.999320983886719 13.8552827835083 1.1766512393951416
18.62948226928711 11.780570983886719 1.37571382522583
-0.72120600938797 17.89669418334961 1.1179134845733643
-3.521782159805298 29.00448226928711 1.8235793113708496
-5.788168907165527 28.352357864379883 1.8060836791992188
-10.187719345092773 26.86282730102539 1.7931405305862427
-7.982699871063232 13.826498985290527 0.996433675289154
-0.71913081407547 17.845239639282227 0.9161453247070312
-3.5217723846435547 29.00448226928711 1.4987579584121704
-5.76162576675415 28.222352981567383 1.4775707721710205
-10.1254243850708 26.69857406616211 1.4647289514541626
-16.8153018951416 24.361122131347656 1.5184295177459717
18.628599166870117 11.780024528503418 0.8858566284179688
8.988534927368164 15.568588256835938 0.7225530743598938
0.7001171708106995 17.373294830322266 0.6988329887390137
-0.71913081407547 17.84522819519043 0.7178164720535278
-5.725473403930664 28.045204162597656 1.1504369974136353
-10.1121187210083 26.663480758666992 1.1461336612701416
-7.949746131896973 13.769428253173828 0.6390261650085449
-16.744325637817383 24.25831413269043 1.1846959590911865
18.628551483154297 11.779990196228027 0.6413162350654602
8.98233413696289 15.557861328125 0.5226971507072449
0.7001171708106995 17.373294830322266 0.5059228539466858
-5.740991115570068 28.121234893798828 0.8351196050643921
-7.953066349029541 27.457128524780273 0.8317583799362183
-10.125429153442383 26.69857406616211 0.8308379650115967
-2.2784228324890137 4.801674842834473 0.15464477241039276
-16.815292358398438 24.361127853393555 0.8612985014915466
18.628496170043945 11.779955863952637 0.39693450927734375
8.976147651672363 15.547147750854492 0.32330626249313354
0.7001171708106995 17.373294830322266 0.31313568353652954
-16.918745040893555 24.510995864868164 0.5363708138465881
8.969975471496582 15.536444664001465 0.1242547556757927
2.267636775970459 18.67567253112793 0.1302984654903412
-0.71913081407547 17.845233917236328 0.12369689345359802
-3.5217676162719727 29.00448226928711 0.2023586928844452
-5.782675743103027 28.325462341308594 0.20022644102573395
-10.144926071166992 26.749975204467773 0.19814452528953552
-7.929160118103027 13.7337646484375 0.10983458906412125
18.628400802612305 11.779891967773438 -0.09159301221370697
2.267631769180298 18.6756591796875 -0.0781777948141098
-0.71913081407547 17.845239639282227 -0.07421691715717316
-3.521782159805298 29.00448226928711 -0.12141814827919006
-2.2778759002685547 4.800522327423096 -0.022081756964325905
-16.918745040893555 24.510995864868164 -0.12376846373081207
18.628355026245117 11.779863357543945 -0.3358556926250458
0.7001171708106995 17.373294830322266 -0.2649502456188202
-0.71913081407547 17.845233917236328 -0.27214735746383667
-3.521782159805298 29.00447654724121 -0.445220947265625
-8.001992225646973 27.626054763793945 -0.43827390670776367
-10.187724113464355 26.862821578979492 -0.4377891421318054
-2.2776951789855957 4.800136566162109 -0.08096282929182053
18.628305435180664 11.779833793640137 -0.5801995992660522
8.95150375366211 15.5044527053833 -0.47127118706703186
2.267636775970459 18.67567253112793 -0.4952351152896881
-3.5217723846435547 29.00448226928711 -0.7691331505775452
-7.989696979522705 27.5836181640625 -0.7559690475463867
-2.2775049209594727 4.799755573272705 -0.13985411822795868
-7.920493125915527 13.718745231628418 -0.4170050024986267
-16.918745040893555 24.510995864868164 -0.7840220332145691
8.945356369018555 15.493807792663574 -0.6694059371948242
2.267636775970459 18.675662994384766 -0.7039244174957275
0.7001171708106995 17.373294830322266 -0.6505883932113647
-10.187724113464355 26.862821578979492 -1.074992299079895
-2.2773289680480957 4.799369812011719 -0.19877150654792786
-7.9176025390625 13.7137451171875 -0.5925120115280151
18.613447189331055 11.7704439163208 -1.06853187084198
8.939208984375 15.483163833618164 -0.8674615025520325
3.6222801208496094 17.743045806884766 -0.8786367774009705
2.267627000808716 18.675643920898438 -0.9127842783927917
-0.71913081407547 17.845233917236328 -0.866540789604187
-5.782675743103027 28.325462341308594 -1.4026806354522705
-10.088568687438965 26.601375579833984 -1.3803842067718506
-2.2771434783935547 4.798984050750732 -0.25772765278816223
-16.77483367919922 24.302490234375 -1.4327646493911743
-22.95631217956543 1.853212833404541 -1.1174490451812744
21.245641708374023 7.092836856842041 -1.335687518119812
22.159685134887695 9.441362380981445 -1.4363967180252075
0.7001171708106995 17.373294830322266 -1.0368674993515015
-0.6162646412849426 15.292763710021973 -0.9126979112625122
-5.782685279846191 28.325462341308594 -1.7239824533462524
-7.953056335449219 27.45713233947754 -1.7046642303466797
-2.2769627571105957 4.798598289489746 -0.3167381286621094
-7.911816120147705 13.7037353515625 -0.9436190724372864
21.99010467529297 9.369111061096191 -1.6914119720458984
8.926928520202637 15.461898803710938 -1.2633347511291504
1.940273404121399 15.979594230651855 -1.139052391052246
0.7001122832298279 17.373294830322266 -1.2303664684295654
-0.6162695288658142 15.292768478393555 -1.083024263381958
-5.76162576675415 28.222352981567383 -2.0382628440856934
-7.953066349029541 27.45713233947754 -2.0227859020233154
-2.2767772674560547 4.798213005065918 -0.3758166432380676
-7.90893030166626 13.69871997833252 -1.1193064451217651
-24.91085433959961 4.048408031463623 -1.785868763923645
-22.90675163269043 1.849208950996399 -1.6262017488479614
20.954448699951172 6.995625019073486 -1.8094619512557983
18.552316665649414 11.731781959533691 -1.7979183197021484
0.6250537037849426 15.510629653930664 -1.2714786529541016
-1.9946142435073853 16.42715835571289 -1.3554017543792725
-5.676313400268555 27.80442237854004 -2.324383497238159
-7.953056335449219 27.457128524780273 -2.341409683227539
-7.906030178070068 13.693710327148438 -1.2951427698135376
-19.854442596435547 20.670692443847656 -2.347599983215332
-21.453304290771484 19.0059814453125 -2.347599983215332
-22.913095474243164 17.21807098388672 -2.347599983215332
-22.927080154418945 1.85085928440094 -1.8840266466140747
26.07964515686035 6.428056716918945 -2.5
20.974721908569336 7.002392292022705 -2.0581352710723877
23.78348159790039 12.482548713684082 -2.5
18.52473258972168 11.71434497833252 -2.039994478225708
14.328164100646973 20.7579288482666 -2.347599983215332
8.000205039978027 16.860111236572266 -1.7369506359100342
8.944110870361328 23.58368682861328 -2.347599983215332
7.017412185668945 24.226919174194336 -2.347599983215332
3.4676904678344727 16.985809326171875 -1.6135573387145996
1.916835904121399 15.786601066589355 -1.4801238775253296
0.6250537037849426 15.510629653930664 -1.4448174238204956
-0.6162695288658142 15.292768478393555 -1.4245232343673706
-1.9946142435073853 16.427162170410156 -1.540181279182434
-5.045180320739746 24.71302604675293 -2.347599983215332
-2.2764110565185547 4.797441482543945 -0.4942391812801361
-7.903129577636719 13.688691139221191 -1.4711679220199585
-14.328203201293945 20.75790023803711 -2.347599983215332
-15.951967239379883 19.537700653076172 -2.347599983215332
-18.879526138305664 16.72576141357422 -2.347599983215332
-20.16415023803711 15.152372360229492 -2.347599983215332
-23.78349494934082 12.482519149780273 -2.5
-26.07964324951172 6.428071022033691 -2.5
9.943349838256836 -4.882812390860636e-06 -1.03673255443573
22.743602752685547 7.592929363250732 -2.5
22.05889892578125 9.398412704467773 -2.5
21.231082916259766 11.142939567565918 -2.5
18.46603012084961 11.677216529846191 -2.277998685836792
18.000150680541992 13.526259422302246 -2.347599983215332
15.597304344177246 16.238510131835938 -2.347599983215332
8.334550857543945 14.435888290405273 -1.737992763519287
7.669980525970459 16.164165496826172 -1.8654509782791138
6.264321327209473 21.626928329467773 -2.347599983215332
3.4676904678344727 16.985809326171875 -1.8075376749038696
1.916845679283142 15.786601066589355 -1.6580644845962524
0.6250537037849426 15.510629653930664 -1.618514060974121
-0.6162695288658142 15.292768478393555 -1.595778465270996
-1.9946142435073853 16.427162170410156 -1.7253426313400269
-7.900238990783691 13.683661460876465 -1.6474270820617676
-14.240117073059082 17.440921783447266 -2.347599983215332
-15.597299575805664 16.2385196685791 -2.347599983215332
-16.853384017944336 14.930795669555664 -2.347599983215332
-20.265615463256836 12.81520938873291 -2.5
-22.058862686157227 9.398407936096191 -2.5
-23.667083740234375 3.8462841510772705 -2.5
-23.89981460571289 1.929384708404541 -2.5
21.578699111938477 1.742006778717041 -2.5
21.019813537597656 5.180917739868164 -2.5
19.16914176940918 10.060747146606445 -2.5
17.18201446533203 10.865262985229492 -2.347599983215332
16.25200653076172 12.212597846984863 -2.347599983215332
15.216606140136719 13.480741500854492 -2.347599983215332
8.352875709533691 14.467607498168945 -1.9291698932647705
7.669980525970459 16.164159774780273 -2.0661087036132812
5.655922889709473 19.52654266357422 -2.347599983215332
3.373964786529541 16.526737213134766 -1.9478617906570435
1.916835904121399 15.786601066589355 -1.8364156484603882
0.6250537037849426 15.510629653930664 -1.7926104068756104
-1.9946142435073853 16.427162170410156 -1.9109302759170532
-7.208818435668945 19.00810432434082 -2.347599983215332
-8.676523208618164 12.570131301879883 -1.7638072967529297
-14.08250904083252 14.66146469116211 -2.347599983215332
-18.26619529724121 11.550844192504883 -2.4957327842712402
-19.169139862060547 10.060736656188965 -2.5
-19.916532516479492 8.485649108886719 -2.5
-21.57870101928711 1.7419921159744263 -2.5
9.192192077636719 0.0 -1.1648662090301514
10.765761375427246 0.8690966367721558 -1.36871337890625
19.154735565185547 4.721225261688232 -2.5
18.14933967590332 7.732714653015137 -2.5
16.403398513793945 8.609169960021973 -2.347599983215332
14.809950828552246 11.129003524780273 -2.347599983215332
8.352875709533691 14.467607498168945 -2.1170120239257812
7.608344554901123 16.034257888793945 -2.2490651607513428
6.569184303283691 17.321514129638672 -2.347599983215332
0.6189306378364563 15.35848617553711 -1.947861909866333
-0.6162646412849426 15.292763710021973 -1.9395259618759155
-1.9233496189117432 15.840224266052246 -2.0220730304718018
-6.569223403930664 17.321483612060547 -2.347599983215332
-2.2758593559265137 4.796274185180664 -0.672756016254425
-13.866425514221191 12.284594535827637 -2.347599983215332
-15.657455444335938 9.901171684265137 -2.347599983215332
-19.472515106201172 3.164604425430298 -2.5
9.051484107971191 -4.882812390860636e-06 -1.2490960359573364
10.58022403717041 0.8541162014007568 -1.4648113250732422
17.589643478393555 4.335453987121582 -2.5
17.183740615844727 5.736772537231445 -2.5
16.666400909423828 7.100898265838623 -2.5
15.485780715942383 8.127573013305664 -2.4134738445281982
12.64400863647461 7.995590686798096 -2.0644617080688477
12.733442306518555 11.280844688415527 -2.347599983215332
7.292768478393555 15.36922836303711 -2.347599983215332
4.732954025268555 16.34004783630371 -2.347599983215332
3.291933536529541 16.12492561340332 -2.2711236476898193
-0.6000097393989563 14.889349937438965 -2.0563855171203613
-4.732958793640137 16.340044021606445 -2.347599983215332
-6.032426834106445 15.906220436096191 -2.347599983215332
-8.676523208618164 12.570131301879883 -2.1077775955200195
-11.784403800964355 12.268891334533691 -2.347599983215332
-12.73343276977539 11.280844688415527 -2.347599983215332
-13.599882125854492 10.219648361206055 -2.347599983215332
-14.378114700317383 9.092177391052246 -2.347599983215332
-17.589624404907227 4.335458755493164 -2.5
-18.05731964111328 1.457729458808899 -2.5
8.91537094116211 4.882812390860636e-06 -1.331148386001587
10.277235984802246 0.8296582102775574 -1.5394790172576904
16.257226943969727 4.006953239440918 -2.5
15.882064819335938 5.302211761474609 -2.5
15.403915405273438 6.563002586364746 -2.5
14.788691520690918 7.761708736419678 -2.4937329292297363
12.60216236114502 7.969130516052246 -2.226271390914917
12.56969165802002 9.445502281188965 -2.347599983215332
10.891742706298828 11.339506149291992 -2.347599983215332
9.9439697265625 12.17916488647461 -2.347599983215332
8.931714057922363 12.939824104309082 -2.347599983215332
7.861527919769287 13.61656665802002 -2.347599983215332
6.7403564453125 14.205009460449219 -2.347599983215332
5.57546854019165 14.701322555541992 -2.347599983215332
4.374428749084473 15.10228443145752 -2.347599983215332
1.8560839891433716 15.286239624023438 -2.299142360687256
0.6069433689117432 15.0611572265625 -2.2505977153778076
-1.895229458808899 15.608393669128418 -2.347599983215332
-5.575492858886719 14.701298713684082 -2.347599983215332
-2.2754931449890137 4.795493125915527 -0.792531430721283
-7.459809303283691 12.9208345413208 -2.227647542953491
-8.636942863464355 12.512802124023438 -2.2701261043548584
-9.943984031677246 12.179160118103027 -2.347599983215332
-10.891742706298828 11.33951187133789 -2.347599983215332
-12.569677352905273 9.445508003234863 -2.347599983215332
-13.288969039916992 8.403447151184082 -2.347599983215332
-14.825868606567383 7.781196117401123 -2.5
-15.882075309753418 5.302202224731445 -2.5
-16.257221221923828 4.007036209106445 -2.5
-16.52692413330078 2.6858983039855957 -2.5
-16.68946647644043 1.3473047018051147 -2.5
8.786478996276855 -4.882812390860636e-06 -1.411609411239624
15.108920097351074 3.724013566970825 -2.5
14.31588363647461 6.099433422088623 -2.5
12.350151062011719 7.810361385345459 -2.347599983215332
10.937602043151855 9.689872741699219 -2.347599983215332
10.122426986694336 10.538554191589355 -2.347599983215332
9.241591453552246 11.3189058303833 -2.347599983215332
8.300829887390137 12.025835037231445 -2.347599983215332
6.264257907867432 13.20166015625 -2.347599983215332
2.9228808879852295 14.31717300415039 -2.347599983215332
-0.58837890625 14.600629806518555 -2.347599983215332
-1.7613378763198853 14.50594711303711 -2.347599983215332
-2.9228856563568115 14.31716251373291 -2.347599983215332
-4.065439224243164 14.03555679321289 -2.347599983215332
-5.181645393371582 13.662909507751465 -2.347599983215332
-2.2753076553344727 4.795102596282959 -0.852695882320404
-7.306205749511719 12.654804229736328 -2.347599983215332
-9.241591453552246 11.3189058303833 -2.347599983215332
-10.122426986694336 10.538564682006836 -2.347599983215332
-11.68185043334961 8.778334617614746 -2.347599983215332
-12.350321769714355 7.809877872467041 -2.347599983215332
-13.778661727905273 7.231591701507568 -2.5
-14.31588363647461 6.099423885345459 -2.5
-15.359580039978027 2.4961767196655273 -2.5
8.6698579788208 -4.882812390860636e-06 -1.491607666015625
13.783242225646973 4.601528167724609 -2.5
13.368266105651855 5.695693016052246 -2.5
11.532821655273438 7.292919635772705 -2.347599983215332
9.452387809753418 9.840986251831055 -2.347599983215332
6.822607040405273 11.817118644714355 -2.347599983215332
5.84960412979126 12.327797889709473 -2.347599983215332
4.838666915893555 12.758520126342773 -2.347599983215332
-0.5494091510772705 13.634183883666992 -2.347599983215332
-2.7293994426727295 13.36947250366211 -2.347599983215332
-3.796332836151123 13.106508255004883 -2.347599983215332
-4.838666915893555 12.758524894714355 -2.347599983215332
-6.8226318359375 11.817118644714355 -2.347599983215332
-7.751391410827637 11.229804039001465 -2.347599983215332
-8.629867553710938 10.569672584533691 -2.347599983215332
-10.213603019714355 9.048476219177246 -2.347599983215332
-12.866605758666992 6.752910137176514 -2.5
-13.368266105651855 5.695693016052246 -2.5
-13.783231735229492 4.601513385772705 -2.5
-14.108803749084473 3.4775097370147705 -2.5
-14.342880249023438 2.330947160720825 -2.5
-14.483925819396973 1.169252872467041 -2.5
13.229741096496582 3.2608349323272705 -2.5
12.924443244934082 4.3148193359375 -2.5
12.06493091583252 6.332172870635986 -2.5
7.268413066864014 10.530121803283691 -2.347599983215332
6.397519588470459 11.08084487915039 -2.347599983215332
5.485131740570068 11.5596923828125 -2.347599983215332
3.5597996711730957 12.289873123168945 -2.347599983215332
2.559340715408325 12.536469459533691 -2.347599983215332
0.5151953101158142 12.784672737121582 -2.347599983215332
-4.537177562713623 11.963579177856445 -2.347599983215332
-7.268422603607178 10.53011703491211 -2.347599983215332
-8.863432884216309 9.227827072143555 -2.347599983215332
-9.57723617553711 8.484692573547363 -2.347599983215332
-12.064936637878418 6.332162857055664 -2.5
-12.5353364944458 5.340810298919678 -2.5
-12.924448013305664 4.314814567565918 -2.5
-13.229736328125 3.2608349323272705 -2.5
-13.449223518371582 2.1857080459594727 -2.5
-13.581488609313965 1.0963964462280273 -2.5
9.966557502746582 0.80458003282547 -1.9493545293807983
12.163505554199219 4.060786247253418 -2.5
11.354594230651855 5.959355354309082 -2.5
10.177553176879883 6.435898303985596 -2.347599983215332
9.62667465209961 7.233983993530273 -2.347599983215332
9.013368606567383 7.985141277313232 -2.347599983215332
7.615732192993164 9.327597618103027 -2.347599983215332
6.840487957000732 9.910151481628418 -2.347599983215332
6.020864009857178 10.428442001342773 -2.347599983215332
5.162197113037109 10.879101753234863 -2.347599983215332
4.270053386688232 11.259203910827637 -2.347599983215332
-1.4514696598052979 11.953925132751465 -2.347599983215332
-3.3502197265625 11.566303253173828 -2.347599983215332
-4.270053386688232 11.259208679199219 -2.347599983215332
-6.020864009857178 10.428442001342773 -2.347599983215332
-7.615742206573486 9.327582359313965 -2.347599983215332
-8.341596603393555 8.684521675109863 -2.347599983215332
-10.285385131835938 6.504091739654541 -2.3724758625030518
-11.7972993850708 5.0263671875 -2.5
-12.781869888305664 1.0318456888198853 -2.5
8.590361595153809 4.882812390860636e-06 -1.7737668752670288
9.971166610717773 0.8049511313438416 -2.065577507019043
10.72066879272461 5.626650333404541 -2.5
9.60934066772461 6.076591491699219 -2.347599983215332
7.875893592834473 8.199663162231445 -2.347599983215332
7.19054651260376 8.806836128234863 -2.347599983215332
5.684716701507568 9.84621524810791 -2.347599983215332
4.031660079956055 10.630605697631836 -2.347599983215332
3.1631736755371094 10.920546531677246 -2.347599983215332
2.274184465408325 11.139662742614746 -2.347599983215332
1.3704345226287842 11.286542892456055 -2.347599983215332
0.4577343761920929 11.360190391540527 -2.347599983215332
-0.4577978551387787 11.360209465026855 -2.347599983215332
-1.3704394102096558 11.286538124084473 -2.347599983215332
-3.1631786823272705 10.920551300048828 -2.347599983215332
-2.274550676345825 4.793520450592041 -1.0955580472946167
-7.190541744232178 8.806836128234863 -2.347599983215332
-7.87588357925415 8.19967269897461 -2.347599983215332
-8.510150909423828 7.539326190948486 -2.347599983215332
-10.163373947143555 6.426923751831055 -2.482952833175659
-10.72066879272461 5.626645565032959 -2.5
-11.138667106628418 4.745747089385986 -2.5
-11.484418869018555 3.834052562713623 -2.5
-12.068256378173828 0.9742382764816284 -2.5
9.967382431030273 0.8046435117721558 -2.1805992126464844
11.316059112548828 1.8390331268310547 -2.5
11.13138198852539 2.743642568588257 -2.5
10.547123908996582 4.493710994720459 -2.5
9.309160232543945 5.886767387390137 -2.401820421218872
8.058207511901855 7.138935565948486 -2.347599983215332
7.457622051239014 7.764213562011719 -2.347599983215332
6.808671951293945 8.339120864868164 -2.347599983215332
6.115585803985596 8.859936714172363 -2.347599983215332
4.615136623382568 9.726215362548828 -2.347599983215332
3.8175487518310547 10.066044807434082 -2.347599983215332
2.995185375213623 10.340590476989746 -2.347599983215332
2.1534130573272705 10.548070907592773 -2.347599983215332
1.2976512908935547 10.687148094177246 -2.347599983215332
-1.2976561784744263 10.687138557434082 -2.347599983215332
-3.8175389766693115 10.066049575805664 -2.347599983215332
-2.274360418319702 4.793115139007568 -1.1569066047668457
-5.382817268371582 9.323315620422363 -2.347599983215332
-6.808671951293945 8.339120864868164 -2.347599983215332
-8.05819320678711 7.13894510269165 -2.347599983215332
-9.666400909423828 6.112660884857178 -2.4939897060394287
-10.547114372253418 4.493710994720459 -2.5
-11.316059112548828 1.8390380144119263 -2.5
-11.427338600158691 0.9225097298622131 -2.5
8.558085441589355 -4.882812390860636e-06 -1.9658026695251465
10.848407745361328 0.8757763504981995 -2.5
10.567445755004883 2.6046483516693115 -2.5
10.323593139648438 3.446523427963257 -2.5
10.01278305053711 4.266049861907959 -2.5
9.637045860290527 5.057914733886719 -2.5
9.171894073486328 5.799965858459473 -2.492689847946167
7.649950981140137 6.777265548706055 -2.347599983215332
7.079804420471191 7.370854377746582 -2.347599983215332
5.110121726989746 8.85097599029541 -2.347599983215332
3.624140501022339 9.556083679199219 -2.347599983215332
2.843447208404541 9.816713333129883 -2.347599983215332
2.0443115234375 10.013681411743164 -2.347599983215332
-2.044306516647339 10.013690948486328 -2.347599983215332
-3.6241455078125 9.556078910827637 -2.347599983215332
-7.079804420471191 7.370859146118164 -2.347599983215332
-7.649941444396973 6.777265548706055 -2.347599983215332
-9.637045860290527 5.057905197143555 -2.5
-10.323583602905273 3.4465184211730957 -2.5
-10.742768287658691 1.7458739280700684 -2.5
9.823383331298828 3.2795262336730957 -2.5
9.527631759643555 4.059345722198486 -2.5
7.774604320526123 5.842246055603027 -2.347599983215332
7.27929162979126 6.448886394500732 -2.347599983215332
6.736767292022705 7.013710975646973 -2.347599983215332
5.524447917938232 8.003535270690918 -2.347599983215332
4.862514495849609 8.422123908996582 -2.347599983215332
4.169043064117432 8.786088943481445 -2.347599983215332
2.705678701400757 9.341073989868164 -2.347599983215332
1.9452685117721558 9.528495788574219 -2.347599983215332
1.172216773033142 9.654120445251465 -2.347599983215332
0.39158689975738525 9.717143058776855 -2.347599983215332
-2.705678701400757 9.341069221496582 -2.347599983215332
-2.273974657058716 4.792309284210205 -1.280483365058899
-5.524462699890137 8.00350570678711 -2.347599983215332
-7.774599552154541 5.842236042022705 -2.347599983215332
-9.527631759643555 4.059350490570068 -2.5
-9.823383331298828 3.279531240463257 -2.5
8.562773704528809 4.882812390860636e-06 -2.167724847793579
9.843280792236328 0.7946337461471558 -2.5
9.747421264648438 1.5841162204742432 -2.5
9.58834457397461 2.3633203506469727 -2.5
9.367084503173828 3.127197265625 -2.5
8.744150161743164 4.589286804199219 -2.5
8.335136413574219 5.270830154418945 -2.4965946674346924
6.941176414489746 6.149331092834473 -2.347599983215332
5.86486291885376 7.183144569396973 -2.347599983215332
4.636650085449219 8.030913352966309 -2.347599983215332
3.2883543968200684 8.67068862915039 -2.347599983215332
2.5799951553344727 8.907172203063965 -2.347599983215332
1.117773413658142 9.2056884765625 -2.347599983215332
-0.37339842319488525 9.26577091217041 -2.347599983215332
-1.1177783012390137 9.205683708190918 -2.347599983215332
-2.5799951553344727 8.907167434692383 -2.347599983215332
-3.2883543968200684 8.67068862915039 -2.347599983215332
-2.2737841606140137 4.791903972625732 -1.3427456617355347
-5.267836570739746 7.631777286529541 -2.347599983215332
-6.941166877746582 6.149345397949219 -2.347599983215332
-8.343505859375 5.276113033294678 -2.4991016387939453
-8.744150161743164 4.589277267456055 -2.5
-9.085078239440918 3.87078595161438 -2.5
-9.367084503173828 3.127187490463257 -2.5
-9.747421264648438 1.5841162204742432 -2.5
-9.843276023864746 0.7946337461471558 -2.5
9.404013633728027 0.75916987657547 -2.5
9.312421798706055 1.5134179592132568 -2.5
9.160449028015137 2.2578516006469727 -2.5
8.353925704956055 4.384487152099609 -2.5
7.099765300750732 5.335126876831055 -2.3532769680023193
6.137172698974609 6.389467716217041 -2.347599983215332
4.429731369018555 7.672519207000732 -2.347599983215332
3.797978401184082 8.004091262817383 -2.347599983215332
2.4648633003234863 8.509673118591309 -2.347599983215332
1.0678857564926147 8.794873237609863 -2.347599983215332
0.3567236363887787 8.852270126342773 -2.347599983215332
-1.77212393283844 8.680419921875 -2.347599983215332
-5.032758712768555 7.291186332702637 -2.347599983215332
-5.603119850158691 6.862587928771973 -2.347599983215332
-6.137167930603027 6.389472484588623 -2.347599983215332
-7.082626819610596 5.322255611419678 -2.347599983215332
-7.97402811050415 5.042470455169678 -2.5
-8.679633140563965 3.698051691055298 -2.5
-8.949067115783691 2.9876317977905273 -2.5
-9.160449028015137 2.2578516006469727 -2.5
-9.31241226196289 1.5134375095367432 -2.5
-9.404008865356445 0.7591650485992432 -2.5
8.7669038772583 2.160835027694702 -2.5
8.564604759216309 2.8592772483825684 -2.5
8.306747436523438 3.539179563522339 -2.5
5.873510837554932 6.114965915679932 -2.347599983215332
5.362411975860596 6.567758560180664 -2.347599983215332
4.239423751831055 7.342905044555664 -2.347599983215332
3.634819269180298 7.660219669342041 -2.347599983215332
3.006645441055298 7.9278564453125 -2.347599983215332
1.6959911584854126 8.307504653930664 -2.347599983215332
1.0220165252685547 8.417036056518555 -2.347599983215332
-0.3414013683795929 8.471977233886719 -2.347599983215332
-2.358964681625366 8.144091606140137 -2.347599983215332
-3.006640672683716 7.927865982055664 -2.347599983215332
-2.273393392562866 4.791083812713623 -1.4683059453964233
-4.239428520202637 7.342905044555664 -2.347599983215332
-5.362407207489014 6.567758560180664 -2.347599983215332
-7.016279220581055 5.272387504577637 -2.4299991130828857
-7.631450176239014 4.825844764709473 -2.5
-8.306742668151855 3.539174795150757 -2.5
-8.56459903717041 2.8592822551727295 -2.5
-8.912358283996582 1.4483983516693115 -2.5
-9.0 0.7265527248382568 -2.5
8.655156135559082 -4.882812390860636e-06 -2.5
8.543066024780273 1.3883837461471558 -2.5
8.40365219116211 2.0713183879852295 -2.5
8.209731101989746 2.7408154010772705 -2.5
7.315248966217041 4.625888347625732 -2.5
6.083544731140137 5.389550685882568 -2.347599983215332
5.630151271820068 5.86160135269165 -2.347599983215332
5.140224456787109 6.295624732971191 -2.347599983215332
2.8820605278015137 7.599370002746582 -2.347599983215332
2.261220693588257 7.806640625 -2.347599983215332
1.6257226467132568 7.963276386260986 -2.347599983215332
0.9796679615974426 8.068276405334473 -2.347599983215332
0.32725584506988525 8.120942115783691 -2.347599983215332
-0.32726073265075684 8.120942115783691 -2.347599983215332
-0.979663074016571 8.068276405334473 -2.347599983215332
-1.6257177591323853 7.963281154632568 -2.347599983215332
-2.261225461959839 7.80663537979126 -2.347599983215332
-2.8820605278015137 7.599374771118164 -2.347599983215332
-2.273198127746582 4.790673732757568 -1.5316433906555176
-4.063769340515137 7.038652420043945 -2.347599983215332
-5.140219688415527 6.295629978179932 -2.347599983215332
-5.630136489868164 5.861596584320068 -2.347599983215332
-6.083539962768555 5.389550685882568 -2.347599983215332
-6.900043964385986 5.185048580169678 -2.4930434226989746
-7.962558269500732 3.392529249191284 -2.5
-8.40365219116211 2.0713133811950684 -2.5
8.281733512878418 0.6685644388198853 -2.5
8.201088905334473 1.332802653312683 -2.5
7.356977462768555 3.8612401485443115 -2.5
6.623935222625732 4.977572917938232 -2.493084669113159
5.840024471282959 5.173803806304932 -2.347599983215332
5.404760837554932 5.626943111419678 -2.347599983215332
3.9010887145996094 6.756894588470459 -2.347599983215332
3.344731330871582 7.048881530761719 -2.347599983215332
2.1706981658935547 7.494130611419678 -2.347599983215332
0.9404491782188416 7.745287895202637 -2.347599983215332
0.31416502594947815 7.795849323272705 -2.347599983215332
-0.9404491782188416 7.745287895202637 -2.347599983215332
-1.560634732246399 7.644506454467773 -2.347599983215332
-2.170707941055298 7.494130611419678 -2.347599983215332
-2.273002862930298 4.790263652801514 -1.5953747034072876
-3.9010839462280273 6.756884574890137 -2.347599983215332
-4.432153224945068 6.421064376831055 -2.347599983215332
-7.022407054901123 4.44070291519165 -2.5
-7.356972694396973 3.8612353801727295 -2.5
7.98681116104126 -4.882812390860636e-06 -2.5
7.960917949676514 0.6426708698272705 -2.5
7.883388519287109 1.2811717987060547 -2.5
7.575786113739014 2.529165029525757 -2.5
7.347709655761719 3.130566358566284 -2.5
6.750375747680664 4.2686767578125 -2.5
6.372402191162109 4.788549900054932 -2.495067596435547
5.613783836364746 4.973378658294678 -2.347599983215332
5.195385456085205 5.40896463394165 -2.347599983215332
3.7499754428863525 6.495141506195068 -2.347599983215332
2.086611270904541 7.203823089599609 -2.347599983215332
0.9040136337280273 7.445243835449219 -2.347599983215332
-0.3019970655441284 7.493857383728027 -2.347599983215332
-1.5001806020736694 7.348363876342773 -2.347599983215332
-2.086616277694702 7.203823089599609 -2.347599983215332
-4.260454177856445 6.172324180603027 -2.347599983215332
-6.377109050750732 4.792084693908691 -2.4969100952148438
-6.750380516052246 4.268681526184082 -2.5
-7.575790882110596 2.529165029525757 -2.5
-7.754741191864014 1.9113622903823853 -2.5
-7.883388519287109 1.2811815738677979 -2.5
7.662040710449219 0.6185400485992432 -2.5
7.463598251342773 1.8396044969558716 -2.5
7.291371822357178 2.434213876724243 -2.5
7.071850299835205 3.0130271911621094 -2.5
6.806469440460205 3.5723094940185547 -2.5
6.137890338897705 4.612324237823486 -2.496990442276001
5.403022289276123 4.786660194396973 -2.347599983215332
5.000346660614014 5.205893516540527 -2.347599983215332
4.100507736206055 5.940600395202637 -2.347599983215332
3.0944676399230957 6.521435260772705 -2.347599983215332
2.5596678256988525 6.749291896820068 -2.347599983215332
2.0082714557647705 6.933369159698486 -2.347599983215332
0.8700683116912842 7.165732383728027 -2.347599983215332
0.2906445264816284 7.212509632110596 -2.347599983215332
-0.2906543016433716 7.212509632110596 -2.347599983215332
-2.5596678256988525 6.749291896820068 -2.347599983215332
-2.2230420112609863 4.684960842132568 -1.6865029335021973
-5.000336647033691 5.205898284912109 -2.347599983215332
-6.806479454040527 3.5723047256469727 -2.5
-7.587421894073486 1.2330760955810547 -2.5
7.406879901885986 0.0 -2.5
7.382865905761719 0.5959911942481995 -2.5
7.19164514541626 1.7725781202316284 -2.5
7.025693416595459 2.345522403717041 -2.5
6.814174652099609 2.903247117996216 -2.5
6.558461666107178 3.442143440246582 -2.5
5.918891429901123 4.447758674621582 -2.4989521503448486
5.348798751831055 4.738613128662109 -2.4119186401367188
4.81814432144165 5.016215801239014 -2.347599983215332
4.398881912231445 5.387651443481445 -2.347599983215332
3.9510936737060547 5.724145412445068 -2.347599983215332
3.477675676345825 6.023510456085205 -2.347599983215332
2.4664013385772705 6.503364086151123 -2.347599983215332
1.935097575187683 6.680737018585205 -2.347599983215332
1.3912500143051147 6.814785003662109 -2.347599983215332
0.8383740186691284 6.904633522033691 -2.347599983215332
0.2800634801387787 6.949711799621582 -2.347599983215332
-0.2800585925579071 6.949711799621582 -2.347599983215332
-0.8383740186691284 6.904638290405273 -2.347599983215332
-1.3912451267242432 6.814789772033691 -2.347599983215332
-2.218862295150757 4.676142692565918 -1.7469801902770996
-3.9510936737060547 5.724140644073486 -2.347599983215332
-4.81814432144165 5.016215801239014 -2.347599983215332
-5.921376705169678 4.449618816375732 -2.5
-6.260210037231445 3.9587254524230957 -2.5
-6.55846643447876 3.442143440246582 -2.5
-6.814169883728027 2.9032421112060547 -2.5
-7.025732040405273 2.345385789871216 -2.5
-7.191650390625 1.7725781202316284 -2.5
-7.382861137390137 0.5960009694099426 -2.5
7.121425628662109 0.5748974680900574 -2.5
7.052050590515137 1.1461620330810547 -2.5
6.776879787445068 2.2625536918640137 -2.5
6.038535118103027 3.81853985786438 -2.5
5.711689472198486 4.292060375213623 -2.5
5.326835632324219 4.719150066375732 -2.4901957511901855
4.647524356842041 4.838593482971191 -2.347599983215332
4.243105411529541 5.196869850158691 -2.347599983215332
3.8111815452575684 5.521435260772705 -2.347599983215332
3.3545312881469727 5.81020975112915 -2.347599983215332
1.8665722608566284 6.444164752960205 -2.347599983215332
0.8086816072463989 6.660136699676514 -2.347599983215332
0.2701464891433716 6.70360803604126 -2.347599983215332
-1.341982364654541 6.573466777801514 -2.347599983215332
-1.8665771484375 6.444164752960205 -2.347599983215332
-3.3545262813568115 5.81020975112915 -2.347599983215332
-3.8111865520477295 5.521440505981445 -2.347599983215332
-4.243114948272705 5.196860313415527 -2.347599983215332
-4.647524356842041 4.838588714599609 -2.347599983215332
-5.334760665893555 4.726181507110596 -2.493903636932373
-6.326220512390137 3.320253849029541 -2.5
-6.57287073135376 2.8004393577575684 -2.5
-6.776904106140137 2.262460947036743 -2.5
-7.052065372467041 1.1460741758346558 -2.5
6.697958946228027 1.6508886814117432 -2.5
6.543398380279541 2.184506893157959 -2.5
6.346396446228027 2.7039451599121094 -2.5
5.830468654632568 3.686967611312866 -2.5
5.514877796173096 4.144160270690918 -2.5
5.151825904846191 4.564120769500732 -2.494331121444702
4.487387657165527 4.671860218048096 -2.347599983215332
3.6798582077026367 5.331196308135986 -2.347599983215332
2.777031183242798 5.852450847625732 -2.347599983215332
1.8022656440734863 6.222118854522705 -2.347599983215332
1.2957372665405273 6.346967697143555 -2.347599983215332
0.7808251976966858 6.430649280548096 -2.347599983215332
-0.7808203101158142 6.430649280548096 -2.347599983215332
-1.8022656440734863 6.222124099731445 -2.347599983215332
-2.2970898151397705 6.056923866271973 -2.347599983215332
-4.096909046173096 5.017802715301514 -2.347599983215332
-4.490981578826904 4.675585746765137 -2.349465847015381
-5.154911994934082 4.566860198974609 -2.4958276748657227
-5.514887809753418 4.1441650390625 -2.5
-6.108246803283691 3.2058446407318115 -2.5
-6.346401214599609 2.7039451599121094 -2.5
-6.543398380279541 2.184506893157959 -2.5
-6.697963714599609 1.6508984565734863 -2.5
-6.809072017669678 1.1065820455551147 -2.5
-6.876039981842041 0.5550878643989563 -2.5
6.666845321655273 4.882812390860636e-06 -2.5
6.580517292022705 1.069433569908142 -2.5
6.473114967346191 1.5954785346984863 -2.5
6.133364200592041 2.6131834983825684 -2.5
5.903203010559082 3.0982372760772705 -2.5
5.329760551452637 4.005053520202637 -2.5
4.982670783996582 4.414252758026123 -2.4962236881256104
3.9593894481658936 4.849365234375 -2.347599983215332
3.55633282661438 5.152241230010986 -2.347599983215332
3.1302146911621094 5.421689510345459 -2.347599983215332
2.6837987899780273 5.655991077423096 -2.347599983215332
2.219985246658325 5.853603363037109 -2.347599983215332
0.7546093463897705 6.214775085449219 -2.347599983215332
-0.2520849406719208 6.255346775054932 -2.347599983215332
-0.7546142339706421 6.214780330657959 -2.347599983215332
-1.2522509098052979 6.13390588760376 -2.347599983215332
-1.741762638092041 6.013251781463623 -2.347599983215332
-2.219980478286743 5.853603363037109 -2.347599983215332
-2.207211971282959 4.651611328125 -1.9307177066802979
-4.470073223114014 4.65383768081665 -2.419767379760742
-4.985517501831055 4.416787147521973 -2.497654914855957
-5.9031982421875 3.0982322692871094 -2.5
-6.473110198974609 1.59548819065094 -2.5
-6.580507755279541 1.0694433450698853 -2.5
6.448559284210205 4.882812390860636e-06 -2.5
6.427656173706055 0.5188817977905273 -2.5
5.155263423919678 3.8739306926727295 -2.5
4.369140625 4.548754692077637 -2.4451892375946045
3.8297557830810547 4.690590858459473 -2.347599983215332
3.0277342796325684 5.244179725646973 -2.347599983215332
2.1472997665405273 5.661948204040527 -2.347599983215332
1.6847411394119263 5.816376686096191 -2.347599983215332
0.24382323026657104 6.050551414489746 -2.347599983215332
-0.729907214641571 6.011308670043945 -2.347599983215332
-1.2112499475479126 5.933081150054932 -2.347599983215332
-1.6847411394119263 5.816381931304932 -2.347599983215332
-3.8297412395477295 4.690585613250732 -2.347599983215332
-4.453481197357178 4.636557579040527 -2.4923906326293945
-5.155263423919678 3.8739209175109863 -2.5
-5.450258731842041 3.446537971496582 -2.5
-6.116703987121582 2.042045831680298 -2.5
-6.427651405334473 0.5188817977905273 -2.5
6.24242639541626 4.882812390860636e-06 -2.5
6.161581993103027 1.0013476610183716 -2.5
6.061025142669678 1.4939062595367432 -2.5
5.92117166519165 1.9767773151397705 -2.5
5.276034832000732 3.33636212348938 -2.5
4.990454196929932 3.7500829696655273 -2.5
4.672289848327637 4.139291763305664 -2.499877691268921
4.312304496765137 4.489580154418945 -2.4930763244628906
3.707329034805298 4.540639400482178 -2.347599983215332
3.3299314975738525 4.824233055114746 -2.347599983215332
2.9309422969818115 5.0765380859375 -2.347599983215332
2.0786523818969727 5.48095703125 -2.347599983215332
1.6308836936950684 5.630439281463623 -2.347599983215332
1.1725341081619263 5.743417739868164 -2.347599983215332
-0.23603515326976776 5.857128620147705 -2.347599983215332
-0.7065722346305847 5.819145202636719 -2.347599983215332
-1.6308836936950684 5.630439281463623 -2.347599983215332
-2.199467658996582 4.63528299331665 -2.05475115776062
-4.672524452209473 4.139487266540527 -2.5
-5.527392387390137 2.900991201400757 -2.5
-5.742900371551514 2.4468212127685547 -2.5
-6.06102991104126 1.4939062595367432 -2.5
-6.222182273864746 0.5023046731948853 -2.5
6.027763366699219 0.4866064488887787 -2.5
5.969067096710205 0.9700683355331421 -2.5
5.736162185668945 1.915004849433899 -2.5
5.563461780548096 2.370361328125 -2.5
5.354687213897705 2.81036114692688 -2.5
4.834536075592041 3.6329150199890137 -2.5
4.180839538574219 4.352705001831055 -2.4950296878814697
3.225883722305298 4.673495769500732 -2.347599983215332
2.839370012283325 4.917929649353027 -2.347599983215332
1.579921841621399 5.454526424407959 -2.347599983215332
0.684497058391571 5.637319087982178 -2.347599983215332
0.22866210341453552 5.674120903015137 -2.347599983215332
-0.22865721583366394 5.674120903015137 -2.347599983215332
-0.684497058391571 5.637314319610596 -2.347599983215332
-1.579921841621399 5.454521179199219 -2.347599983215332
-2.195566415786743 4.627060413360596 -2.117257833480835
-3.225893497467041 4.673495769500732 -2.347599983215332
-3.6862058639526367 4.51479959487915 -2.4095211029052734
-4.834540843963623 3.6329052448272705 -2.5
-5.111186504364014 3.23211407661438 -2.5
-5.736162185668945 1.915004849433899 -2.5
-5.969072341918945 0.9700585603713989 -2.5
-6.027768611907959 0.4866015613079071 -2.5
5.843510627746582 0.47172850370407104 -2.5
5.786601543426514 0.9404101371765137 -2.5
5.560810565948486 1.8564696311950684 -2.5
5.393403053283691 2.297914981842041 -2.5
4.954946041107178 3.1333203315734863 -2.5
4.686748027801514 3.521865129470825 -2.5
3.620170831680298 4.433901309967041 -2.4409632682800293
3.1272802352905273 4.530634880065918 -2.347599983215332
1.9521582126617432 5.147392272949219 -2.347599983215332
1.5316259860992432 5.287783145904541 -2.347599983215332
1.1011767387390137 5.393881797790527 -2.347599983215332
0.66357421875 5.464999675750732 -2.347599983215332
0.22166991233825684 5.500669002532959 -2.347599983215332
-0.6635644435882568 5.465004920959473 -2.347599983215332
-1.101171851158142 5.393877029418945 -2.347599983215332
-1.9521484375 5.147397518157959 -2.347599983215332
-2.1916356086730957 4.618789196014404 -2.1801156997680664
-2.752573251724243 4.767592430114746 -2.347599983215332
-3.127275228500366 4.5306396484375 -2.347599983215332
-3.674023389816284 4.499858379364014 -2.4772751331329346
-4.686748027801514 3.521865129470825 -2.5
-5.191010475158691 2.724443197250366 -2.5
-5.692162990570068 1.4029881954193115 -2.5
-5.786601543426514 0.9404247999191284 -2.5
5.687021255493164 4.882812390860636e-06 -2.5
5.6685791015625 0.4576123058795929 -2.5
5.521767616271973 1.360986351966858 -2.5
5.394345760345459 1.8008984327316284 -2.5
5.231943130493164 2.229120969772339 -2.5
5.035620212554932 2.642890453338623 -2.5
4.806616306304932 3.0395214557647705 -2.5
4.256801605224609 3.771191358566284 -2.5
3.5864109992980957 4.392553806304932 -2.492824077606201
3.0336620807647705 4.395014762878418 -2.347599983215332
1.893715739250183 4.993310451507568 -2.347599983215332
1.4857714176177979 5.129497051239014 -2.347599983215332
1.068212866783142 5.232421875 -2.347599983215332
0.6437060236930847 5.301401138305664 -2.347599983215332
-0.6437060236930847 5.301405906677246 -2.347599983215332
-2.670166015625 4.624873161315918 -2.347599983215332
-3.06341290473938 4.438086032867432 -2.3706109523773193
-4.256801605224609 3.771191358566284 -2.5
-4.806611061096191 3.0395164489746094 -2.5
-5.231943130493164 2.2291259765625 -2.5
-5.521772384643555 1.3609912395477295 -2.5
-5.668588638305664 0.45760253071784973 -2.5
5.520165920257568 -4.882812390860636e-06 -2.5
5.502265453338623 0.4441796839237213 -2.5
5.448676586151123 0.885498046875 -2.5
5.359750747680664 1.3210595846176147 -2.5
5.078437328338623 2.1637158393859863 -2.5
4.665590763092041 2.9503417015075684 -2.5
4.131899356842041 3.6605420112609863 -2.5
3.8239500522613525 3.981147289276123 -2.5
2.5918262004852295 4.489169597625732 -2.347599983215332
2.2221922874450684 4.683173656463623 -2.347599983215332
1.4421923160552979 4.978984355926514 -2.347599983215332
1.0368701219558716 5.07888650894165 -2.347599983215332
-0.6248144507408142 5.145859241485596 -2.347599983215332
-1.8381445407867432 4.846796989440918 -2.347599983215332
-2.183720588684082 4.602094650268555 -2.306957244873047
-2.5918211936950684 4.48916482925415 -2.347599983215332
-3.4852294921875 4.268632888793945 -2.495725154876709
-4.413056373596191 3.3161914348602295 -2.5
-4.665580749511719 2.9503369331359863 -2.5
-4.887861251831055 2.5653369426727295 -2.5
-5.359755516052246 1.3210595846176147 -2.5
-5.448681354522705 0.8854882717132568 -2.5
5.361274242401123 -4.882812390860636e-06 -2.5
4.932260513305664 2.1014404296875 -2.5
4.747168064117432 2.491508722305298 -2.5
4.286030292510986 3.2207422256469727 -2.5
3.7138867378234863 3.8665575981140137 -2.5
3.385917901992798 4.146992206573486 -2.496464729309082
2.1582274436950684 4.548373699188232 -2.347599983215332
1.400673747062683 4.835673809051514 -2.347599983215332
1.007021427154541 4.932704925537109 -2.347599983215332
0.20271971821784973 5.030365943908691 -2.347599983215332
-0.20270995795726776 5.030361175537109 -2.347599983215332
-1.7852343320846558 4.707284927368164 -2.347599983215332
-4.531289100646973 2.865419864654541 -2.5
-4.747177600860596 2.4914941787719727 -2.5
-4.9322509765625 2.101435422897339 -2.5
-5.085366249084473 1.6977343559265137 -2.5
-5.205483436584473 1.2830370664596558 -2.5
