ply
format ascii 1.0
element vertex 785
property float x
property float y
property float z
end_header
-6.2839531898498535 -16.569414138793945 4.7483320236206055
-6.2844367027282715 -16.570682525634766 4.538827896118164
-6.284914016723633 -16.57194709777832 4.33046293258667
-8.945456504821777 -15.493993759155273 4.161695957183838
-6.2853875160217285 -16.57320213317871 4.12319278717041
-8.944958686828613 -15.493124961853027 3.745676279067993
-6.286332130432129 -16.57569694519043 3.7117247581481934
-8.944710731506348 -15.492690086364746 3.539109945297241
-6.286804676055908 -16.57693862915039 3.5073633193969727
-8.944461822509766 -15.492265701293945 3.333461284637451
-6.287271022796631 -16.57817268371582 3.303947687149048
-8.944215774536133 -15.491835594177246 3.1286730766296387
-6.287741184234619 -16.57939910888672 3.1012675762176514
-6.288203716278076 -16.580625534057617 2.899341344833374
-8.943483352661133 -15.49056625366211 2.5189051628112793
-6.289126396179199 -16.58306121826172 2.49757719039917
-6.289586544036865 -16.584272384643555 2.2976300716400146
-8.94299602508545 -15.489726066589355 2.115692377090454
-8.94275951385498 -15.489301681518555 1.9149175882339478
-6.290961265563965 -16.5878849029541 1.7008053064346313
-8.942276000976562 -15.488466262817383 1.5147805213928223
-6.291411399841309 -16.589092254638672 1.5027254819869995
9.364462852478027 -24.69208526611328 2.236711263656616
-6.291868209838867 -16.59029197692871 1.304970622062683
-6.292322158813477 -16.591489791870117 1.107519507408142
9.340758323669434 -24.62956428527832 1.644065499305725
9.340757369995117 -24.62956428527832 1.3512194156646729
9.371878623962402 -24.71163558959961 1.062083125114441
-8.940292358398438 -15.4850435256958 0.5202707052230835
9.37187671661377 -24.71163558959961 0.7690911889076233
22.189273834228516 -16.67416000366211 0.8076134920120239
-6.294135093688965 -16.596263885498047 0.3196621537208557
9.371879577636719 -24.71163558959961 0.4759371876716614
9.371875762939453 -24.71163558959961 0.18310698866844177
-9.826310157775879 -7.383994102478027 -0.05107833817601204
-11.838078498840332 -6.213110446929932 -0.2037249654531479
-9.79099178314209 -7.357455730438232 -0.18662475049495697
-8.938305854797363 -15.481600761413574 -0.2724061608314514
9.371877670288086 -24.71163558959961 -0.402607262134552
-11.760534286499023 -6.172407150268555 -0.34963667392730713
-9.84817886352539 -6.227617263793945 -0.306731253862381
-8.9378080368042 -15.480741500854492 -0.4705640971660614
-6.2959442138671875 -16.60103988647461 -0.4673713445663452
-11.683947563171387 -6.132216453552246 -0.49373549222946167
-6.2963995933532715 -16.602231979370117 -0.6643965244293213
-11.629591941833496 -6.103681564331055 -0.6372528076171875
-8.936812400817871 -15.479018211364746 -0.867216944694519
-6.296853542327881 -16.60342788696289 -0.8615723848342896
9.371880531311035 -24.71163558959961 -1.2823231220245361
20.378908157348633 -12.886850357055664 -1.169880986213684
-14.095129013061523 -6.00537109375 -0.9136492609977722
-11.597028732299805 -6.086591720581055 -0.7810314893722534
-9.76579761505127 -6.175527095794678 -0.6890354752540588
-9.677898406982422 -7.272475242614746 -0.7219064235687256
-11.82391357421875 -10.475092887878418 -0.9420030117034912
-17.195297241210938 -21.060428619384766 -1.621346116065979
-8.93631362915039 -15.478154182434082 -1.0658046007156372
-6.297302722930908 -16.604623794555664 -1.059008002281189
9.371880531311035 -24.71163558959961 -1.5760551691055298
-9.749174118041992 -6.165009498596191 -0.8162311911582947
-9.664995193481445 -7.262773036956787 -0.8554873466491699
-15.265888214111328 -15.893465995788574 -1.5594149827957153
-8.935820579528809 -15.477294921875 -1.264633297920227
3.226264476776123 -15.80321216583252 -1.1413352489471436
8.072701454162598 -21.28597640991211 -1.6109222173690796
19.89617919921875 -20.71412467956543 -2.0324020385742188
17.11111068725586 -12.858163833618164 -1.514575481414795
-11.534131050109863 -6.0535888671875 -1.0669528245925903
-9.732007026672363 -6.154150485992432 -0.9431363940238953
-9.651915550231934 -7.252949237823486 -0.9889019727706909
-11.249646186828613 -9.966322898864746 -1.2310295104980469
-15.265897750854492 -15.893476486206055 -1.8050509691238403
-18.166250228881836 -22.249624252319336 -2.3527162075042725
-16.35451889038086 -23.69361686706543 -2.3581299781799316
-8.935319900512695 -15.47642993927002 -1.4637528657913208
-12.38924503326416 -26.10982894897461 -2.3671584129333496
-6.298216819763184 -16.607025146484375 -1.4547903537750244
-8.0623140335083 -27.83431053161621 -2.3735733032226562
-2.660818338394165 -13.033530235290527 -1.0895739793777466
-1.6427117586135864 -13.528969764709473 -1.1162748336791992
1.1689550876617432 -29.007259368896484 -2.377863645553589
3.49819278717041 -28.81024932861328 -2.377129554748535
8.06205940246582 -27.833452224731445 -2.373500108718872
14.424006462097168 -24.983110427856445 -2.3628900051116943
12.294713973999023 -17.811948776245117 -1.7727530002593994
13.650928497314453 -16.7193546295166 -1.7679373025894165
19.85439109802246 -20.670629501342773 -2.347599983215332
21.453311920166016 -19.005985260009766 -2.347599983215332
16.95630645751953 -12.741840362548828 -1.737286925315857
19.940616607666016 -12.609692573547363 -1.9324663877487183
-26.773056030273438 -2.1613523960113525 -2.5
-26.51232147216797 -4.308696269989014 -2.5
-26.079641342163086 -6.428090572357178 -2.5
-25.47783851623535 -8.50576114654541 -2.5
-14.20668888092041 -6.052905082702637 -1.437294840812683
-11.504189491271973 -6.037866115570068 -1.2092607021331787
-9.714864730834961 -6.143315315246582 -1.0698268413543701
-9.638849258422852 -7.243129730224609 -1.1221961975097656
-11.185844421386719 -9.909799575805664 -1.3909202814102173
-15.265925407409668 -15.893505096435547 -2.051133632659912
-15.952006340026855 -19.537675857543945 -2.347599983215332
-8.91369915008545 -15.438974380493164 -1.6592785120010376
-10.846833229064941 -22.8592529296875 -2.354990243911743
-7.056255340576172 -24.36099624633789 -2.3605916500091553
-1.5871514081954956 -13.07137680053711 -1.225549340248108
-1.0228710174560547 -25.382484436035156 -2.3643836975097656
3.061143636703491 -25.210765838623047 -2.363717794418335
3.22624135017395 -15.803110122680664 -1.501210331916809
10.847081184387207 -22.859760284423828 -2.3550426959991455
18.87950325012207 -16.725786209106445 -2.347599983215332
16.897024154663086 -12.69728946685791 -1.9672259092330933
19.927019119262695 -12.60109806060791 -2.1944196224212646
24.71079444885254 -10.528265953063965 -2.5
26.773056030273438 -2.1613523960113525 -2.5
-23.97759246826172 -4.882812390860636e-06 -2.5
-23.899810791015625 -1.9294042587280273 -2.5
-23.280818939208984 -5.738232135772705 -2.5
-11.50615406036377 -6.038891315460205 -1.354871153831482
-9.701825141906738 -6.135063171386719 -1.196829080581665
-11.142834663391113 -9.8717041015625 -1.5521459579467773
-15.265226364135742 -15.892772674560547 -2.2976162433624268
-14.240065574645996 -17.44093132019043 -2.347599983215332
-8.886796951293945 -15.392377853393555 -1.8531404733657837
-9.65238094329834 -20.34200096130371 -2.347599983215332
-3.740518093109131 -12.9137544631958 -1.4017863273620605
-2.639072895050049 -12.927016258239746 -1.375624179840088
-1.580493688583374 -13.016532897949219 -1.3671247959136963
-0.40753355622291565 -10.112875938415527 -1.055265188217163
2.720545530319214 -22.405677795410156 -2.3532660007476807
9.652388572692871 -20.34200096130371 -2.347599983215332
11.257948875427246 -19.499330520629883 -2.347599983215332
12.208589553833008 -17.687192916870117 -2.2407965660095215
13.042521476745605 -15.974204063415527 -2.1501731872558594
16.8533878326416 -14.930800437927246 -2.347599983215332
22.058874130249023 -9.398398399353027 -2.5
23.667062759399414 -3.8462791442871094 -2.5
-21.648889541625977 4.882812390860636e-06 -2.5
-21.57868766784668 -1.7420116662979126 -2.5
-21.368539810180664 -3.472734212875366 -2.5
-21.019804000854492 -5.18093729019165 -2.5
-20.534759521484375 -6.855512619018555 -2.5
-11.51797866821289 -6.045107364654541 -1.5021510124206543
-9.703813552856445 -6.136322975158691 -1.325844407081604
-12.857084274291992 -15.747089385986328 -2.347599983215332
-8.874853134155273 -15.37169361114502 -2.049705743789673
-8.71495532989502 -18.366405487060547 -2.347599983215332
-6.0599589347839355 -15.978803634643555 -1.9734636545181274
-3.6571476459503174 -12.625927925109863 -1.5179656744003296
-2.622620105743408 -12.846445083618164 -1.5140981674194336
-1.242872953414917 -10.2359619140625 -1.1907238960266113
0.4017486572265625 -9.969316482543945 -1.1521837711334229
2.4504148960113525 -20.180946350097656 -2.347599983215332
3.2263665199279785 -15.80373477935791 -1.8626515865325928
7.208825588226318 -19.00811004638672 -2.347599983215332
11.548293113708496 -16.730581283569336 -2.347599983215332
14.123735427856445 -14.704384803771973 -2.3544723987579346
16.19287872314453 -14.345648765563965 -2.498218536376953
20.53476333618164 -6.855512619018555 -2.5
21.019813537597656 -5.180927753448486 -2.5
-19.727983474731445 4.882812390860636e-06 -2.5
-19.664005279541016 -1.5874511003494263 -2.5
-19.472511291503906 -3.164599657058716 -2.5
-11.52987289428711 -6.051352500915527 -1.6501171588897705
-9.64278507232666 -7.246083736419678 -1.5285241603851318
-11.12265396118164 -9.853822708129883 -1.8830758333206177
-13.666059494018555 -14.22787094116211 -2.5
-12.014670372009277 -14.71532154083252 -2.4073898792266846
-3.6975834369659424 -12.76552677154541 -1.6841875314712524
-2.6041533946990967 -12.755961418151855 -1.6498229503631592
3.226431131362915 -15.804047584533691 -2.0440585613250732
7.9416823387146 -16.736753463745117 -2.347599983215332
9.262689590454102 -16.04342269897461 -2.347599983215332
10.523611068725586 -15.246068954467773 -2.347599983215332
14.766608238220215 -13.082075119018555 -2.5
17.468263626098633 -9.168061256408691 -2.5
18.14933967590332 -7.732709884643555 -2.5
18.712711334228516 -6.247211933135986 -2.5
19.15472412109375 -4.721225261688232 -2.5
-18.116056442260742 4.882812390860636e-06 -2.5
-18.057310104370117 -1.457739233970642 -2.5
-17.881454467773438 -2.9060301780700684 -2.5
-17.589628219604492 -4.335473537445068 -2.5
-14.126227378845215 -6.018622875213623 -2.1189684867858887
-9.707809448242188 -6.138852596282959 -1.5850433111190796
-9.644868850708008 -7.247651100158691 -1.6648882627487183
-12.549433708190918 -13.065346717834473 -2.5
-3.3570268154144287 -7.074790000915527 -1.0806498527526855
-2.774453639984131 -7.315634727478027 -1.0797135829925537
-0.393057256937027 -9.753623008728027 -1.3470834493637085
3.2265124320983887 -15.804452896118164 -2.2259902954101562
7.292783260345459 -15.36922836303711 -2.347599983215332
8.505841255187988 -14.732558250427246 -2.347599983215332
14.482747077941895 -10.883085250854492 -2.5
15.311511993408203 -9.682416915893555 -2.5
16.040971755981445 -8.418950080871582 -2.5
18.057313919067383 -1.4577441215515137 -2.5
-9.646628379821777 -7.248974323272705 -1.8016701936721802
-11.5988130569458 -12.075634956359863 -2.5
-10.589506149291992 -12.969804763793945 -2.5
-9.511543273925781 -13.779838562011719 -2.5
-8.358929634094238 -14.478099822998047 -2.496133804321289
-2.5738251209259033 -6.78662109375 -1.0837303400039673
-2.132111072540283 -7.360893249511719 -1.14422607421875
-2.0069963932037354 -9.830893516540527 -1.4981210231781006
-0.3904266357421875 -9.688349723815918 -1.4477354288101196
1.1860271692276 -9.767807006835938 -1.4691365957260132
4.374430179595947 -15.10228443145752 -2.347599983215332
5.584614276885986 -14.725370407104492 -2.351440906524658
9.511537551879883 -13.7798433303833 -2.5
10.589509010314941 -12.969799041748047 -2.5
11.598797798156738 -12.075654029846191 -2.5
13.38567066192627 -10.058691024780273 -2.5
14.151652336120605 -8.948974609375 -2.5
14.825861930847168 -7.781220436096191 -2.5
15.882064819335938 -5.302211761474609 -2.5
16.257211685180664 -4.007055759429932 -2.5
16.52692985534668 -2.6858983039855957 -2.5
-15.56108570098877 0.0 -2.5
-15.510626792907715 -1.2521532773971558 -2.5
-15.108908653259277 -3.7240283489227295 -2.5
-14.31588363647461 -6.099433422088623 -2.5
-9.711507797241211 -6.141191482543945 -1.8460030555725098
-9.648398399353027 -7.250307559967041 -1.938956618309021
-11.647636413574219 -10.318921089172363 -2.5
-9.841530799865723 -12.05370044708252 -2.5
-8.839705467224121 -12.806528091430664 -2.5
-2.4698967933654785 -6.512582778930664 -1.1190097332000732
-2.07643723487854 -7.168691158294678 -1.1990406513214111
-0.38800352811813354 -9.6282320022583 -1.5480999946594238
1.1764397621154785 -9.688838005065918 -1.568013310432434
4.259372234344482 -14.705062866210938 -2.459581136703491
5.507717132568359 -14.52267074584961 -2.495326280593872
6.670920372009277 -14.058676719665527 -2.5
9.841538429260254 -12.05370044708252 -2.5
10.779541015625 -11.222704887390137 -2.5
13.152077674865723 -8.316879272460938 -2.5
14.315885543823242 -6.099423885345459 -2.5
14.760260581970215 -4.927700042724609 -2.5
15.108909606933594 -3.7240233421325684 -2.5
-14.531051635742188 0.0 -2.5
-14.483930587768555 -1.1692724227905273 -2.5
-14.342878341674805 -2.3309569358825684 -2.5
-12.86661148071289 -6.752914905548096 -2.5
-9.7111234664917 -6.140952110290527 -1.9767789840698242
-9.650172233581543 -7.251640319824219 -2.076781988143921
-9.190093040466309 -11.255829811096191 -2.5
-3.718994617462158 -6.441489219665527 -1.2796704769134521
-2.4519011974334717 -6.465131759643555 -1.189599633216858
-2.026190757751465 -6.995219707489014 -1.2529629468917847
-1.9635796546936035 -9.618227005004883 -1.6889022588729858
-1.1668328046798706 -9.609716415405273 -1.6654495000839233
-0.387533575296402 -9.616581916809082 -1.6558300256729126
0.38747984170913696 -9.61520004272461 -1.655591368675232
2.9065868854522705 -14.237397193908691 -2.5
4.042794704437256 -13.957343101501465 -2.5
6.22935152053833 -13.12808609008789 -2.5
8.254584312438965 -11.958823204040527 -2.5
10.066009521484375 -10.479833602905273 -2.5
12.281499862670898 -7.766357421875 -2.5
12.86661148071289 -6.752914905548096 -2.5
-13.449220657348633 -2.185722589492798 -2.5
-13.22973346710205 -3.260854482650757 -2.5
-12.924448013305664 -4.3148193359375 -2.5
-12.53533935546875 -5.340810298919678 -2.5
-11.516279220581055 -7.282460689544678 -2.5
-10.8929443359375 -8.185517311096191 -2.5
-10.198955535888672 -9.035497665405273 -2.5
-8.617490768432617 -10.554516792297363 -2.5
-3.7024176120758057 -6.412778377532959 -1.3586184978485107
-3.0530059337615967 -6.434091567993164 -1.3066651821136475
-2.440397262573242 -6.434799671173096 -1.2626928091049194
-1.9780510663986206 -6.829013347625732 -1.3044707775115967
-1.9605132341384888 -9.603222846984863 -1.7983150482177734
-1.1651183366775513 -9.595620155334473 -1.7735073566436768
3.7909018993377686 -13.0877046585083 -2.5
4.831727027893066 -12.74022388458252 -2.5
8.61749267578125 -10.554516792297363 -2.5
10.19896125793457 -9.03548812866211 -2.5
11.516280174255371 -7.28246545791626 -2.5
12.064936637878418 -6.332172870635986 -2.5
13.229732513427734 -3.2608494758605957 -2.5
13.449224472045898 -2.185722589492798 -2.5
-12.823447227478027 4.882812390860636e-06 -2.5
-12.781865119934082 -1.0318652391433716 -2.5
-11.354598999023438 -5.959355354309082 -2.5
-10.838249206542969 -6.853701114654541 -2.5
-8.883116722106934 -9.248305320739746 -2.5
-8.110126495361328 -9.933115005493164 -2.5
-4.430752277374268 -6.419052600860596 -1.5205990076065063
-1.9343866109848022 -6.678271293640137 -1.3554809093475342
-1.9653033018112183 -9.62667465209961 -1.9154821634292603
-0.38639646768569946 -9.58840274810791 -1.8708277940750122
0.38625243306159973 -9.5847749710083 -1.8701199293136597
1.1686419248580933 -9.624624252319336 -1.8901532888412476
2.5650219917297363 -12.564291954040527 -2.5
3.567708730697632 -12.317152976989746 -2.5
8.883109092712402 -9.248310089111328 -2.5
10.25161361694336 -7.703593730926514 -2.5
10.838249206542969 -6.853701114654541 -2.5
11.797310829162598 -5.026362419128418 -2.5
12.450822830200195 -3.068862199783325 -2.5
12.657387733459473 -2.0570311546325684 -2.5
12.781866073608398 -1.0318603515625 -2.5
-12.068249702453613 -0.97425776720047 -2.5
-11.950722694396973 -1.9421874284744263 -2.5
-10.72066593170166 -5.626650333404541 -2.5
-10.233144760131836 -6.471054553985596 -2.5
-9.679259300231934 -7.273500919342041 -2.5
-9.062599182128906 -8.02877426147461 -2.5
-8.38716983795166 -8.731963157653809 -2.5
-7.657336711883545 -9.378544807434082 -2.5
-4.3203325271606445 -6.259081840515137 -1.570378065109253
-3.0237274169921875 -6.372377872467041 -1.4564048051834106
-1.9005792140960693 -6.561557292938232 -1.4105422496795654
-1.9596209526062012 -9.598852157592773 -2.0228841304779053
0.3897015154361725 -9.670361518859863 -1.9983880519866943
1.1673961877822876 -9.614370346069336 -1.999787449836731
2.4218199253082275 -11.862821578979492 -2.5
5.1903977394104 -10.938539505004883 -2.5
6.053759574890137 -10.485414505004883 -2.5
6.877854347229004 -9.964286804199219 -2.5
7.657339096069336 -9.378544807434082 -2.5
8.387165069580078 -8.73196792602539 -2.5
9.062601089477539 -8.028764724731445 -2.5
9.6792631149292 -7.273496150970459 -2.5
10.233146667480469 -6.471059322357178 -2.5
11.484416007995605 -3.834062337875366 -2.5
11.950724601745605 -1.9421874284744263 -2.5
-11.464516639709473 0.0 -2.5
-11.427338600158691 -0.9225146174430847 -2.5
-11.316052436828613 -1.839052677154541 -2.5
-10.87450885772705 -3.630449056625366 -2.5
-10.547111511230469 -4.493705749511719 -2.5
-10.15131950378418 -5.327831745147705 -2.5
-9.689692497253418 -6.127397537231445 -2.5
-8.581304550170898 -7.602382659912109 -2.5
-5.1358442306518555 -6.290268421173096 -1.7708147764205933
-3.001262664794922 -6.325038909912109 -1.526662826538086
-2.4063408374786377 -6.34499979019165 -1.4797784090042114
-1.867787480354309 -6.448344707489014 -1.4639523029327393
-1.9597551822662354 -9.599515914916992 -2.1364870071411133
-1.1657769680023193 -9.60103988647461 -2.1090197563171387
-0.38641783595085144 -9.588906288146973 -2.09269380569458
1.1680577993392944 -9.619790077209473 -2.11313796043396
2.2932000160217285 -11.23282241821289 -2.5
5.732260704040527 -9.928559303283691 -2.5
9.689695358276367 -6.127397537231445 -2.5
10.151320457458496 -5.327817440032959 -2.5
10.874504089355469 -3.630444288253784 -2.5
11.427342414855957 -0.9225195050239563 -2.5
-10.883708000183105 0.0 -2.5
-10.848405838012695 -0.8757714629173279 -2.5
-10.323586463928223 -3.446523427963257 -2.5
-8.700892448425293 -6.538305282592773 -2.5
-8.146560668945312 -7.217236042022705 -2.5
-7.539407253265381 -7.849350452423096 -2.5
-4.257732391357422 -6.168383598327637 -1.7216451168060303
-2.9652202129364014 -6.249082088470459 -1.5888214111328125
-2.3876848220825195 -6.295810222625732 -1.5466625690460205
-1.9597405195236206 -9.599432945251465 -2.2504820823669434
-1.165126919746399 -9.595683097839355 -2.2203292846679688
-0.3863891661167145 -9.588217735290527 -2.204214334487915
0.3868090808391571 -9.598593711853027 -2.2065978050231934
2.1770238876342773 -10.663749694824219 -2.5
3.02803635597229 -10.453989028930664 -2.5
3.8594131469726562 -10.176440238952637 -2.5
4.665760517120361 -9.832890510559082 -2.5
8.146566390991211 -7.217231273651123 -2.5
8.700898170471191 -6.538295745849609 -2.5
9.637039184570312 -5.057905197143555 -2.5
10.742758750915527 -1.7458691596984863 -2.5
10.848410606384277 -0.8757763504981995 -2.5
-10.356354713439941 0.0 -2.5
-10.322772979736328 -0.8333398103713989 -2.5
-9.823372840881348 -3.279531240463257 -2.5
-9.527633666992188 -4.059345722198486 -2.5
-7.751838684082031 -6.867543697357178 -2.5
-7.174101829528809 -7.469033241271973 -2.5
-3.559495210647583 -6.165224552154541 -1.7185059785842896
-2.362607955932617 -6.229682445526123 -1.6083464622497559
-1.9595708847045898 -9.598603248596191 -2.364873170852661
-1.2483196258544922 -10.280844688415527 -2.5
0.38679197430610657 -9.59816837310791 -2.3188555240631104
1.2483184337615967 -10.280844688415527 -2.5
2.0715410709381104 -10.14706039428711 -2.5
5.178178787231445 -8.968867301940918 -2.5
6.549827575683594 -8.022079467773438 -2.5
8.279312133789062 -6.221503734588623 -2.5
8.75308609008789 -5.535121917724609 -2.5
9.170098304748535 -4.812841892242432 -2.5
9.823381423950195 -3.2795262336730957 -2.5
-9.875299453735352 4.882812390860636e-06 -2.5
-9.843277931213379 -0.7946337461471558 -2.5
-9.747417449951172 -1.5841211080551147 -2.5
-9.588339805603027 -2.363330125808716 -2.5
-9.367081642150879 -3.127202033996582 -2.5
-8.346503257751465 -5.278022289276123 -2.5
-7.89473819732666 -5.932509422302246 -2.5
-5.034393787384033 -6.166020393371582 -2.015181064605713
-3.548966646194458 -6.146992206573486 -1.7968900203704834
-1.815842866897583 -6.269013404846191 -1.652277946472168
-1.1903356313705444 -9.803296089172363 -2.5
-0.3976403772830963 -9.867300033569336 -2.5
0.3976391553878784 -9.867294311523438 -2.5
1.1903356313705444 -9.803300857543945 -2.5
1.9753142595291138 -9.675726890563965 -2.5
2.7474822998046875 -9.485404968261719 -2.5
4.23346471786499 -8.921850204467773 -2.5
4.937651634216309 -8.55226993560791 -2.5
5.609813213348389 -8.127216339111328 -2.5
6.840858459472656 -7.1220703125 -2.5
7.3917694091796875 -6.548540115356445 -2.5
7.894738674163818 -5.932509422302246 -2.5
8.346505165100098 -5.278012752532959 -2.5
9.085077285766602 -3.87078595161438 -2.5
9.367082595825195 -3.127197265625 -2.5
9.747418403625488 -1.5841113328933716 -2.5
9.843280792236328 -0.7946386337280273 -2.5
-9.40400505065918 -0.7591796517372131 -2.5
-9.312423706054688 -1.5134228467941284 -2.5
-9.160446166992188 -2.257861375808716 -2.5
-8.949060440063477 -2.9876365661621094 -2.5
-8.353919982910156 -4.384487152099609 -2.5
-6.535580158233643 -6.804252624511719 -2.5
-5.033768653869629 -6.165248870849609 -2.1090505123138428
-3.5415191650390625 -6.134091854095459 -1.8768786191940308
-2.9160430431365967 -6.145444393157959 -1.8024569749832153
-2.3371574878692627 -6.162578105926514 -1.7464632987976074
-1.8871636390686035 -9.24393081665039 -2.5
-0.37989377975463867 -9.426958084106445 -2.5
0.3798944056034088 -9.426947593688965 -2.5
1.1372162103652954 -9.365815162658691 -2.5
2.624872922897339 -9.062104225158691 -2.5
3.345553398132324 -8.821503639221191 -2.5
4.044539928436279 -8.523695945739746 -2.5
4.717303276062012 -8.170599937438965 -2.5
5.966868877410889 -7.308085918426514 -2.5
6.535573959350586 -6.804262638092041 -2.5
7.542422771453857 -5.667763710021973 -2.5
8.67963981628418 -3.6980466842651367 -2.5
8.949061393737793 -2.9876415729522705 -2.5
9.160446166992188 -2.2578516006469727 -2.5
9.404007911682129 -0.7591747641563416 -2.5
-9.02928352355957 0.0 -2.5
-8.99999713897705 -0.7265576124191284 -2.5
-8.766898155212402 -2.1608543395996094 -2.5
-8.306748390197754 -3.5391697883605957 -2.5
-7.995026111602783 -4.196123123168945 -2.5
-7.218391418457031 -5.424272537231445 -2.5
-6.7585062980651855 -5.987524509429932 -2.5
-6.254800319671631 -6.511938095092773 -2.5
-5.0324554443359375 -6.163642406463623 -2.203150510787964
-1.8060882091522217 -8.8468017578125 -2.5
-0.36357176303863525 -9.021947860717773 -2.5
1.088362455368042 -8.963441848754883 -2.5
2.512103796005249 -8.672782897949219 -2.5
3.2018260955810547 -8.442519187927246 -2.5
5.129216194152832 -7.430952072143555 -2.5
6.758510112762451 -5.987514495849609 -2.5
7.631452560424805 -4.825844764709473 -2.5
7.995028495788574 -4.196117877960205 -2.5
8.564598083496094 -2.8592870235443115 -2.5
8.912349700927734 -1.4483983516693115 -2.5
-8.209729194641113 -2.7408103942871094 -2.5
-7.663755416870117 -4.022250652313232 -2.5
-6.9192986488342285 -5.199521541595459 -2.5
-6.4784746170043945 -5.739433288574219 -2.5
-5.038354873657227 -6.170868873596191 -2.3010780811309814
-4.230653762817383 -6.129155158996582 -2.151170492172241
-3.5386931896209717 -6.129199028015137 -2.0442700386047363
-0.3485058546066284 -8.648134231567383 -2.5
1.7312554121017456 -8.480229377746582 -2.5
2.408017635345459 -8.313427925109863 -2.5
3.0691583156585693 -8.092704772949219 -2.5
4.327579021453857 -7.495585918426514 -2.5
4.916689395904541 -7.123056411743164 -2.5
5.995632648468018 -6.242124080657959 -2.5
6.919300556182861 -5.199521541595459 -2.5
7.962564468383789 -3.392534017562866 -2.5
8.209728240966797 -2.7408201694488525 -2.5
8.543070793151855 -1.3883886337280273 -2.5
-8.30867862701416 0.0 -2.5
-8.281732559204102 -0.6685742139816284 -2.5
-7.356966972351074 -3.8612401485443115 -2.5
-6.642312526702881 -4.991376876831055 -2.5
-6.2191290855407715 -5.509682655334473 -2.5
-5.755624294281006 -5.992240905761719 -2.5
-5.254782199859619 -6.435946941375732 -2.5
-3.5384294986724854 -6.128740310668945 -2.12935733795166
-2.908400297164917 -6.129335880279541 -2.041348457336426
-2.321732759475708 -6.121909141540527 -1.970043420791626
-1.0015002489089966 -8.2481050491333 -2.5
0.3345586955547333 -8.3019380569458 -2.5
2.311619758605957 -7.980634689331055 -2.5
4.71986722946167 -6.837904930114746 -2.5
5.254783630371094 -6.435946941375732 -2.5
6.219131946563721 -5.509667873382568 -2.5
6.642310619354248 -4.991372108459473 -2.5
7.881082057952881 -2.6310887336730957 -2.5
8.067240715026855 -1.9883984327316284 -2.5
8.281732559204102 -0.6685839891433716 -2.5
-7.754728317260742 -1.9113818407058716 -2.5
-7.3476996421813965 -3.130566358566284 -2.5
-7.071971893310547 -3.711660146713257 -2.5
-6.750372886657715 -4.268686294555664 -2.5
-6.3849992752075195 -4.798017501831055 -2.5
-5.978212356567383 -5.296240329742432 -2.5
-5.532662868499756 -5.760107517242432 -2.5
-5.051219940185547 -6.186630725860596 -2.5
-3.53842830657959 -6.128740310668945 -2.2151684761047363
-2.3217339515686035 -6.121909141540527 -2.0494344234466553
-1.787363886833191 -6.170688152313232 -2.0109193325042725
-0.9627050757408142 -7.928578853607178 -2.5
0.9627050757408142 -7.928574085235596 -2.5
1.5975719690322876 -7.825409889221191 -2.5
3.4238853454589844 -7.215688228607178 -2.5
3.9934072494506836 -6.91677713394165 -2.5
5.0512237548828125 -6.186621189117432 -2.5
5.532657146453857 -5.760112285614014 -2.5
5.978215217590332 -5.296240329742432 -2.5
6.384999752044678 -4.798017501831055 -2.5
6.750373840332031 -4.2686767578125 -2.5
7.347704887390137 -3.130566358566284 -2.5
7.575782775878906 -2.529169797897339 -2.5
7.7547287940979 -1.911376953125 -2.5
7.883383750915527 -1.2811766862869263 -2.5
-7.6869659423828125 -4.882812390860636e-06 -2.5
-7.5874199867248535 -1.2330809831619263 -2.5
-7.463590621948242 -1.8396239280700684 -2.5
-7.2913641929626465 -2.434218645095825 -2.5
-6.8064703941345215 -3.5723142623901367 -2.5
-6.496944904327393 -4.108422756195068 -2.5
-6.145289897918701 -4.617885589599609 -2.5
-5.7537736892700195 -5.097407341003418 -2.5
-4.861583709716797 -5.954370021820068 -2.5
-4.366694927215576 -6.326254844665527 -2.5
-2.321732759475708 -6.121909141540527 -2.1293773651123047
-1.773234248161316 -6.121904373168945 -2.072842597961426
-1.5375921726226807 -7.53161096572876 -2.5
-0.9265618920326233 -7.630918025970459 -2.5
-0.3095208704471588 -7.680727481842041 -2.5
0.30952268838882446 -7.680727481842041 -2.5
0.9265636801719666 -7.630922794342041 -2.5
3.295342445373535 -6.944794654846191 -2.5
3.8434832096099854 -6.657109260559082 -2.5
4.366694450378418 -6.326250076293945 -2.5
4.8615827560424805 -5.954365253448486 -2.5
5.753775596618652 -5.097402095794678 -2.5
6.14528751373291 -4.617885589599609 -2.5
6.806468486785889 -3.5723142623901367 -2.5
7.071849346160889 -3.0130369663238525 -2.5
7.291364669799805 -2.434213876724243 -2.5
7.463593006134033 -1.8396142721176147 -2.5
-7.4068756103515625 -4.882812390860636e-06 -2.5
-7.382854461669922 -0.5960058569908142 -2.5
-7.1916399002075195 -1.7725878953933716 -2.5
-7.025686264038086 -2.345527410507202 -2.5
-6.81417179107666 -2.9032421112060547 -2.5
-6.558459758758545 -3.442148447036743 -2.5
-6.2602128982543945 -3.9587206840515137 -2.5
-3.7034356594085693 -6.41454553604126 -2.5
-1.773234248161316 -6.121904373168945 -2.15122652053833
-1.4815654754638672 -7.257187366485596 -2.5
2.0607237815856934 -7.114438533782959 -2.5
2.626511812210083 -6.925546646118164 -2.5
3.1752703189849854 -6.691752910614014 -2.5
4.207584857940674 -6.09573221206665 -2.5
4.684441566467285 -5.737402439117432 -2.5
5.130918979644775 -5.341865062713623 -2.5
5.921370506286621 -4.449628829956055 -2.5
6.2602152824401855 -3.9587206840515137 -2.5
6.558462142944336 -3.442148447036743 -2.5
7.025690078735352 -2.345517635345459 -2.5
-7.144587993621826 -4.882812390860636e-06 -2.5
-7.121419906616211 -0.574902355670929 -2.5
-6.936976909637451 -1.7098242044448853 -2.5
-6.7769012451171875 -2.2624707221984863 -2.5
-6.572872638702393 -2.8004443645477295 -2.5
-6.038534641265869 -3.81853985786438 -2.5
-4.949230194091797 -5.152699947357178 -2.5
-4.51855993270874 -5.534228324890137 -2.5
-4.058590412139893 -5.8798828125 -2.5
-3.572296619415283 -6.187402248382568 -2.5
-3.0628302097320557 -6.454784870147705 -2.5
-2.3217339515686035 -6.121909141540527 -2.2910284996032715
-1.7732329368591309 -6.121904373168945 -2.230201005935669
-0.8611834645271301 -7.092499732971191 -2.5
1.429103970527649 -7.000195026397705 -2.5
4.058590412139893 -5.87987756729126 -2.5
5.347801208496094 -4.737739086151123 -2.5
5.711689472198486 -4.292055606842041 -2.5
6.32621955871582 -3.320253849029541 -2.5
6.776901721954346 -2.262460947036743 -2.5
6.9369797706604 -1.709814429283142 -2.5
7.121421813964844 -0.574902355670929 -2.5
-6.89841365814209 -4.882812390860636e-06 -2.5
-6.876040458679199 -0.5550927519798279 -2.5
-6.809078693389893 -1.1065869331359863 -2.5
-6.543389320373535 -2.184501886367798 -2.5
-6.346395969390869 -2.7039549350738525 -2.5
-6.108236789703369 -3.2058544158935547 -2.5
-5.83046817779541 -3.686967611312866 -2.5
-3.918748140335083 -5.677285194396973 -2.5
-3.449204683303833 -5.974208831787109 -2.5
-2.9572930335998535 -6.232378005981445 -2.5
-1.8453582525253296 -6.370893478393555 -2.4037365913391113
-1.379860758781433 -6.758998870849609 -2.5
1.919258952140808 -6.626049518585205 -2.5
3.918745279312134 -5.677279949188232 -2.5
5.514884948730469 -4.1441650390625 -2.5
6.346397399902344 -2.7039451599121094 -2.5
6.543394088745117 -2.184506893157959 -2.5
6.697954177856445 -1.6509032249450684 -2.5
-6.666841506958008 0.0 -2.5
-6.6452226638793945 -0.5364599227905273 -2.5
-6.580508232116699 -1.0694433450698853 -2.5
-6.473112106323242 -1.59548819065094 -2.5
-6.323741912841797 -2.1111717224121094 -2.5
-6.133356094360352 -2.6131834983825684 -2.5
-5.903194904327393 -3.0982420444488525 -2.5
-5.634742736816406 -3.563232421875 -2.5
-5.329758644104004 -4.005053520202637 -2.5
-4.990199565887451 -4.420937538146973 -2.5
-2.3217315673828125 -6.121909141540527 -2.45520281791687
-1.8548345565795898 -6.403627872467041 -2.5
-1.3335418701171875 -6.5321044921875 -2.5
-0.8035998344421387 -6.618232250213623 -2.5
-0.2684454321861267 -6.661430358886719 -2.5
0.2684478759765625 -6.661425590515137 -2.5
1.3335412740707397 -6.5321044921875 -2.5
1.8548320531845093 -6.403623104095459 -2.5
2.364093542098999 -6.233603477478027 -2.5
3.3334202766418457 -5.773652076721191 -2.5
4.9902024269104 -4.420932292938232 -2.5
5.329758167266846 -4.005058288574219 -2.5
5.6347479820251465 -3.5632078647613525 -2.5
5.90319299697876 -3.0982420444488525 -2.5
6.32374382019043 -2.1111717224121094 -2.5
6.473114967346191 -1.595483422279358 -2.5
6.580506324768066 -1.0695507526397705 -2.5
-6.427652835845947 -0.5189013481140137 -2.5
-6.365055561065674 -1.0344336032867432 -2.5
-6.261176109313965 -1.543251872062683 -2.5
-6.116695880889893 -2.042055606842041 -2.5
-5.70991849899292 -2.9968016147613525 -2.5
-4.826814651489258 -4.276191234588623 -2.5
-4.078363418579102 -4.995087623596191 -2.5
-3.6631743907928467 -5.307065486907959 -2.5
-2.7644476890563965 -5.825961589813232 -2.5
-2.286693572998047 -6.029511451721191 -2.5
-1.2898790836334229 -6.318246841430664 -2.5
-0.7772887945175171 -6.401547908782959 -2.5
0.7772900462150574 -6.401547908782959 -2.5
1.289880394935608 -6.318242073059082 -2.5
2.76444935798645 -5.825961589813232 -2.5
3.2242822647094727 -5.584619045257568 -2.5
4.82681941986084 -4.276191234588623 -2.5
5.155257225036621 -3.8739306926727295 -2.5
5.7099199295043945 -2.9967968463897705 -2.5
5.932546138763428 -2.5276269912719727 -2.5
6.427653789520264 -0.5188915729522705 -2.5
-6.222177982330322 -0.5023095607757568 -2.5
-5.742897033691406 -2.4468212127685547 -2.5
-5.527388095855713 -2.9010009765625 -2.5
-5.276030540466309 -3.33636212348938 -2.5
-4.990455627441406 -3.7500877380371094 -2.5
-4.672516345977783 -4.139496803283691 -2.5
-4.324275493621826 -4.502050876617432 -2.5
-3.546090602874756 -5.137412071228027 -2.5
-3.121209144592285 -5.406103610992432 -2.5
-0.7524401545524597 -6.196908950805664 -2.5
-0.25135496258735657 -6.237358093261719 -2.5
0.2513568103313446 -6.237353324890137 -2.5
4.32427453994751 -4.502050876617432 -2.5
4.672518253326416 -4.139487266540527 -2.5
4.9904584884643555 -3.7500877380371094 -2.5
5.276031494140625 -3.33636212348938 -2.5
5.742900371551514 -2.4468164443969727 -2.5
-5.871649742126465 -1.447241187095642 -2.5
-5.3546857833862305 -2.81036114692688 -2.5
-4.834530353546143 -3.6329197883605957 -2.5
-2.592461585998535 -5.463510513305664 -2.5
-2.1444268226623535 -5.654389381408691 -2.5
-1.6824859380722046 -5.808613300323486 -2.5
0.7289336919784546 -6.003281116485596 -2.5
2.1444268226623535 -5.654394626617432 -2.5
3.0236828327178955 -5.2371826171875 -2.5
3.435300827026367 -4.976889610290527 -2.5
4.189162731170654 -4.361381530761719 -2.5
5.111181735992432 -3.232119083404541 -2.5
5.563460350036621 -2.370366096496582 -2.5
5.969061851501465 -0.9700683355331421 -2.5
-5.843510150909424 -0.471748024225235 -2.5
-5.786599636077881 -0.9404199123382568 -2.5
-5.69216251373291 -1.4029979705810547 -2.5
-5.393393039703369 -2.297910213470459 -2.5
-5.191000461578369 -2.7244482040405273 -2.5
-4.954939365386963 -3.1333203315734863 -2.5
-4.686746120452881 -3.521865129470825 -2.5
-4.388155937194824 -3.887578010559082 -2.5
-4.0611114501953125 -4.228066444396973 -2.5
-3.7077202796936035 -4.541142463684082 -2.5
-2.931257963180542 -5.077094554901123 -2.5
-1.1726561784744263 -5.744042873382568 -2.5
-0.7066497802734375 -5.819775104522705 -2.5
0.23605956137180328 -5.857763767242432 -2.5
0.706649124622345 -5.819775104522705 -2.5
1.6310564279556274 -5.631049633026123 -2.5
2.078875780105591 -5.481552600860596 -2.5
2.931262731552124 -5.077089786529541 -2.5
3.3302905559539795 -4.824760437011719 -2.5
3.7077229022979736 -4.541132926940918 -2.5
4.0611066818237305 -4.228066444396973 -2.5
4.388157367706299 -3.887568235397339 -2.5
4.686749458312988 -3.521865129470825 -2.5
4.954941749572754 -3.133315324783325 -2.5
5.19100284576416 -2.7244482040405273 -2.5
5.393397331237793 -2.297914981842041 -2.5
5.560812473297119 -1.8564696311950684 -2.5
5.692162990570068 -1.4029979705810547 -2.5
5.786600112915039 -0.9404150247573853 -2.5
5.843508243560791 -0.4717382788658142 -2.5
-5.687023162841797 -4.882812390860636e-06 -2.5
-5.668581008911133 -0.45762693881988525 -2.5
-5.03560733795166 -2.642895460128784 -2.5
-4.806614398956299 -3.0395262241363525 -2.5
-4.546445846557617 -3.41644024848938 -2.5
-4.256796360015869 -3.771196126937866 -2.5
-3.939540386199951 -4.101493835449219 -2.5
-3.5967302322387695 -4.405204772949219 -2.5
-3.230597496032715 -4.68032693862915 -2.5
-2.437981605529785 -5.137948989868164 -2.5
-1.1375519037246704 -5.572084903717041 -2.5
1.137553095817566 -5.572099685668945 -2.5
1.5822302103042603 -5.462485313415527 -2.5
2.4379796981811523 -5.137944221496582 -2.5
2.8435113430023193 -4.925112247467041 -2.5
3.2305986881256104 -4.680331707000732 -2.5
4.806614875793457 -3.0395214557647705 -2.5
5.521767616271973 -1.361000895500183 -2.5
5.668581962585449 -0.45762205123901367 -2.5
-5.448673725128174 -0.8855029344558716 -2.5
-5.359748840332031 -1.3210595846176147 -2.5
-5.2360687255859375 -1.7480615377426147 -2.5
-5.078428268432617 -2.1637256145477295 -2.5
-4.887855529785156 -2.5653514862060547 -2.5
-4.4130473136901855 -3.3161962032318115 -2.5
-3.4911980628967285 -4.275947093963623 -2.5
-3.135807514190674 -4.543002605438232 -2.5
-2.7600786685943604 -4.780605316162109 -2.5
-2.366445779800415 -4.987192153930664 -2.5
-1.957474946975708 -5.161435604095459 -2.5
-1.5358049869537354 -5.302211761474609 -2.5
-1.1041747331619263 -5.40859842300415 -2.5
0.6653826832771301 -5.479907035827637 -2.5
1.1041754484176636 -5.40859842300415 -2.5
2.760079860687256 -4.780600547790527 -2.5
3.491197347640991 -4.275937557220459 -2.5
3.8239474296569824 -3.981157064437866 -2.5
4.413049221038818 -3.3161914348602295 -2.5
4.6655802726745605 -2.9503369331359863 -2.5
5.359750747680664 -1.3210595846176147 -2.5
5.448672294616699 -0.8854931592941284 -2.5
5.50225830078125 -0.4441894292831421 -2.5
-5.361269950866699 -4.882812390860636e-06 -2.5
-5.343883514404297 -0.4314062297344208 -2.5
-5.291840076446533 -0.8600097298622131 -2.5
-5.205473899841309 -1.283046841621399 -2.5
-4.747166156768799 -2.491508722305298 -2.5
-4.286026954650879 -3.2207469940185547 -2.5
-2.6806352138519287 -4.642997741699219 -2.5
-2.2983319759368896 -4.843637466430664 -2.5
-1.901133418083191 -5.012876033782959 -2.5
-1.0723925828933716 -5.252919673919678 -2.5
-0.646228015422821 -5.322177410125732 -2.5
0.21587829291820526 -5.356923580169678 -2.5
1.0723925828933716 -5.252914905548096 -2.5
1.4915990829467773 -5.149589538574219 -2.5
1.9011303186416626 -5.012876033782959 -2.5
2.298333168029785 -4.843642234802246 -2.5
2.680635929107666 -4.642992973327637 -2.5
3.7138795852661133 -3.866567373275757 -2.5
4.2860260009765625 -3.2207324504852295 -2.5
5.085358619689941 -1.6977441310882568 -2.5
5.205479621887207 -1.2830419540405273 -2.5
