ply
format ascii 1.0
element vertex 913
property float x
property float y
property float z
end_header
-2.548774242401123 20.990966796875 5.166423320770264
-13.700156211853027 14.263378143310547 4.832195281982422
-8.705492973327637 7.712392330169678 2.8416740894317627
-2.548769474029541 20.990976333618164 4.918776512145996
-6.4473876953125 13.587577819824219 3.4985172748565674
-7.1890869140625 12.451865196228027 3.344647169113159
-7.752519130706787 11.23143482208252 3.1746106147766113
-9.715560913085938 11.899384498596191 3.573478937149048
-13.700156211853027 14.263378143310547 4.600568771362305
-8.70565414428711 7.712538719177246 2.705512523651123
-10.055805206298828 5.277675628662109 2.641774892807007
4.709096431732178 4.902695178985596 1.502126693725586
7.325160980224609 12.687578201293945 3.2372515201568604
1.1014330387115479 27.331703186035156 6.04434061050415
-2.5397021770477295 20.916297912597656 4.6557841300964355
-6.44738245010376 13.587568283081055 3.323279857635498
-9.158866882324219 6.88244104385376 2.5315356254577637
4.708896160125732 4.902480125427246 1.4232467412948608
7.320268154144287 12.679081916809082 3.065336227416992
1.1014281511306763 27.33171272277832 5.727179050445557
-0.9477856159210205 23.518836975097656 4.928214073181152
-2.468574047088623 20.330507278442383 4.287933826446533
-3.763198137283325 18.433368682861328 3.939058780670166
-5.679111003875732 14.974570274353027 3.353179931640625
-7.189091682434082 12.451865196228027 3.010408878326416
-7.752524375915527 11.231425285339355 2.857365608215332
-13.300703048706055 13.84749984741211 4.020090103149414
-8.705302238464355 7.712226390838623 2.4350476264953613
-9.59457015991211 6.067236423492432 2.376798391342163
17.951513290405273 9.421679496765137 4.010805606842041
7.315400123596191 12.670663833618164 2.894446849822998
1.1014355421066284 27.33171272277832 5.411490440368652
-0.9477831721305847 23.518836975097656 4.65656852722168
-2.4989452362060547 20.58065414428711 4.10142707824707
-3.763198137283325 18.433368682861328 3.721935987472534
-6.44738245010376 13.587577819824219 2.975332021713257
-7.189096450805664 12.451874732971191 2.8444743156433105
-13.378256797790527 13.928241729736328 3.8206470012664795
-8.699746131896973 7.70730447769165 2.299356698989868
-9.143695831298828 6.871044635772705 2.2627270221710205
-0.9477856159210205 23.518836975097656 4.386106967926025
-2.512685537338257 20.693729400634766 3.8844354152679443
-3.7713475227355957 18.473222732543945 3.5133447647094727
-4.867050647735596 16.802988052368164 3.259805917739868
-7.1890869140625 12.451865196228027 2.67926025390625
-7.752524375915527 11.231425285339355 2.5430526733398438
-9.715551376342773 11.899384498596191 2.862565755844116
-13.378252029418945 13.928241729736328 3.598736524581909
-20.236400604248047 17.92789077758789 5.037863254547119
4.708315372467041 4.901875019073486 1.1887545585632324
7.305747032165527 12.653944969177246 2.555535316467285
-4.867055416107178 16.802968978881836 3.059626340866089
-5.679116249084473 14.974570274353027 2.801063060760498
-6.4473876953125 13.587577819824219 2.630420446395874
-7.189096450805664 12.451865196228027 2.514744520187378
-7.752519130706787 11.23143482208252 2.3868865966796875
-9.715546607971191 11.899374961853027 2.686777353286743
-13.50722599029541 14.062509536743164 3.4103033542633057
-20.084423065185547 17.793251037597656 4.692980766296387
4.708105564117432 4.90164041519165 1.1112289428710938
7.300961971282959 12.64566421508789 2.387416124343872
1.1122534275054932 27.600238800048828 4.516308307647705
-2.523974657058716 20.786746978759766 3.423600912094116
-4.867055416107178 16.802968978881836 2.860217332839966
-5.679111003875732 14.974570274353027 2.61850643157959
-6.44738245010376 13.587577819824219 2.4589858055114746
-7.189091682434082 12.451865196228027 2.350834846496582
-9.715560913085938 11.899394035339355 2.511672258377075
-13.507216453552246 14.062509536743164 3.188040018081665
-19.097591400146484 16.919004440307617 4.171566486358643
4.707695007324219 4.901230335235596 1.033949613571167
-3.7801170349121094 18.516210556030273 2.875213623046875
-5.679116249084473 14.974570274353027 2.436614990234375
-6.44738245010376 13.587577819824219 2.288172483444214
-7.189096450805664 12.451865196228027 2.18754506111145
-7.752519130706787 11.23143482208252 2.0763261318206787
-13.50722599029541 14.062509536743164 2.966585636138916
-19.631654739379883 17.39213752746582 3.9903435707092285
4.707294940948486 4.900820255279541 0.9569424390792847
7.291459560394287 12.629199028015137 2.053614377975464
10.380810737609863 21.87710952758789 3.4100522994995117
1.0965014696121216 27.209394454956055 3.8348302841186523
-2.523974657058716 20.786746978759766 2.9487621784210205
-4.867050647735596 16.802988052368164 2.463517665863037
-5.679116249084473 14.974570274353027 2.25533127784729
-6.44738245010376 13.587577819824219 2.1179349422454834
7.28673791885376 12.621015548706055 1.887836217880249
10.455583572387695 22.034687042236328 3.159402370452881
-2.523979425430298 20.786746978759766 2.7124791145324707
-3.7801170349121094 18.516210556030273 2.448054075241089
-4.867055416107178 16.802968978881836 2.266117572784424
-5.679116249084473 14.974570274353027 2.0746121406555176
-7.189096450805664 12.451865196228027 1.8625543117523193
-13.700140953063965 14.263359069824219 2.5619239807128906
-20.095277786254883 17.80286979675293 3.4777445793151855
4.706503868103027 4.899990081787109 0.8036693930625916
10.42061996459961 21.96100616455078 2.8753318786621094
-5.679116249084473 14.974570274353027 1.8944131135940552
-7.189096450805664 12.451865196228027 1.7007735967636108
-7.752519130706787 11.23143482208252 1.6142977476119995
-9.715551376342773 11.899384498596191 1.8171215057373047
-13.700145721435547 14.263368606567383 2.339397430419922
-20.236400604248047 17.92789077758789 3.197971820831299
10.410685539245605 21.940067291259766 2.6000564098358154
1.1014355421066284 27.33171272277832 2.928652286529541
-2.523974657058716 20.786746978759766 2.241884708404541
-4.867055416107178 16.802968978881836 1.8729631900787354
-5.679111003875732 14.974570274353027 1.714683175086975
-6.44738245010376 13.587577819824219 1.610223650932312
-7.131616115570068 12.352334022521973 1.5270977020263672
-13.700145721435547 14.263368606567383 2.11745023727417
-20.23637580871582 17.92786979675293 2.8945653438568115
7.272680282592773 12.5966796875 1.3944576978683472
10.429487228393555 21.979686737060547 2.33237624168396
1.1014330387115479 27.331703186035156 2.622403621673584
-7.131616115570068 12.352334022521973 1.3674108982086182
-7.752524375915527 11.231425285339355 1.3083531856536865
-13.700140953063965 14.263359069824219 1.8960307836532593
-20.23637580871582 17.92786979675293 2.591883420944214
7.268032073974609 12.58861255645752 1.231170654296875
10.41708755493164 21.953563690185547 2.0581305027008057
1.1014281511306763 27.33171272277832 2.316815137863159
-0.9477880597114563 23.518836975097656 1.993607759475708
-2.548769474029541 20.990976333618164 1.7909456491470337
-3.8036766052246094 18.63163948059082 1.610606074333191
-5.679111003875732 14.974570274353027 1.3564599752426147
-7.043032169342041 12.19888687133789 1.1930571794509888
-9.456806182861328 11.582480430603027 1.2664642333984375
-20.236385345458984 17.92786979675293 2.2898471355438232
4.705024242401123 4.898447036743164 0.4995342791080475
7.263398170471191 12.580595016479492 1.068398356437683
10.435007095336914 21.991317749023438 1.7902398109436035
1.1014330387115479 27.331703186035156 2.0117862224578857
-0.9477856159210205 23.518836975097656 1.731137990951538
-3.763198137283325 18.433349609375 1.3836764097213745
-6.44738245010376 13.587577819824219 1.1061172485351562
-7.131616115570068 12.352334022521973 1.049014925956726
-7.752519130706787 11.23143482208252 1.003709077835083
-9.585907936096191 11.740595817565918 1.1147387027740479
-13.378252029418945 13.928241729736328 1.420373558998108
-20.084413528442383 17.793241500854492 1.9734432697296143
4.704736232757568 4.898144245147705 0.4238937199115753
7.25878381729126 12.572587966918945 0.9060983061790466
1.1014281511306763 27.33171272277832 1.707265019416809
-0.9477856159210205 23.518817901611328 1.4690978527069092
-2.5126757621765137 20.693729400634766 1.301064133644104
-4.701523303985596 16.23149299621582 1.0547149181365967
-6.4473876953125 13.587577819824219 0.9386840462684631
-7.752519130706787 11.23143482208252 0.8517776131629944
-9.715546607971191 11.899374961853027 0.9587957262992859
-13.09561538696289 13.633983612060547 1.1799062490463257
4.704452991485596 4.897841453552246 0.3483666777610779
7.254164695739746 12.564619064331055 0.7442275881767273
1.0965063571929932 27.20940399169922 1.3968822956085205
-5.679116249084473 14.974570274353027 0.8215319514274597
-7.752524375915527 11.231425285339355 0.7000561356544495
-13.378271102905273 13.928251266479492 0.9906665086746216
7.249565124511719 12.556640625 0.5827465653419495
1.09649658203125 27.20938491821289 1.094482660293579
-2.512685537338257 20.693729400634766 0.8378271460533142
-3.7801170349121094 18.516210556030273 0.7595507502555847
-4.839047908782959 16.706317901611328 0.6990566849708557
-5.679111003875732 14.974570274353027 0.6436877250671387
-7.752519130706787 11.23143482208252 0.5485058426856995
-19.345449447631836 17.13858413696289 1.038767695426941
7.244980335235596 12.548690795898438 0.42161375284194946
9.720083236694336 20.484647750854492 0.659741222858429
-2.523974657058716 20.786746978759766 0.609273374080658
-3.7801122665405273 18.516220092773438 0.5498794317245483
-4.839047908782959 16.706317901611328 0.506083071231842
-5.679116249084473 14.974570274353027 0.4659963846206665
-7.752519130706787 11.23143482208252 0.3970932066440582
7.240395545959473 12.540771484375 0.26078855991363525
9.720083236694336 20.484647750854492 0.40833982825279236
1.1014330387115479 27.331703186035156 0.4926226735115051
-0.9477905035018921 23.518817901611328 0.4238995313644409
-2.523974657058716 20.786746978759766 0.37710297107696533
-3.7801170349121094 18.516210556030273 0.3403405547142029
-4.839047908782959 16.706317901611328 0.31323638558387756
-6.4473876953125 13.587577819824219 0.27085235714912415
-7.189096450805664 12.451874732971191 0.2589401304721832
-7.752519130706787 11.23143482208252 0.24577696621418
-9.715551376342773 11.899384498596191 0.2766555845737457
-19.345449447631836 17.13858413696289 0.465453177690506
4.703295707702637 4.896640300750732 0.04702407866716385
7.235829830169678 12.532832145690918 0.10022979229688644
-0.9477880597114563 23.518836975097656 0.16302184760570526
-2.523974657058716 20.786746978759766 0.14502501487731934
-5.679116249084473 14.974570274353027 0.11092498898506165
-6.44738245010376 13.587568283081055 0.1041635125875473
-13.507206916809082 14.0625 0.13504637777805328
-19.345449447631836 17.13858413696289 0.17900237441062927
7.231254577636719 12.524930953979492 -0.06010070815682411
9.720083236694336 20.484647750854492 -0.09422271698713303
-0.9477905035018921 23.518827438354492 -0.09781555086374283
-5.679116249084473 14.974570274353027 -0.0665530413389206
-6.44738245010376 13.587577819824219 -0.062499694526195526
-7.189096450805664 12.451874732971191 -0.0597616545855999
-7.752519130706787 11.23143482208252 -0.056713711470365524
-9.715551376342773 11.899384498596191 -0.06383880227804184
-13.50722599029541 14.062509536743164 -0.08103011548519135
4.702719688415527 4.896044731140137 -0.10344787687063217
1.1122485399246216 27.600238800048828 -0.42091795802116394
-3.8036766052246094 18.63163948059082 -0.2897677421569824
-4.839047908782959 16.706317901611328 -0.2650401294231415
-6.44738245010376 13.587577819824219 -0.229176327586174
-7.752524375915527 11.231425285339355 -0.2079583704471588
-13.700140953063965 14.263359069824219 -0.30136778950691223
-19.345449447631836 17.13858413696289 -0.3938342332839966
7.222148418426514 12.509140014648438 -0.38023635745048523
1.1082983016967773 27.502050399780273 -0.7245625257492065
-2.548769474029541 20.990976333618164 -0.5566332936286926
-3.8036766052246094 18.63163948059082 -0.5005831718444824
-4.839042663574219 16.706317901611328 -0.45786115527153015
-6.44738245010376 13.587577819824219 -0.39590972661972046
-6.531606197357178 11.313066482543945 -0.3438805937767029
-9.715551376342773 11.899384498596191 -0.4043922424316406
1.1122485399246216 27.600238800048828 -1.0335655212402344
-4.839047908782959 16.706317901611328 -0.6508002877235413
-6.44738245010376 13.587577819824219 -0.5627431869506836
-6.531606197357178 11.313066482543945 -0.48878997564315796
-7.752524375915527 11.231425285339355 -0.5106427073478699
4.701860427856445 4.895155906677246 -0.3293249309062958
9.720088005065918 20.484657287597656 -1.1001173257827759
7.692468166351318 20.28337860107422 -1.0525332689285278
1.082605004310608 26.864540100097656 -1.304508924484253
-0.9449414014816284 23.448123931884766 -1.1386115550994873
-2.548774242401123 20.990966796875 -1.0259491205215454
-3.8036816120147705 18.631629943847656 -0.9226412773132324
-4.839047908782959 16.706317901611328 -0.8439019322395325
-5.679116249084473 14.974570274353027 -0.7770527601242065
-7.752519130706787 11.23143482208252 -0.6621545553207397
-9.715556144714355 11.899384498596191 -0.7453497052192688
-13.700140953063965 14.263368606567383 -0.9595768451690674
7.208486080169678 12.485487937927246 -0.8597315549850464
7.524497032165527 19.84046745300293 -1.2653815746307373
1.0965014696121216 27.209394454956055 -1.6239043474197388
-0.9403662085533142 23.33480453491211 -1.3926621675491333
-2.478154182434082 20.409345626831055 -1.226016879081726
-3.7627341747283936 18.43111228942871 -1.1217793226242065
-4.839047908782959 16.706317901611328 -1.037204623222351
-5.679111003875732 14.974570274353027 -0.9550466537475586
-7.752519130706787 11.23143482208252 -0.8138296604156494
-9.715560913085938 11.899384498596191 -0.9160794019699097
-13.272539138793945 13.818182945251465 -1.142569899559021
-19.990726470947266 17.71025276184082 -1.5926486253738403
-29.62459373474121 2.391552686691284 -1.772361397743225
14.999818801879883 2.4377050399780273 -1.0753426551818848
7.203935623168945 12.4775972366333 -1.0195292234420776
-0.9477856159210205 23.518836975097656 -1.6655917167663574
-2.503676652908325 20.619609832763672 -1.4698015451431274
-3.71770977973938 18.210546493530273 -1.3151938915252686
-4.839047908782959 16.706317901611328 -1.2307642698287964
-7.752519130706787 11.23143482208252 -0.9657050967216492
22.9130859375 17.21808624267578 -2.347599983215332
4.700995922088623 4.894257545471191 -0.5558483600616455
18.126747131347656 22.20124053955078 -2.347599983215332
13.509169578552246 19.571435928344727 -1.9478617906570435
7.524497032165527 19.840457916259766 -1.738036870956421
3.4547386169433594 28.452342987060547 -2.347599983215332
-4.839047908782959 16.706317901611328 -1.4246314764022827
-5.603969573974609 14.77645492553711 -1.2944295406341553
-6.358778953552246 13.400829315185547 -1.2149412631988525
-6.531606197357178 11.313066482543945 -1.069982886314392
-7.752519130706787 11.23143482208252 -1.1178207397460938
-19.5685977935791 17.336278915405273 -2.1413586139678955
-22.913095474243164 17.218076705932617 -2.347599983215332
26.773061752319336 2.161376953125 -2.5
14.054130554199219 2.2840232849121094 -1.3252449035644531
15.837641716003418 3.903632640838623 -1.518201231956482
25.477827072143555 8.50576114654541 -2.5
24.710792541503906 10.528310775756836 -2.5
21.318023681640625 13.48070240020752 -2.347599983215332
18.879497528076172 16.72579002380371 -2.347599983215332
4.700697898864746 4.893945217132568 -0.6315882802009583
8.905954360961914 18.768924713134766 -1.9335988759994507
5.045187950134277 24.712987899780273 -2.347599983215332
1.0156152248382568 25.202295303344727 -2.347599983215332
-3.763198137283325 18.433349609375 -1.7510656118392944
-5.664038181304932 14.934814453125 -1.486662745475769
-6.395468711853027 13.478154182434082 -1.388538122177124
-6.531606197357178 11.313066482543945 -1.2158535718917847
-9.570673942565918 11.721952438354492 -1.4084807634353638
-20.16414451599121 15.152382850646973 -2.347599983215332
-21.31802749633789 13.480692863464355 -2.347599983215332
-23.73689842224121 12.458056449890137 -2.4951024055480957
-25.477846145629883 8.505732536315918 -2.5
-26.07967185974121 6.428037166595459 -2.5
-26.77305030822754 2.1613378524780273 -2.5
23.977596282958984 0.0 -2.5
23.899818420410156 1.9294042587280273 -2.5
13.7955322265625 2.241992235183716 -1.4572484493255615
22.05889129638672 9.3984375 -2.5
19.030229568481445 12.033984184265137 -2.347599983215332
16.853410720825195 14.930819511413574 -2.347599983215332
4.700415134429932 4.893652439117432 -0.7074737548828125
14.240090370178223 17.440946578979492 -2.347599983215332
12.64778995513916 18.323486328125 -2.321408987045288
7.190273284912109 12.453935623168945 -1.4993737936019897
7.348737716674805 19.377031326293945 -2.160740852355957
4.503756999969482 22.06087875366211 -2.347599983215332
2.713991641998291 22.35173797607422 -2.347599983215332
0.9066332578659058 22.49762725830078 -2.347599983215332
-0.90663081407547 22.497665405273438 -2.347599983215332
-4.839047908782959 16.706317901611328 -1.8134690523147583
-5.679116249084473 14.974570274353027 -1.6698201894760132
-6.44738245010376 13.587577819824219 -1.5680936574935913
-6.531606197357178 11.313066482543945 -1.362022042274475
-9.715560913085938 11.899394035339355 -1.6016924381256104
-16.8533878326416 14.930790901184082 -2.347599983215332
-18.00016975402832 13.526229858398438 -2.347599983215332
-19.03023338317871 12.033974647521973 -2.347599983215332
-22.058895111083984 9.398398399353027 -2.5
-22.74363136291504 7.592909812927246 -2.5
-23.899818420410156 1.929384708404541 -2.5
21.648895263671875 0.0 -2.5
13.791186332702637 2.241279363632202 -1.6134908199310303
15.369873046875 3.788339853286743 -1.828021764755249
20.534759521484375 6.855507850646973 -2.5
19.91653823852539 8.485644340515137 -2.5
17.78260612487793 9.333037376403809 -2.319171667098999
17.182016372680664 10.865253448486328 -2.347599983215332
4.700126647949219 4.89333963394165 -0.7835257053375244
12.857099533081055 15.747079849243164 -2.347599983215332
9.111611366271973 13.200468063354492 -1.8522576093673706
7.2088303565979 19.008134841918945 -2.347599983215332
5.655925273895264 19.526552200317383 -2.347599983215332
0.8185693025588989 20.312694549560547 -2.347599983215332
-2.4504199028015137 20.180965423583984 -2.347599983215332
-4.817788124084473 16.632890701293945 -1.9997087717056274
-5.679116249084473 14.974570274353027 -1.8494378328323364
-7.752519130706787 11.23143482208252 -1.5759721994400024
-9.715560913085938 11.899384498596191 -1.7739816904067993
-17.182025909423828 10.865224838256836 -2.347599983215332
-19.12393569946289 10.037001609802246 -2.494102954864502
-21.019813537597656 5.180908203125 -2.5
-21.57870101928711 1.7420214414596558 -2.5
13.76382827758789 2.2368457317352295 -1.7670847177505493
15.32491683959961 3.7772655487060547 -2.0001485347747803
15.657455444335938 9.9011812210083 -2.347599983215332
14.809965133666992 11.128973960876465 -2.347599983215332
13.866433143615723 12.28458023071289 -2.347599983215332
4.699833869934082 4.893036842346191 -0.8597646951675415
5.154067039489746 17.7939453125 -2.347599983215332
3.7055370807647705 18.15094757080078 -2.347599983215332
2.2329931259155273 18.39029312133789 -2.347599983215332
-4.666582107543945 16.110877990722656 -2.12554931640625
-5.679116249084473 14.974570274353027 -2.029517412185669
-6.44738245010376 13.587577819824219 -1.9058773517608643
-7.752519130706787 11.23143482208252 -1.7294249534606934
-9.715560913085938 11.899384498596191 -1.9467144012451172
-12.832963943481445 13.360546112060547 -2.347599983215332
-13.866430282592773 12.284589767456055 -2.347599983215332
-14.80996036529541 11.1289644241333 -2.347599983215332
-15.657455444335938 9.901162147521973 -2.347599983215332
-18.149335861206055 7.732705116271973 -2.5
-19.15471649169922 4.721210956573486 -2.5
18.116058349609375 -9.765624781721272e-06 -2.5
18.057310104370117 1.4577441215515137 -2.5
13.732245445251465 2.2317187786102295 -1.9198997020721436
17.183734893798828 5.736777305603027 -2.5
16.666385650634766 7.100898265838623 -2.5
15.063105583190918 7.905722618103027 -2.347599983215332
12.733437538146973 11.280858993530273 -2.347599983215332
10.758974075317383 13.177343368530273 -2.347599983215332
6.799335956573486 11.776816368103027 -1.8766045570373535
5.828959941864014 12.284306526184082 -1.8763827085494995
6.032426834106445 15.906220436096191 -2.347599983215332
-0.6849951148033142 16.9979190826416 -2.347599983215332
-2.050537109375 16.887685775756836 -2.347599983215332
-4.666582107543945 16.110877990722656 -2.314676523208618
-5.679116249084473 14.974570274353027 -2.210099220275879
-6.44738245010376 13.587577819824219 -2.075458288192749
-9.715566635131836 11.899384498596191 -2.119929075241089
-14.378114700317383 9.092158317565918 -2.347599983215332
-16.666391372680664 7.100878715515137 -2.5
-17.881460189819336 2.9060351848602295 -2.5
-18.057310104370117 1.4577343463897705 -2.5
16.743764877319336 0.0 -2.5
16.689456939697266 1.3473241329193115 -2.5
13.787636756896973 2.240712881088257 -2.0856313705444336
13.922080039978027 7.306874752044678 -2.347599983215332
13.28897476196289 8.403437614440918 -2.347599983215332
12.569677352905273 9.445508003234863 -2.347599983215332
11.768866539001465 10.4263277053833 -2.347599983215332
9.943974494934082 12.179169654846191 -2.347599983215332
7.759750843048096 11.241962432861328 -2.0395619869232178
5.828959941864014 12.284306526184082 -2.0301687717437744
5.575478553771973 14.701327323913574 -2.347599983215332
4.374423503875732 15.10228443145752 -2.347599983215332
3.145009756088257 15.405282974243164 -2.347599983215332
1.8952147960662842 15.608427047729492 -2.347599983215332
0.6331152319908142 15.710341453552246 -2.347599983215332
-1.8952099084854126 15.608417510986328 -2.347599983215332
-3.145014524459839 15.405302047729492 -2.347599983215332
-4.374428749084473 15.102294921875 -2.347599983215332
-6.522900104522705 11.29799747467041 -1.9478554725646973
-9.715560913085938 11.899394035339355 -2.293674945831299
-10.891742706298828 11.33951187133789 -2.347599983215332
-11.768872261047363 10.426308631896973 -2.347599983215332
-13.28897476196289 8.403437614440918 -2.347599983215332
-14.788671493530273 7.761679649353027 -2.493727445602417
-15.403901100158691 6.562978267669678 -2.5
-15.882064819335938 5.302196979522705 -2.5
-16.526927947998047 2.6858983039855957 -2.5
-16.689462661743164 1.347314476966858 -2.5
14.315878868103027 6.099433422088623 -2.5
12.93871021270752 6.790761470794678 -2.347599983215332
11.681845664978027 8.778349876403809 -2.347599983215332
10.93758773803711 9.689872741699219 -2.347599983215332
4.698959827423096 4.89211893081665 -1.089785099029541
9.241596221923828 11.3189058303833 -2.347599983215332
7.727265357971191 11.194902420043945 -2.185385227203369
6.799330711364746 11.776816368103027 -2.1847243309020996
4.065439224243164 14.03555679321289 -2.347599983215332
-0.5883886814117432 14.600634574890137 -2.347599983215332
-1.7613329887390137 14.505966186523438 -2.347599983215332
-2.9228758811950684 14.317157745361328 -2.347599983215332
-6.264262676239014 13.20164966583252 -2.347599983215332
-6.531606197357178 11.313066482543945 -2.0986976623535156
-7.752519130706787 11.23143482208252 -2.1925244331359863
-9.24160099029541 11.3189058303833 -2.347599983215332
-10.122421264648438 10.538554191589355 -2.347599983215332
-14.315878868103027 6.099433422088623 -2.5
14.483935356140137 1.169277310371399 -2.5
14.342875480651855 2.330947160720825 -2.5
14.108808517456055 3.4774999618530273 -2.5
13.78323745727539 4.601513385772705 -2.5
13.368266105651855 5.695683479309082 -2.5
12.082260131835938 6.341259479522705 -2.347599983215332
11.532821655273438 7.292900085449219 -2.347599983215332
4.698661804199219 4.891835689544678 -1.1669615507125854
8.629867553710938 10.56966781616211 -2.347599983215332
6.751381874084473 11.69374942779541 -2.3230865001678467
2.7293994426727295 13.36947250366211 -2.347599983215332
0.5494384765625 13.634160041809082 -2.347599983215332
-2.729418992996216 13.369423866271973 -2.347599983215332
-3.7963573932647705 13.106473922729492 -2.347599983215332
-4.838676452636719 12.758496284484863 -2.347599983215332
-5.849609375 12.32778263092041 -2.347599983215332
-7.751391410827637 11.229804039001465 -2.347599983215332
-8.629867553710938 10.56966781616211 -2.347599983215332
-9.452392578125 9.840986251831055 -2.347599983215332
-10.90859317779541 8.197275161743164 -2.347599983215332
-12.84664535522461 6.742421627044678 -2.496119976043701
-13.368270874023438 5.69567346572876 -2.5
-14.483930587768555 1.1692675352096558 -2.5
13.5814790725708 1.0964257717132568 -2.5
13.449228286743164 2.1857030391693115 -2.5
13.229731559753418 3.2608494758605957 -2.5
12.924443244934082 4.314804553985596 -2.5
9.577221870422363 8.484697341918945 -2.347599983215332
4.698369026184082 4.891513347625732 -1.2444238662719727
7.268417835235596 10.530126571655273 -2.347599983215332
2.559335947036743 12.536483764648438 -2.347599983215332
1.542275309562683 12.701757431030273 -2.347599983215332
0.5152001976966858 12.78466796875 -2.347599983215332
-0.5152050852775574 12.78466796875 -2.347599983215332
-1.542275309562683 12.701766967773438 -2.347599983215332
-2.559340715408325 12.536474227905273 -2.347599983215332
-3.559804677963257 12.28988265991211 -2.347599983215332
-4.537187576293945 11.963574409484863 -2.347599983215332
-7.268422603607178 10.530107498168945 -2.347599983215332
-8.863442420959473 9.227831840515137 -2.347599983215332
-10.228900909423828 7.686532974243164 -2.347599983215332
-10.814252853393555 6.838515281677246 -2.347599983215332
-12.053236961364746 6.326025485992432 -2.4975759983062744
-12.5353364944458 5.340790748596191 -2.5
-12.924443244934082 4.314804553985596 -2.5
-13.22972583770752 3.260820150375366 -2.5
-13.44921875 2.185722589492798 -2.5
-13.581483840942383 1.0964062213897705 -2.5
12.823447227478027 -9.765624781721272e-06 -2.5
12.657387733459473 2.057021379470825 -2.5
12.450810432434082 3.0688769817352295 -2.5
10.1775484085083 6.435898303985596 -2.347599983215332
9.626665115356445 7.233974456787109 -2.347599983215332
6.840478420257568 9.91015625 -2.347599983215332
6.02086877822876 10.428437232971191 -2.347599983215332
4.270053386688232 11.259199142456055 -2.347599983215332
2.408647298812866 11.798349380493164 -2.347599983215332
1.4514696598052979 11.953896522521973 -2.347599983215332
-6.020864009857178 10.428437232971191 -2.347599983215332
-6.840497970581055 9.910136222839355 -2.347599983215332
-9.013354301452637 7.985156059265137 -2.347599983215332
-10.1775484085083 6.435898303985596 -2.347599983215332
-11.351737976074219 5.957851409912109 -2.49937105178833
-12.163505554199219 4.060771465301514 -2.5
-12.7818603515625 1.0318554639816284 -2.5
12.107519149780273 0.0 -2.5
12.068246841430664 0.97425776720047 -2.5
11.95071792602539 1.94216787815094 -2.5
11.755688667297363 2.897538900375366 -2.5
11.13866138458252 4.745741844177246 -2.5
9.609335899353027 6.076571941375732 -2.347599983215332
8.510146141052246 7.53933572769165 -2.347599983215332
6.458579063415527 9.356855392456055 -2.347599983215332
5.684716701507568 9.846220016479492 -2.347599983215332
3.1631736755371094 10.92055606842041 -2.347599983215332
-0.45780760049819946 11.36019515991211 -2.347599983215332
-7.19054651260376 8.806816101074219 -2.347599983215332
-7.875878810882568 8.199658393859863 -2.347599983215332
-10.720664024353027 5.626630783081055 -2.5
-11.13866138458252 4.745722770690918 -2.5
-11.755688667297363 2.89751935005188 -2.5
11.46451187133789 0.0 -2.5
11.13138198852539 2.7436327934265137 -2.5
10.87451171875 3.630439281463623 -2.5
8.058202743530273 7.13894510269165 -2.347599983215332
6.115576267242432 8.859941482543945 -2.347599983215332
5.382817268371582 9.323309898376465 -2.347599983215332
4.615151405334473 9.726201057434082 -2.347599983215332
3.8175487518310547 10.066044807434082 -2.347599983215332
2.153398275375366 10.548047065734863 -2.347599983215332
0.43348631262779236 10.756903648376465 -2.347599983215332
-2.1534032821655273 10.548066139221191 -2.347599983215332
-2.995190382003784 10.340585708618164 -2.347599983215332
-3.8175437450408936 10.066035270690918 -2.347599983215332
-5.3828125 9.323309898376465 -2.347599983215332
-6.115585803985596 8.859930992126465 -2.347599983215332
-6.808676719665527 8.339111328125 -2.347599983215332
-8.6065034866333 6.467382431030273 -2.347599983215332
-10.547114372253418 4.493700981140137 -2.5
-10.874516487121582 3.630439281463623 -2.5
-11.13137149810791 2.7436327934265137 -2.5
-11.316054344177246 1.8390331268310547 -2.5
10.88370132446289 -9.765624781721272e-06 -2.5
10.848407745361328 0.875781238079071 -2.5
10.742758750915527 1.7458691596984863 -2.5
8.638031959533691 5.462353229522705 -2.347599983215332
8.170493125915527 6.139746189117432 -2.347599983215332
7.649955749511719 6.777265548706055 -2.347599983215332
6.4637451171875 7.916650295257568 -2.347599983215332
2.84344220161438 9.8167085647583 -2.347599983215332
2.044306516647339 10.013671875 -2.347599983215332
1.2319140434265137 10.145712852478027 -2.347599983215332
0.4115283191204071 10.211942672729492 -2.347599983215332
-1.231909155845642 10.145722389221191 -2.347599983215332
-2.044306516647339 10.013690948486328 -2.347599983215332
-3.624140501022339 9.556074142456055 -2.347599983215332
-5.110112190246582 8.85097599029541 -2.347599983215332
-6.463735103607178 7.916630744934082 -2.347599983215332
-7.079799652099609 7.370869159698486 -2.347599983215332
-7.649946212768555 6.777265548706055 -2.347599983215332
-8.835942268371582 5.587509632110596 -2.4013845920562744
-9.637036323547363 5.057900428771973 -2.5
-10.01278305053711 4.266035079956055 -2.5
-10.74276351928711 1.7458691596984863 -2.5
-10.848407745361328 0.8757714629173279 -2.5
10.35635757446289 0.0 -2.5
10.055424690246582 2.4784374237060547 -2.5
9.823383331298828 3.279531240463257 -2.5
9.527631759643555 4.05935525894165 -2.5
8.219496726989746 5.197695255279541 -2.347599983215332
7.774594783782959 5.842246055603027 -2.347599983215332
7.279286861419678 6.448886394500732 -2.347599983215332
4.695654392242432 4.888691425323486 -1.636320948600769
6.150551795959473 7.533046722412109 -2.347599983215332
3.44854474067688 9.093056678771973 -2.347599983215332
2.7056639194488525 9.341073989868164 -2.347599983215332
1.9452489614486694 9.528495788574219 -2.347599983215332
-0.39158689975738525 9.717147827148438 -2.347599983215332
-1.1722265481948853 9.654120445251465 -2.347599983215332
-2.7056736946105957 9.341073989868164 -2.347599983215332
-4.169052600860596 8.786073684692383 -2.347599983215332
-5.524453163146973 8.003535270690918 -2.347599983215332
-6.736772537231445 7.013720512390137 -2.347599983215332
-7.279286861419678 6.448876857757568 -2.347599983215332
-9.170097351074219 4.812831878662109 -2.5
-9.823373794555664 3.2795116901397705 -2.5
9.875307083129883 9.765624781721272e-06 -2.5
9.843271255493164 0.7946386337280273 -2.5
9.747416496276855 1.5841015577316284 -2.5
9.588335037231445 2.3633105754852295 -2.5
8.739203453063965 4.586679458618164 -2.498586893081665
7.849950790405273 4.964003562927246 -2.3512678146362305
7.413466453552246 5.570859432220459 -2.347599983215332
5.267836570739746 7.631777286529541 -2.347599983215332
4.636650085449219 8.03091812133789 -2.347599983215332
3.975395441055298 8.377968788146973 -2.347599983215332
2.5799999237060547 8.907167434692383 -2.347599983215332
1.1177831888198853 9.205693244934082 -2.347599983215332
-0.37339842319488525 9.26578140258789 -2.347599983215332
-1.8549022674560547 9.085888862609863 -2.347599983215332
-2.5799999237060547 8.907167434692383 -2.347599983215332
-3.2883543968200684 8.670683860778809 -2.347599983215332
-4.636650085449219 8.030898094177246 -2.347599983215332
-6.94115686416626 6.149335861206055 -2.347599983215332
-8.330292701721191 5.267763614654541 -2.4951436519622803
-8.744140625 4.589277267456055 -2.5
-9.367079734802246 3.127187490463257 -2.5
-9.588339805603027 2.3633105754852295 -2.5
-9.747416496276855 1.5841211080551147 -2.5
-9.843276023864746 0.794628918170929 -2.5
9.43460464477539 -9.765624781721272e-06 -2.5
8.679633140563965 3.69805645942688 -2.5
7.082631587982178 5.322255611419678 -2.347599983215332
6.631406307220459 5.874902248382568 -2.347599983215332
4.625234127044678 4.815371036529541 -1.7692513465881348
5.603129863739014 6.86257791519165 -2.347599983215332
5.03274393081665 7.291191101074219 -2.347599983215332
4.429731369018555 7.672519207000732 -2.347599983215332
1.067895531654358 8.794873237609863 -2.347599983215332
-1.7721190452575684 8.680429458618164 -2.347599983215332
-3.141611337661743 8.283740043640137 -2.347599983215332
-4.429726600646973 7.672519207000732 -2.347599983215332
-5.032753944396973 7.291201114654541 -2.347599983215332
-6.137172698974609 6.389472484588623 -2.347599983215332
-6.631401062011719 5.874921798706055 -2.347599983215332
-7.08263635635376 5.322265625 -2.347599983215332
-8.949057579040527 2.9876365661621094 -2.5
-9.160449028015137 2.2578516006469727 -2.5
-9.404008865356445 0.75916987657547 -2.5
9.029272079467773 0.0 -2.5
8.7669038772583 2.160839796066284 -2.5
8.306737899780273 3.5391697883605957 -2.5
7.467758655548096 4.722314357757568 -2.446373701095581
5.362407207489014 6.567753791809082 -2.347599983215332
3.63482403755188 7.660224437713623 -2.347599983215332
3.006645441055298 7.927870750427246 -2.347599983215332
1.695986270904541 8.307490348815918 -2.347599983215332
-1.0220165252685547 8.417021751403809 -2.347599983215332
-3.63482403755188 7.660214900970459 -2.347599983215332
-4.239423751831055 7.342900276184082 -2.347599983215332
-5.873505592346191 6.114970684051514 -2.347599983215332
-6.778354167938232 5.093603610992432 -2.347599983215332
-7.629526138305664 4.824609279632568 -2.4993696212768555
-7.995028972625732 4.196093559265137 -2.5
-8.306747436523438 3.5391697883605957 -2.5
-8.56459903717041 2.8592870235443115 -2.5
-8.766899108886719 2.1608495712280273 -2.5
-8.912358283996582 1.4484081268310547 -2.5
8.655160903930664 -9.765624781721272e-06 -2.5
8.543070793151855 1.3883886337280273 -2.5
8.403647422790527 2.0713086128234863 -2.5
7.962558269500732 3.3925390243530273 -2.5
7.663754940032959 4.022236347198486 -2.5
7.29638671875 4.613955020904541 -2.4935519695281982
6.083539962768555 5.389550685882568 -2.347599983215332
5.140219688415527 6.295624732971191 -2.347599983215332
4.616958141326904 6.688817977905273 -2.347599983215332
4.063764572143555 7.038642406463623 -2.347599983215332
2.8820652961730957 7.599374771118164 -2.347599983215332
2.2612156867980957 7.806640625 -2.347599983215332
-0.3272656202316284 8.12093734741211 -2.347599983215332
-0.979663074016571 8.06826114654541 -2.347599983215332
-2.26123046875 7.806630611419678 -2.347599983215332
-3.4842138290405273 7.342822074890137 -2.347599983215332
-4.063759803771973 7.038652420043945 -2.347599983215332
-5.140219688415527 6.295624732971191 -2.347599983215332
-6.724584579467773 5.053203105926514 -2.429650068283081
-7.663754940032959 4.02224588394165 -2.5
-8.403647422790527 2.0713086128234863 -2.5
-8.543066024780273 1.388369083404541 -2.5
-8.627084732055664 0.6964452862739563 -2.5
8.281733512878418 0.6685644388198853 -2.5
8.201088905334473 1.3327929973602295 -2.5
7.881083965301514 2.6310839653015137 -2.5
7.643808364868164 3.2567381858825684 -2.5
7.356957912445068 3.8612303733825684 -2.5
4.599775314331055 4.788866996765137 -1.9979463815689087
4.934457778930664 6.043612957000732 -2.347599983215332
3.9010887145996094 6.756884574890137 -2.347599983215332
3.344731330871582 7.048867225646973 -2.347599983215332
2.170707941055298 7.494130611419678 -2.347599983215332
-2.7666893005371094 7.295166015625 -2.347599983215332
-3.344731330871582 7.048876762390137 -2.347599983215332
-3.901078939437866 6.756875038146973 -2.347599983215332
-4.9344482421875 6.043603420257568 -2.347599983215332
-5.404760837554932 5.626953125 -2.347599983215332
-7.022411823272705 4.44070291519165 -2.5
-7.356972694396973 3.8612303733825684 -2.5
-7.881078720092773 2.6310839653015137 -2.5
-8.067235946655273 1.9883886575698853 -2.5
-8.281728744506836 0.6685839891433716 -2.5
7.98681116104126 0.0 -2.5
7.960917949676514 0.6426757574081421 -2.5
7.575780868530273 2.5291600227355957 -2.5
7.347700119018555 3.1305761337280273 -2.5
7.071972370147705 3.7116405963897705 -2.5
6.0108642578125 4.51687479019165 -2.3535101413726807
5.613774299621582 4.973378658294678 -2.347599983215332
4.743295669555664 5.809482097625732 -2.347599983215332
3.7499656677246094 6.495136737823486 -2.347599983215332
0.9040185213088989 7.445253849029541 -2.347599983215332
-0.3019970655441284 7.493847370147705 -2.347599983215332
-1.5001806020736694 7.348369121551514 -2.347599983215332
-2.086611270904541 7.203827857971191 -2.347599983215332
-3.2151708602905273 6.775820255279541 -2.347599983215332
-4.260454177856445 6.172324180603027 -2.347599983215332
-5.195385456085205 5.408974647521973 -2.347599983215332
-7.347704887390137 3.130556583404541 -2.5
-7.754735946655273 1.9113671779632568 -2.5
-7.960907936096191 0.6426855325698853 -2.5
7.686967372894287 0.0 -2.5
7.662040710449219 0.6185449361801147 -2.5
7.071855545043945 3.0130369663238525 -2.5
6.496532917022705 4.108154296875 -2.499842882156372
5.984325885772705 4.496913909912109 -2.434518814086914
5.403027057647705 4.786660194396973 -2.347599983215332
4.565219402313232 5.591376781463623 -2.347599983215332
4.100497722625732 5.940585613250732 -2.347599983215332
3.609184503555298 6.251288890838623 -2.347599983215332
3.0944676399230957 6.521435260772705 -2.347599983215332
1.4438525438308716 7.072490215301514 -2.347599983215332
0.8700780868530273 7.165732383728027 -2.347599983215332
-0.2906543016433716 7.212499618530273 -2.347599983215332
-2.0082762241363525 6.933369159698486 -2.347599983215332
-2.5596678256988525 6.749287128448486 -2.347599983215332
-3.60918927192688 6.251288890838623 -2.347599983215332
-4.565219402313232 5.591386795043945 -2.347599983215332
-5.000341892242432 5.205898284912109 -2.347599983215332
-6.138769626617432 4.612987995147705 -2.4973487854003906
-6.496938228607178 4.108407974243164 -2.5
-6.806474685668945 3.5722949504852295 -2.5
-7.071850299835205 3.0130271911621094 -2.5
-7.587421894073486 1.2330858707427979 -2.5
7.406874656677246 0.0 -2.5
7.382865905761719 0.5960156321525574 -2.5
7.310961723327637 1.1881444454193115 -2.5
7.191650390625 1.7725781202316284 -2.5
6.814169883728027 2.9032421112060547 -2.5
5.904858112335205 4.437226295471191 -2.493030548095703
5.206152439117432 4.612255573272705 -2.347599983215332
4.398876667022705 5.387646198272705 -2.347599983215332
3.9510886669158936 5.724140644073486 -2.347599983215332
2.981699228286743 6.28380823135376 -2.347599983215332
1.935097575187683 6.680732250213623 -2.347599983215332
1.3912451267242432 6.814785003662109 -2.347599983215332
0.2800585925579071 6.94970703125 -2.347599983215332
-0.2800585925579071 6.94970703125 -2.347599983215332
-0.83837890625 6.904628753662109 -2.347599983215332
-2.4664013385772705 6.503359317779541 -2.347599983215332
-4.398881912231445 5.387646198272705 -2.347599983215332
-4.818134784698486 5.016211032867432 -2.347599983215332
-5.397255897521973 4.781552791595459 -2.433774948120117
-5.919662952423096 4.448329925537109 -2.499281167984009
-6.814169883728027 2.9032421112060547 -2.5
-7.310956954956055 1.1881542205810547 -2.5
7.144594669342041 -9.765624781721272e-06 -2.5
7.121420860290527 0.5748925805091858 -2.5
7.052070140838623 1.1460741758346558 -2.5
6.572880744934082 2.8004491329193115 -2.5
6.038539886474609 3.818535089492798 -2.5
5.700644493103027 4.283750057220459 -2.495169162750244
3.8111865520477295 5.521445274353027 -2.347599983215332
2.3790674209594727 6.273085594177246 -2.347599983215332
1.8665771484375 6.444179534912109 -2.347599983215332
1.3419872522354126 6.573466777801514 -2.347599983215332
0.8086913824081421 6.660136699676514 -2.347599983215332
-1.341982364654541 6.573456764221191 -2.347599983215332
-1.8665771484375 6.444159984588623 -2.347599983215332
-2.3790576457977295 6.273085594177246 -2.347599983215332
-3.3545262813568115 5.810214519500732 -2.347599983215332
-4.243114948272705 5.196865081787109 -2.347599983215332
-5.711684226989746 4.292060375213623 -2.5
-6.038530349731445 3.818544864654541 -2.5
-6.326215744018555 3.320253849029541 -2.5
-6.776904106140137 2.262441396713257 -2.5
-7.052065372467041 1.1460741758346558 -2.5
6.876039981842041 0.5550878643989563 -2.5
6.809067249298096 1.1065624952316284 -2.5
6.697954177856445 1.65090811252594 -2.5
6.543388366699219 2.1844921112060547 -2.5
6.346391677856445 2.7039451599121094 -2.5
5.83047342300415 3.686962842941284 -2.5
3.6798582077026367 5.331191062927246 -2.347599983215332
3.238945245742798 5.610019207000732 -2.347599983215332
2.777026414871216 5.852441310882568 -2.347599983215332
1.8022558689117432 6.222118854522705 -2.347599983215332
-0.26084470748901367 6.472626686096191 -2.347599983215332
-0.7808251976966858 6.430644512176514 -2.347599983215332
-1.295742154121399 6.346962928771973 -2.347599983215332
-1.8022607564926147 6.222128868103027 -2.347599983215332
-3.238945245742798 5.610009670257568 -2.347599983215332
-4.096904277801514 5.017802715301514 -2.347599983215332
-4.487387657165527 4.671855449676514 -2.347599983215332
-5.153388500213623 4.565527439117432 -2.495093822479248
-5.514877796173096 4.144160270690918 -2.5
-5.830463886260986 3.686962842941284 -2.5
-6.108237266540527 3.2058398723602295 -2.5
-6.809072017669678 1.1065820455551147 -2.5
6.666840553283691 0.0 -2.5
6.580507755279541 1.069423794746399 -2.5
6.473114967346191 1.5954785346984863 -2.5
6.323750019073486 2.1111717224121094 -2.5
5.9031982421875 3.0982322692871094 -2.5
5.634750843048096 3.5631933212280273 -2.5
5.32778787612915 4.003554821014404 -2.4990739822387695
4.922705173492432 4.361132621765137 -2.4661853313446045
4.336757659912109 4.515038967132568 -2.347599983215332
3.9593799114227295 4.849355220794678 -2.347599983215332
3.55633282661438 5.152226448059082 -2.347599983215332
3.1302146911621094 5.421699047088623 -2.347599983215332
2.6838035583496094 5.655995845794678 -2.347599983215332
0.7546142339706421 6.214775085449219 -2.347599983215332
-0.7546142339706421 6.214775085449219 -2.347599983215332
-1.2522460222244263 6.133915901184082 -2.347599983215332
-1.741762638092041 6.013261795043945 -2.347599983215332
-2.219975471496582 5.853603363037109 -2.347599983215332
-3.55633282661438 5.152235984802246 -2.347599983215332
-3.9593799114227295 4.849365234375 -2.347599983215332
-4.437724590301514 4.620175838470459 -2.402261257171631
-4.984418869018555 4.415810585021973 -2.4971022605895996
-5.329760551452637 4.005048751831055 -2.5
-5.9031982421875 3.098222494125366 -2.5
-6.133349418640137 2.613173723220825 -2.5
-6.323735237121582 2.1111717224121094 -2.5
-6.580502986907959 1.069433569908142 -2.5
6.427656173706055 0.5189062356948853 -2.5
5.450258731842041 3.446533203125 -2.5
4.814765453338623 4.265507698059082 -2.493757724761963
4.194765567779541 4.367207050323486 -2.347599983215332
3.8297460079193115 4.690576076507568 -2.347599983215332
3.439892530441284 4.983534812927246 -2.347599983215332
2.5959277153015137 5.470800876617432 -2.347599983215332
2.147289991378784 5.661952972412109 -2.347599983215332
1.2112499475479126 5.933085918426514 -2.347599983215332
0.729907214641571 6.011308670043945 -2.347599983215332
-0.729907214641571 6.011308670043945 -2.347599983215332
-1.211245059967041 5.933085918426514 -2.347599983215332
-2.147294759750366 5.661952972412109 -2.347599983215332
-2.5959277153015137 5.470810413360596 -2.347599983215332
-3.439897298812866 4.983554363250732 -2.347599983215332
-3.8297507762908936 4.690595626831055 -2.347599983215332
-4.824872970581055 4.274482250213623 -2.498997926712036
-6.261176586151123 1.54324209690094 -2.5
6.222187519073486 0.5022948980331421 -2.5
5.742900371551514 2.4468164443969727 -2.5
5.276025295257568 3.336367130279541 -2.5
4.990454196929932 3.750077962875366 -2.5
4.664648532867432 4.132519245147705 -2.495788097381592
4.137924671173096 4.308017253875732 -2.3922603130340576
3.3299267292022705 4.824228286743164 -2.347599983215332
2.9309375286102295 5.076542854309082 -2.347599983215332
1.172524333000183 5.743417739868164 -2.347599983215332
-0.7065673470497131 5.819130897521973 -2.347599983215332
-1.1725341081619263 5.743408203125 -2.347599983215332
-2.512949228286743 5.295917987823486 -2.347599983215332
-2.9309422969818115 5.076523303985596 -2.347599983215332
-3.3299314975738525 4.82421875 -2.347599983215332
-3.7073240280151367 4.540644645690918 -2.347599983215332
-5.527392387390137 2.901005744934082 -2.5
-6.161577224731445 1.0013476610183716 -2.5
-6.222172737121582 0.5023046731948853 -2.5
6.047377586364746 0.0 -2.5
5.969072341918945 0.9700585603713989 -2.5
5.871650218963623 1.4472460746765137 -2.5
5.563461780548096 2.370361328125 -2.5
5.354697227478027 2.810351610183716 -2.5
4.834526062011719 3.6329100131988525 -2.5
3.591494083404541 4.398769378662109 -2.347599983215332
2.839370012283325 4.917919635772705 -2.347599983215332
2.0137059688568115 5.309706687927246 -2.347599983215332
1.135888695716858 5.56396484375 -2.347599983215332
-0.2286669909954071 5.674111366271973 -2.347599983215332
-1.135888695716858 5.56396484375 -2.347599983215332
-2.0136961936950684 5.309687614440918 -2.347599983215332
-2.4344236850738525 5.130449295043945 -2.347599983215332
-2.839360237121582 4.917919635772705 -2.347599983215332
-3.686039924621582 4.514570236206055 -2.4094090461730957
-5.563457012176514 2.370361328125 -2.5
-5.871645450592041 1.4472265243530273 -2.5
-6.027773380279541 0.4866015613079071 -2.5
5.862524509429932 0.0 -2.5
5.69216775894165 1.4029881954193115 -2.5
5.393398284912109 2.297910213470459 -2.5
5.191005706787109 2.724433422088623 -2.5
4.954946041107178 3.133310556411743 -2.5
4.686748027801514 3.521865129470825 -2.5
4.050517559051514 4.217031002044678 -2.4934768676757812
3.483696222305298 4.266747951507568 -2.3489413261413574
3.1272802352905273 4.530634880065918 -2.347599983215332
1.9521533250808716 5.147392272949219 -2.347599983215332
1.101171851158142 5.393886566162109 -2.347599983215332
0.66357421875 5.464999675750732 -2.347599983215332
-0.6635791063308716 5.464999675750732 -2.347599983215332
-1.1011669635772705 5.393877029418945 -2.347599983215332
-2.3600049018859863 4.973613262176514 -2.347599983215332
-3.1272802352905273 4.530634880065918 -2.347599983215332
-3.674428701400757 4.500351428985596 -2.4775445461273193
-4.057553768157959 4.224374771118164 -2.4978129863739014
-4.686748027801514 3.521865129470825 -2.5
-5.191000938415527 2.724443197250366 -2.5
-5.560810565948486 1.85647451877594 -2.5
-5.69216775894165 1.4029881954193115 -2.5
5.687021255493164 0.0 -2.5
5.613383769989014 0.91224604845047 -2.5
5.521772384643555 1.360986351966858 -2.5
5.231947898864746 2.229120969772339 -2.5
4.256796836853027 3.7712011337280273 -2.5
3.469545841217041 4.249423503875732 -2.4115960597991943
2.670170783996582 4.624873161315918 -2.347599983215332
1.0682079792022705 5.232421875 -2.347599983215332
-0.21503905951976776 5.336005687713623 -2.347599983215332
-0.6437109112739563 5.301405906677246 -2.347599983215332
-1.068212866783142 5.232411861419678 -2.347599983215332
-1.4857763051986694 5.129492282867432 -2.347599983215332
-1.8937108516693115 4.993310451507568 -2.347599983215332
-2.289365291595459 4.824726581573486 -2.347599983215332
-2.670170783996582 4.624873161315918 -2.347599983215332
-4.546445369720459 3.416435480117798 -2.5
-4.806621074676514 3.0395116806030273 -2.5
-5.394350528717041 1.8008886575698853 -2.5
-5.613373756408691 0.9122753739356995 -2.5
5.520165920257568 9.765624781721272e-06 -2.5
5.502260684967041 0.4442089796066284 -2.5
5.359755516052246 1.3210742473602295 -2.5
5.236079216003418 1.748046875 -2.5
4.413056373596191 3.3162012100219727 -2.5
3.45928692817688 4.236835956573486 -2.4771387577056885
2.5918262004852295 4.489169597625732 -2.347599983215332
2.2221922874450684 4.683164119720459 -2.347599983215332
