ply
format ascii 1.0
element vertex 910
property float x
property float y
property float z
end_header
-20.602069854736328 15.4814453125 6.600010395050049
0.9932324290275574 24.647001266479492 6.02692174911499
-0.7915917634963989 19.64346694946289 4.803408145904541
-1.9801025390625 16.307598114013672 4.013720989227295
-2.8381543159484863 13.90218734741211 3.466803550720215
-3.494135618209839 12.063173294067383 3.06856632232666
-4.018002986907959 10.594609260559082 2.7685039043426514
-15.734780311584473 13.939794540405273 5.136199951171875
-20.83403205871582 15.65576171875 6.36744499206543
-0.7915966510772705 19.643457412719727 4.573162078857422
-2.8381543159484863 13.90218734741211 3.30062198638916
-3.494135618209839 12.063173294067383 2.9214770793914795
-7.714164733886719 11.175878524780273 3.1589109897613525
-9.592573165893555 11.748798370361328 3.528247594833374
-15.734760284423828 13.93978500366211 4.8899970054626465
-21.094955444335938 15.851835250854492 6.138153076171875
0.9932324290275574 24.647001266479492 5.450623035430908
-0.7713574171066284 19.14111328125 4.233006477355957
-3.494135618209839 12.063173294067383 2.7751457691192627
-4.018002986907959 10.594609260559082 2.503782272338867
-7.714174747467041 11.175898551940918 3.0006909370422363
-9.592577934265137 11.748798370361328 3.3515257835388184
-4.979018211364746 5.183711051940918 1.5882312059402466
0.9932324290275574 24.647001266479492 5.164618968963623
-2.8381543159484863 13.90218734741211 2.9707837104797363
-3.494135618209839 12.063173294067383 2.629525661468506
-4.756264686584473 10.023612976074219 2.32296085357666
-6.054502010345459 10.48671817779541 2.5353050231933594
-9.592573165893555 11.748798370361328 3.1756627559661865
-4.978891372680664 5.183583736419678 1.5048519372940063
-15.309882164001465 13.563368797302246 4.282480239868164
-21.094905853271484 15.851816177368164 5.524741172790527
-0.7915966510772705 19.643457412719727 3.8892698287963867
-1.9801025390625 16.307598114013672 3.2498674392700195
-6.054506778717041 10.48671817779541 2.3955578804016113
-7.714174747467041 11.175898551940918 2.686514139175415
-9.592573165893555 11.748798370361328 3.0006158351898193
-4.978759765625 5.183427810668945 1.421865463256836
-15.557578086853027 13.782812118530273 4.111891269683838
-21.09491729736328 15.851825714111328 5.220215797424316
-4.756264686584473 10.023612976074219 2.0674307346343994
-6.054502010345459 10.48671817779541 2.2564194202423096
-4.978627681732178 5.183300495147705 1.3392455577850342
-15.734769821166992 13.93978500366211 3.9171788692474365
-0.7915966510772705 19.643457412719727 3.4384093284606934
-1.9800976514816284 16.307598114013672 2.8731322288513184
-2.8381543159484863 13.90218734741211 2.481630802154541
-3.494135618209839 12.063163757324219 2.1965627670288086
-4.756264686584473 10.023612976074219 1.9404723644256592
-6.054496765136719 10.486708641052246 2.1178548336029053
-9.592577934265137 11.748798370361328 2.6527726650238037
-4.978496074676514 5.183164119720459 1.256970763206482
-21.094926834106445 15.851825714111328 4.615071773529053
0.990039050579071 24.567733764648438 4.020090103149414
-0.7915966510772705 19.643457412719727 3.21431565284729
-1.9800976514816284 16.307598114013672 2.6858787536621094
-2.8381543159484863 13.902167320251465 2.3198931217193604
-4.756264686584473 10.023612976074219 1.8140051364898682
-6.054506778717041 10.48671817779541 1.97982656955719
-7.753041744232178 11.232216835021973 2.231478452682495
-9.592582702636719 11.748788833618164 2.4798829555511475
-2.8381543159484863 13.90218734741211 2.158742904663086
-4.018002986907959 10.594609260559082 1.7239229679107666
-4.756264686584473 10.023612976074219 1.687996506690979
-6.054506778717041 10.48671817779541 1.8422991037368774
-4.978193283081055 5.182841777801514 1.0933581590652466
-15.734774589538574 13.93978500366211 3.1982598304748535
-21.09493637084961 15.851825714111328 4.014598369598389
-23.67459487915039 12.425360679626465 4.067864894866943
0.9932324290275574 24.647001266479492 3.473701000213623
-3.494135618209839 12.063173294067383 1.7686055898666382
-4.018002986907959 10.594609260559082 1.5956640243530273
-6.054506778717041 10.48671817779541 1.7052336931228638
-9.592573165893555 11.748798370361328 2.135932683944702
-4.977919578552246 5.182568073272705 1.0119585990905762
-15.734769821166992 13.93978500366211 2.9603118896484375
-23.671932220458984 12.42397403717041 3.7647972106933594
-24.359115600585938 10.378437042236328 3.7287065982818604
0.9932324290275574 24.647001266479492 3.1953392028808594
-2.8381543159484863 13.90218734741211 1.8380242586135864
-4.756264686584473 10.023612976074219 1.437214970588684
-6.054502010345459 10.48671817779541 1.5685937404632568
-4.977651119232178 5.182284832000732 0.9308202862739563
-15.734780311584473 13.939794540405273 2.72310471534729
-21.09493637084961 15.851825714111328 3.418160915374756
-23.673505783081055 12.4248046875 3.463355541229248
-24.3853759765625 10.389638900756836 3.4336254596710205
0.9932372570037842 24.647001266479492 2.917795419692993
-1.9801025390625 16.307598114013672 1.9431548118591309
-4.018002986907959 10.594609260559082 1.3403106927871704
-6.054506778717041 10.48671817779541 1.432347059249878
-7.753041744232178 11.232216835021973 1.61440908908844
-9.592582702636719 11.748788833618164 1.7941229343414307
-15.734769821166992 13.93978500366211 2.4865760803222656
-21.094926834106445 15.851825714111328 3.1212620735168457
-23.670244216918945 12.42308521270752 3.1620945930480957
0.9932324290275574 24.647001266479492 2.6409740447998047
-1.9801025390625 16.307598114013672 1.75879967212677
-2.8381543159484863 13.90218734741211 1.5191411972045898
-4.683222770690918 9.869677543640137 1.1696264743804932
-5.93728494644165 10.283671379089355 1.2713552713394165
-7.625199794769287 11.047001838684082 1.4371490478515625
-9.592582702636719 11.748788833618164 1.6239080429077148
-23.66660499572754 12.421191215515137 2.8616552352905273
0.9932324290275574 24.647001266479492 2.3648083209991455
-4.018002986907959 10.594609260559082 1.0862923860549927
-4.756264686584473 10.023612976074219 1.0636553764343262
-9.592582702636719 11.748788833618164 1.4540966749191284
-21.094945907592773 15.851835250854492 2.529716730117798
0.9932324290275574 24.647001266479492 2.0892398357391357
-1.8905272483825684 15.569902420043945 1.328420639038086
-2.7915966510772705 13.674150466918945 1.1820577383041382
-3.494135618209839 12.063163757324219 1.0637201070785522
-4.756264686584473 10.023612976074219 0.939705491065979
-7.477563381195068 10.833125114440918 1.1148947477340698
-21.09493637084961 15.851835250854492 2.2349226474761963
-23.65218734741211 12.413613319396973 2.2624316215515137
-24.37582015991211 10.385565757751465 2.244152069091797
-0.7915917634963989 19.64346694946289 1.445884346961975
-2.8381543159484863 13.90218734741211 1.0435482263565063
-3.494135618209839 12.063173294067383 0.923675537109375
-4.018002986907959 10.594609260559082 0.8333541750907898
-4.756264686584473 10.023612976074219 0.8159878253936768
-9.592582702636719 11.748788833618164 1.115517497062683
0.9932324290275574 24.647001266479492 1.5395656824111938
-0.7786181569099426 19.32133674621582 1.2069000005722046
-2.8381543159484863 13.902167320251465 0.8855865001678467
-4.976049900054932 5.180605411529541 0.4483382999897003
-15.734780311584473 13.939794540405273 1.312031865119934
-21.094945907592773 15.851825714111328 1.6469216346740723
0.97694331407547 24.242841720581055 1.244584321975708
-0.7916015386581421 19.64344596862793 1.008459448814392
-1.9525293111801147 16.080507278442383 0.8309332132339478
-2.8381543159484863 13.902167320251465 0.7278454303741455
-3.494135618209839 12.063173294067383 0.6442348957061768
-4.018002986907959 10.594609260559082 0.581242024898529
-4.756264686584473 10.023612976074219 0.5691262483596802
-7.753041744232178 11.232216835021973 0.7001043558120728
-4.975786209106445 5.180351257324219 0.36845946311950684
-21.094926834106445 15.851825714111328 1.353564977645874
12.933080673217773 22.400741577148438 1.0396090745925903
-0.7915966510772705 19.643457412719727 0.790147066116333
-1.9607031345367432 16.147871017456055 0.6537728905677795
-2.8381543159484863 13.902167320251465 0.5702785849571228
-3.494135618209839 12.063173294067383 0.5047698616981506
-4.018002986907959 10.594609260559082 0.4554125964641571
-6.054502010345459 10.48671817779541 0.48668304085731506
-7.753041744232178 11.232216835021973 0.5485445857048035
-9.592582702636719 11.748788833618164 0.6096078157424927
-4.975522518157959 5.180068016052246 0.28867918252944946
12.933080673217773 22.400741577148438 0.7526281476020813
10.738805770874023 22.631542205810547 0.7288851737976074
0.9846777319908142 24.43477439880371 0.7115545272827148
-0.7915966510772705 19.643457412719727 0.5720285177230835
-1.9607031345367432 16.147871017456055 0.4733206033706665
-6.054506778717041 10.48671817779541 0.35233551263809204
-4.975253582000732 5.179785251617432 0.20897887647151947
-21.094945907592773 15.851835250854492 0.7677831649780273
12.933080673217773 22.400741577148438 0.4658319056034088
10.738801002502441 22.631542205810547 0.4511352479457855
0.9846777319908142 24.434783935546875 0.4404086172580719
-1.9607031345367432 16.147871017456055 0.2929571568965912
-3.494135618209839 12.063173294067383 0.2261785864830017
-4.018002986907959 10.594609260559082 0.20406249165534973
-7.753041744232178 11.232216835021973 0.2457931488752365
-15.734780311584473 13.939794540405273 0.3785800039768219
-21.094926834106445 15.851825714111328 0.4752105474472046
12.933075904846191 22.4007511138916 0.17914916574954987
-1.9607031345367432 16.147871017456055 0.11265899240970612
-3.494135618209839 12.063173294067383 0.08698303252458572
-4.756264686584473 10.023612976074219 0.07684173434972763
-7.753041744232178 11.232216835021973 0.09452636539936066
-9.592582702636719 11.748788833618164 0.10504882782697678
-4.974721431732178 5.179247856140137 0.04973769932985306
12.933080673217773 22.4007511138916 -0.10748916119337082
10.738805770874023 22.631542205810547 -0.10409850627183914
-4.018002986907959 10.594609260559082 -0.0470857210457325
-9.592582702636719 11.748788833618164 -0.06303085386753082
-15.734760284423828 13.93978500366211 -0.0873577892780304
0.9846777319908142 24.43477439880371 -0.37264326214790344
-0.7915917634963989 19.64346694946289 -0.29957306385040283
-1.9607031345367432 16.147871017456055 -0.24786238372325897
-2.8381543159484863 13.902167320251465 -0.21621322631835938
-3.494135618209839 12.063173294067383 -0.19137634336948395
-4.018002986907959 10.594609260559082 -0.17266036570072174
-4.756264686584473 10.023612976074219 -0.1690644770860672
-6.054496765136719 10.486708641052246 -0.18451888859272003
-7.753041744232178 11.232206344604492 -0.2079727053642273
-4.974194049835205 5.178691387176514 -0.10941924899816513
-21.094926834106445 15.851825714111328 -0.40208983421325684
12.933080673217773 22.400741577148438 -0.680909276008606
10.738805770874023 22.631542205810547 -0.6594311594963074
0.9846777319908142 24.434783935546875 -0.6437528729438782
-0.7915966510772705 19.643457412719727 -0.5175217986106873
-3.494135618209839 12.063173294067383 -0.3306088149547577
-6.054506778717041 10.48671817779541 -0.3187638819217682
-7.75304651260376 11.232216835021973 -0.3592797815799713
-9.592582702636719 11.748788833618164 -0.39927399158477783
14.172182083129883 20.53194236755371 -0.9334928393363953
12.933080673217773 22.400741577148438 -0.9678411483764648
10.738805770874023 22.631542205810547 -0.9373075366020203
0.9846777319908142 24.434783935546875 -0.9150263667106628
-4.756264686584473 10.023612976074219 -0.4151385426521301
-6.054511547088623 10.48672866821289 -0.4530871510505676
-7.753041744232178 11.232216835021973 -0.5106779336929321
-21.0949649810791 15.851835250854492 -0.9873345494270325
14.172189712524414 20.53194236755371 -1.2104687690734863
8.54720687866211 22.537109375 -1.169482707977295
0.977221667766571 24.249881744384766 -1.1775437593460083
-0.7915966510772705 19.643457412719727 -0.9538613557815552
-4.018002986907959 10.594609260559082 -0.5497691035270691
-4.756264686584473 10.023612976074219 -0.5383134484291077
-6.054506778717041 10.48671817779541 -0.5875216722488403
-7.753041744232178 11.232216835021973 -0.6622001528739929
-20.643070220947266 15.512274742126465 -1.2528589963912964
11.698554039001465 20.26249885559082 -1.3952465057373047
8.5447359085083 22.530614852905273 -1.4369536638259888
-0.7829198837280273 19.428075790405273 -1.1595014333724976
-2.8381543159484863 13.902167320251465 -0.8461332321166992
-4.018002986907959 10.594609260559082 -0.6756986975669861
-6.054506778717041 10.48671817779541 -0.722101092338562
-7.753041744232178 11.232216835021973 -0.8138854503631592
-9.592577934265137 11.748798370361328 -0.9044860601425171
-15.397705078125 13.6411714553833 -1.2267248630523682
-21.09491729736328 15.851825714111328 -1.5735474824905396
14.61449146270752 2.3750877380371094 -1.0477181673049927
11.698554039001465 20.26249885559082 -1.6556257009506226
8.544740676879883 22.53060531616211 -1.7051156759262085
-0.7796581983566284 19.347148895263672 -1.3701547384262085
-1.9625487327575684 16.16304588317871 -1.1521307229995728
-2.8381543159484863 13.902167320251465 -1.0040372610092163
-3.0164990425109863 10.41415023803711 -0.7672173976898193
-4.756264686584473 10.023612976074219 -0.7850918173789978
-6.054502010345459 10.48671817779541 -0.856858491897583
-7.753041744232178 11.232216835021973 -0.9657717943191528
-4.972876071929932 5.177304744720459 -0.5079673528671265
-15.66146469116211 13.874853134155273 -1.4805893898010254
13.963808059692383 2.269355535507202 -1.1587551832199097
14.901337623596191 3.672861337661743 -1.2570713758468628
22.91309928894043 17.21806526184082 -2.347599983215332
21.453304290771484 19.00599479675293 -2.347599983215332
18.12672233581543 22.201210021972656 -2.347599983215332
8.432870864868164 22.23564338684082 -1.947861909866333
5.733007907867432 28.082138061523438 -2.347599983215332
3.4547362327575684 28.452362060546875 -2.347599983215332
-0.7916015386581421 19.64344596862793 -1.610264539718628
-1.9607031345367432 16.147871017456055 -1.3323577642440796
-4.018002986907959 10.594609260559082 -0.9280985593795776
-6.054506778717041 10.48671817779541 -0.9918296337127686
-4.972607135772705 5.177041053771973 -0.5879507064819336
-25.37834930419922 13.319580078125 -2.347599983215332
13.55672836303711 2.203193426132202 -1.2783420085906982
14.454106330871582 3.562626838684082 -1.385573148727417
25.47783660888672 8.505742073059082 -2.5
20.16414451599121 15.152382850646973 -2.347599983215332
17.4724063873291 18.190732955932617 -2.347599983215332
8.189326286315918 21.593456268310547 -2.1494851112365723
3.0402586460113525 25.03885269165039 -2.347599983215332
-1.9788427352905273 16.297266006469727 -1.528003215789795
-2.7748045921325684 13.591864585876465 -1.291151523590088
-3.0164990425109863 10.41415023803711 -1.0091363191604614
-4.018002986907959 10.594609260559082 -1.0546231269836426
-4.756264686584473 10.023612976074219 -1.0326467752456665
-6.047084808349609 10.473847389221191 -1.1256606578826904
-7.461864948272705 10.810370445251465 -1.2225892543792725
-9.477290153503418 11.607587814331055 -1.394739031791687
-4.972343444824219 5.176747798919678 -0.6681237816810608
-15.734769821166992 13.93978500366211 -1.9565632343292236
-20.164140701293945 15.152382850646973 -2.347599983215332
-21.318021774291992 13.480692863464355 -2.347599983215332
-22.33365249633789 11.72158145904541 -2.347599983215332
-24.64128875732422 10.498661994934082 -2.492969274520874
23.97758674621582 0.0 -2.5
13.176820755004883 2.1414451599121094 -1.3918923139572144
14.011283874511719 3.453486204147339 -1.504594087600708
21.231082916259766 11.142939567565918 -2.5
19.030208587646484 12.0339937210083 -2.347599983215332
18.00017547607422 13.526249885559082 -2.347599983215332
15.597294807434082 16.238525390625 -2.347599983215332
7.984257698059082 21.052724838256836 -2.347599983215332
2.713984251022339 22.351728439331055 -2.347599983215332
0.9066210985183716 22.497655868530273 -2.347599983215332
-0.7915966510772705 19.643457412719727 -2.049766778945923
-1.9801025390625 16.307598114013672 -1.7127848863601685
-2.821464776992798 13.820419311523438 -1.4706945419311523
-3.0164990425109863 10.41415023803711 -1.130456566810608
-3.966259717941284 10.458173751831055 -1.1661968231201172
-7.524638652801514 10.901298522949219 -1.3810900449752808
-9.592582702636719 11.748788833618164 -1.5814203023910522
-15.73476505279541 13.939794540405273 -2.1917812824249268
-18.000165939331055 13.526249885559082 -2.347599983215332
-22.02714729309082 9.384892463684082 -2.4964020252227783
-23.28084945678711 5.738193035125732 -2.5
-23.667083740234375 3.8462791442871094 -2.5
-23.89981460571289 1.9293749332427979 -2.5
21.648900985717773 -1.9531249563442543e-05 -2.5
21.57870101928711 1.7420116662979126 -2.5
13.703925132751465 3.3777246475219727 -1.6298812627792358
18.000595092773438 9.447431564331055 -2.347599983215332
15.216586112976074 13.480761528015137 -2.347599983215332
10.564824104309082 12.939579963684082 -1.9290499687194824
10.164599418640137 17.60564422607422 -2.347599983215332
0.8185644149780273 20.31267547607422 -2.347599983215332
-0.7915966510772705 19.643457412719727 -2.2702548503875732
-2.8381543159484863 13.90218734741211 -1.6385283470153809
-3.92608380317688 10.352246284484863 -1.278555989265442
-9.592582702636719 11.748788833618164 -1.7515281438827515
-4.971806526184082 5.176200866699219 -0.8288212418556213
-15.2166109085083 13.480722427368164 -2.347599983215332
-16.252012252807617 12.212587356567383 -2.347599983215332
-18.000585556030273 9.44742202758789 -2.347599983215332
-20.534759521484375 6.85549783706665 -2.5
19.72799301147461 9.765624781721272e-06 -2.5
13.120258331298828 2.1322460174560547 -1.6844592094421387
13.507055282592773 3.3291990756988525 -1.7628881931304932
18.712709426879883 6.247216701507568 -2.5
18.149335861206055 7.732724666595459 -2.5
16.403392791748047 8.609160423278809 -2.347599983215332
14.809969902038574 11.1289644241333 -2.347599983215332
12.832963943481445 13.360546112060547 -2.347599983215332
10.5648193359375 12.939589500427246 -2.116880416870117
9.256093978881836 13.409785270690918 -2.064842462539673
9.262685775756836 16.043466567993164 -2.347599983215332
7.941694259643555 16.736757278442383 -2.347599983215332
6.569189071655273 17.321523666381836 -2.347599983215332
5.154086589813232 17.793935775756836 -2.347599983215332
-0.7459374666213989 18.510351181030273 -2.347599983215332
-1.9800976514816284 16.307598114013672 -2.0817346572875977
-2.8381543159484863 13.902167320251465 -1.7980715036392212
-3.0164990425109863 10.41415023803711 -1.3739653825759888
-4.696479320526123 9.89760684967041 -1.388300895690918
-7.625199794769287 11.047001838684082 -1.7010248899459839
-9.592582702636719 11.748788833618164 -1.9220739603042603
-4.971538066864014 5.175917625427246 -0.9094932079315186
-14.809965133666992 11.1289644241333 -2.347599983215332
-15.657450675964355 9.901171684265137 -2.347599983215332
-16.403392791748047 8.609160423278809 -2.347599983215332
-18.14933967590332 7.732714653015137 -2.5
18.116064071655273 0.0 -2.5
13.492382049560547 3.325576066970825 -1.917660117149353
16.666391372680664 7.100898265838623 -2.5
15.063115119934082 7.905742168426514 -2.347599983215332
12.733442306518555 11.28084945678711 -2.347599983215332
11.78441333770752 12.268866539001465 -2.347599983215332
7.292783260345459 15.36922836303711 -2.347599983215332
0.6849902272224426 16.99789047241211 -2.347599983215332
-0.6849902272224426 16.99789047241211 -2.347599983215332
-3.0164990425109863 10.41415023803711 -1.4962164163589478
-4.018002986907959 10.594609260559082 -1.5636608600616455
-6.054506778717041 10.48671817779541 -1.6710342168807983
-9.592582702636719 11.748788833618164 -2.0930964946746826
-4.971269607543945 5.175644397735596 -0.9903178215026855
-12.733442306518555 11.280839920043945 -2.347599983215332
-13.59987735748291 10.21963882446289 -2.347599983215332
-14.378114700317383 9.092147827148438 -2.347599983215332
-15.063115119934082 7.905722618103027 -2.347599983215332
-17.183734893798828 5.736767292022705 -2.5
-17.58963394165039 4.335458755493164 -2.5
-18.05730438232422 1.4577147960662842 -2.5
16.7437744140625 -9.765624781721272e-06 -2.5
13.109359741210938 2.1304686069488525 -1.983029842376709
13.492392539978027 3.325576066970825 -2.074831485748291
13.922075271606445 7.306855201721191 -2.347599983215332
13.288969039916992 8.403447151184082 -2.347599983215332
10.891742706298828 11.33951187133789 -2.347599983215332
9.943979263305664 12.17918872833252 -2.347599983215332
7.861523151397705 13.616552352905273 -2.347599983215332
1.895205020904541 15.608427047729492 -2.347599983215332
0.6330956816673279 15.710311889648438 -2.347599983215332
-1.8764599561691284 15.454051971435547 -2.3243825435638428
-2.8381543159484863 13.90218734741211 -2.118540048599243
-6.054506778717041 10.48671817779541 -1.8079897165298462
-7.625199794769287 11.047011375427246 -2.0041966438293457
-9.592582702636719 11.748788833618164 -2.264643907546997
-4.971000671386719 5.175361156463623 -1.0714154243469238
-11.768877029418945 10.426318168640137 -2.347599983215332
-13.922075271606445 7.306865215301514 -2.347599983215332
-16.526927947998047 2.6858787536621094 -2.5
-16.689462661743164 1.3473047018051147 -2.5
15.561098098754883 9.765624781721272e-06 -2.5
15.510634422302246 1.2521483898162842 -2.5
13.160985946655273 2.1388866901397705 -2.1421470642089844
9.298710823059082 5.88015604019165 -1.7675378322601318
11.68185043334961 8.778329849243164 -2.347599983215332
10.122416496276855 10.53857421875 -2.347599983215332
8.3008394241333 12.025810241699219 -2.347599983215332
-0.5883740186691284 14.600634574890137 -2.347599983215332
-1.7613378763198853 14.505937576293945 -2.347599983215332
-4.018002986907959 10.594609260559082 -1.8203967809677124
-6.054502010345459 10.48671817779541 -1.9453997611999512
-7.625199794769287 11.047001838684082 -2.1565189361572266
-9.241591453552246 11.3189058303833 -2.347599983215332
-10.937597274780273 9.689872741699219 -2.347599983215332
-12.350317001342773 7.809882640838623 -2.347599983215332
-12.93871021270752 6.790761470794678 -2.347599983215332
-14.315878868103027 6.099423885345459 -2.5
-14.760258674621582 4.927695274353027 -2.5
-15.108905792236328 3.723994016647339 -2.5
-15.359575271606445 2.496171712875366 -2.5
-15.510629653930664 1.2521288394927979 -2.5
14.5310640335083 -1.9531249563442543e-05 -2.5
13.49239730834961 3.325576066970825 -2.390773296356201
13.78323745727539 4.601513385772705 -2.5
13.368266105651855 5.695693016052246 -2.5
12.082260131835938 6.341259479522705 -2.347599983215332
10.908597946166992 8.197275161743164 -2.347599983215332
10.213598251342773 9.048505783081055 -2.347599983215332
8.629867553710938 10.569677352905273 -2.347599983215332
7.751381874084473 11.229814529418945 -2.347599983215332
5.849614143371582 12.32779312133789 -2.347599983215332
4.838666915893555 12.758515357971191 -2.347599983215332
3.796342611312866 13.106484413146973 -2.347599983215332
2.7294092178344727 13.369511604309082 -2.347599983215332
1.644750952720642 13.545761108398438 -2.347599983215332
0.5494287014007568 13.63417911529541 -2.347599983215332
-0.5494335889816284 13.63417911529541 -2.347599983215332
-1.644750952720642 13.545751571655273 -2.347599983215332
-2.729433536529541 13.3696870803833 -2.347599983215332
-6.054502010345459 10.48671817779541 -2.0832996368408203
-7.625199794769287 11.047001838684082 -2.309385061264038
-8.629862785339355 10.569677352905273 -2.347599983215332
-4.970458984375 5.174794673919678 -1.2344242334365845
-10.213613510131836 9.048466682434082 -2.347599983215332
-11.532821655273438 7.292919635772705 -2.347599983215332
-13.368266105651855 5.695683479309082 -2.5
-13.78323745727539 4.601513385772705 -2.5
-14.108803749084473 3.4774999618530273 -2.5
-14.483925819396973 1.1692675352096558 -2.5
13.625673294067383 9.765624781721272e-06 -2.5
13.229741096496582 3.2608397006988525 -2.5
12.92446231842041 4.314804553985596 -2.5
12.535341262817383 5.3408203125 -2.5
11.877943992614746 6.234023094177246 -2.461254119873047
10.22891616821289 7.686532974243164 -2.347599983215332
9.57723617553711 8.484686851501465 -2.347599983215332
8.092177391052246 9.911103248596191 -2.347599983215332
7.268417835235596 10.53011703491211 -2.347599983215332
6.397529125213623 11.080839157104492 -2.347599983215332
4.537192344665527 11.963583946228027 -2.347599983215332
0.515209972858429 12.784687042236328 -2.347599983215332
-2.559340715408325 12.5364351272583 -2.347599983215332
-3.0164990425109863 10.41415023803711 -1.9893003702163696
-6.054506778717041 10.48671817779541 -2.221729040145874
-7.268417835235596 10.530107498168945 -2.347599983215332
-9.57723617553711 8.4846773147583 -2.347599983215332
-10.22890567779541 7.686542987823486 -2.347599983215332
-13.5814790725708 1.0964062213897705 -2.5
12.657397270202637 2.0570409297943115 -2.5
12.45082950592041 3.06884765625 -2.5
12.163515090942383 4.060781002044678 -2.5
11.326679229736328 5.944706916809082 -2.493851900100708
9.146669387817383 5.784013748168945 -2.109812021255493
9.0133638381958 7.985146522521973 -2.347599983215332
8.341596603393555 8.684531211853027 -2.347599983215332
7.615742206573486 9.327588081359863 -2.347599983215332
6.84048318862915 9.91015625 -2.347599983215332
5.162207126617432 10.879130363464355 -2.347599983215332
4.270063400268555 11.259247779846191 -2.347599983215332
3.3502197265625 11.566288948059082 -2.347599983215332
0.4848925769329071 12.032206535339355 -2.347599983215332
-0.4848730266094208 12.031962394714355 -2.347599983215332
-4.018002986907959 10.594609260559082 -2.209028482437134
-6.020859241485596 10.428437232971191 -2.347599983215332
-9.0133638381958 7.98513650894165 -2.347599983215332
12.107514381408691 0.0 -2.5
12.06826114654541 0.9742285013198853 -2.5
11.484418869018555 3.834062337875366 -2.5
11.138671875 4.745751857757568 -2.5
9.089213371276855 6.83010721206665 -2.347599983215332
8.510146141052246 7.53933572769165 -2.347599983215332
7.875878810882568 8.199677467346191 -2.347599983215332
7.19054651260376 8.806816101074219 -2.347599983215332
5.684726238250732 9.846230506896973 -2.347599983215332
3.1631786823272705 10.920527458190918 -2.347599983215332
2.274179697036743 11.139687538146973 -2.347599983215332
1.3704345226287842 11.286542892456055 -2.347599983215332
0.4578027129173279 11.360214233398438 -2.347599983215332
-2.274179697036743 11.139667510986328 -2.347599983215332
-3.0164990425109863 10.41415023803711 -2.238739252090454
-4.018002986907959 10.594609260559082 -2.3396525382995605
-4.756264686584473 10.023612976074219 -2.2908952236175537
-5.684711933135986 9.846230506896973 -2.347599983215332
-7.19054651260376 8.806816101074219 -2.347599983215332
-8.510146141052246 7.539326190948486 -2.347599983215332
-10.698583602905273 5.615058422088623 -2.4948513507843018
-11.484414100646973 3.834062337875366 -2.5
-12.068246841430664 0.9742382764816284 -2.5
11.427343368530273 0.92249995470047 -2.5
10.547119140625 4.493710994720459 -2.5
10.143363952636719 5.323642253875732 -2.498037815093994
8.05819320678711 7.138935565948486 -2.347599983215332
6.808681488037109 8.339120864868164 -2.347599983215332
4.615151405334473 9.726210594177246 -2.347599983215332
3.8175535202026367 10.066054344177246 -2.347599983215332
2.995190382003784 10.340585708618164 -2.347599983215332
-0.43349120020866394 10.756914138793945 -2.347599983215332
-1.2976512908935547 10.687138557434082 -2.347599983215332
-2.995190382003784 10.340585708618164 -2.347599983215332
-3.8175342082977295 10.066054344177246 -2.347599983215332
-4.615151405334473 9.72622013092041 -2.347599983215332
-5.382817268371582 9.323320388793945 -2.347599983215332
-6.808676719665527 8.339111328125 -2.347599983215332
-8.606508255004883 6.467382431030273 -2.347599983215332
-9.0989990234375 5.753876686096191 -2.347599983215332
-10.13924789428711 5.321484088897705 -2.497026205062866
-10.874502182006836 3.630449056625366 -2.5
-11.131376266479492 2.743642568588257 -2.5
10.567445755004883 2.6046483516693115 -2.5
8.638036727905273 5.462372779846191 -2.347599983215332
8.170493125915527 6.139716625213623 -2.347599983215332
7.649955749511719 6.777265548706055 -2.347599983215332
6.46373987197876 7.916640281677246 -2.347599983215332
5.805756568908691 8.411093711853027 -2.347599983215332
5.110116958618164 8.850966453552246 -2.347599983215332
3.624150276184082 9.556083679199219 -2.347599983215332
2.0443115234375 10.013690948486328 -2.347599983215332
1.2319140434265137 10.145722389221191 -2.347599983215332
-1.231909155845642 10.145712852478027 -2.347599983215332
-3.624135732650757 9.556074142456055 -2.347599983215332
-5.805756568908691 8.411084175109863 -2.347599983215332
-6.463730335235596 7.916640281677246 -2.347599983215332
-7.649950981140137 6.777265548706055 -2.347599983215332
-10.012778282165527 4.266054630279541 -2.5
-10.323578834533691 3.4465136528015137 -2.5
-10.5674409866333 2.6046483516693115 -2.5
-10.74276351928711 1.7458691596984863 -2.5
-10.848402976989746 0.8757714629173279 -2.5
10.356362342834473 0.0 -2.5
10.32277774810791 0.8333398103713989 -2.5
9.82338809967041 3.279531240463257 -2.5
8.21950626373291 5.197714805603027 -2.347599983215332
7.774604320526123 5.842246055603027 -2.347599983215332
7.279286861419678 6.448905944824219 -2.347599983215332
6.736767292022705 7.013730525970459 -2.347599983215332
3.448554515838623 9.093066215515137 -2.347599983215332
2.7056736946105957 9.341073989868164 -2.347599983215332
1.9452587366104126 9.528515815734863 -2.347599983215332
0.39158689975738525 9.717147827148438 -2.347599983215332
-2.7056736946105957 9.341073989868164 -2.347599983215332
-5.524457931518555 8.003535270690918 -2.347599983215332
-4.905522346496582 5.107187271118164 -1.709456443786621
-7.27929162979126 6.448876857757568 -2.347599983215332
-7.774599552154541 5.842226505279541 -2.347599983215332
-9.170097351074219 4.812831878662109 -2.5
-9.527626991271973 4.059335708618164 -2.5
-10.222235679626465 1.6612792015075684 -2.5
-10.322772979736328 0.8333203196525574 -2.5
9.747426986694336 1.5841211080551147 -2.5
9.58834457397461 2.3633203506469727 -2.5
9.36708927154541 3.127197265625 -2.5
9.085073471069336 3.870781183242798 -2.5
7.413476467132568 5.570859432220459 -2.347599983215332
6.941171646118164 6.149335861206055 -2.347599983215332
6.423847675323486 6.687939167022705 -2.347599983215332
5.864858150482178 7.183164119720459 -2.347599983215332
4.636655330657959 8.030927658081055 -2.347599983215332
1.1177685260772705 9.205693244934082 -2.347599983215332
0.37339842319488525 9.26578140258789 -2.347599983215332
-1.854897379875183 9.085898399353027 -2.347599983215332
-3.975395441055298 8.377978324890137 -2.347599983215332
-5.864853382110596 7.183144569396973 -2.347599983215332
-4.898427486419678 5.099804401397705 -1.790137767791748
-7.413466453552246 5.570859432220459 -2.347599983215332
-9.085067749023438 3.870790958404541 -2.5
-9.747411727905273 1.5841015577316284 -2.5
-9.843276023864746 0.7946191430091858 -2.5
9.404008865356445 0.75916987657547 -2.5
9.312426567077637 1.5134081840515137 -2.5
5.603129863739014 6.86257791519165 -2.347599983215332
5.032758712768555 7.291191101074219 -2.347599983215332
4.429736137390137 7.672529220581055 -2.347599983215332
3.1416211128234863 8.2837495803833 -2.347599983215332
2.4648633003234863 8.509687423706055 -2.347599983215332
1.0678906440734863 8.794862747192383 -2.347599983215332
0.3567284941673279 8.852274894714355 -2.347599983215332
-0.35673338174819946 8.852265357971191 -2.347599983215332
-3.141606330871582 8.283759117126465 -2.347599983215332
-4.429731369018555 7.672519207000732 -2.347599983215332
-5.032748699188232 7.291210651397705 -2.347599983215332
-5.603125095367432 6.86257791519165 -2.347599983215332
-7.08263635635376 5.322255611419678 -2.347599983215332
-8.353920936584473 4.384482383728027 -2.5
-8.94906234741211 2.987626791000366 -2.5
-9.160444259643555 2.2578418254852295 -2.5
-9.312421798706055 1.513427734375 -2.5
-9.404008865356445 0.7591601610183716 -2.5
9.029281616210938 0.0 -2.5
8.306753158569336 3.539179563522339 -2.5
7.618910789489746 4.81790018081665 -2.4958908557891846
6.346513748168945 5.622519493103027 -2.347599983215332
5.873510837554932 6.114980220794678 -2.347599983215332
4.816542625427246 6.977968692779541 -2.347599983215332
4.239433288574219 7.342909812927246 -2.347599983215332
3.63482403755188 7.660224437713623 -2.347599983215332
2.358959913253784 8.144091606140137 -2.347599983215332
1.022011637687683 8.417031288146973 -2.347599983215332
-0.3414013683795929 8.4719820022583 -2.347599983215332
-1.022006869316101 8.417040824890137 -2.347599983215332
-1.6959911584854126 8.307509422302246 -2.347599983215332
-2.358959913253784 8.144082069396973 -2.347599983215332
-3.634819269180298 7.660224437713623 -2.347599983215332
-4.239423751831055 7.342900276184082 -2.347599983215332
-6.346508502960205 5.622519493103027 -2.347599983215332
-6.778344631195068 5.093613147735596 -2.347599983215332
-7.616342544555664 4.816298484802246 -2.4950506687164307
-7.99502420425415 4.196123123168945 -2.5
-8.564589500427246 2.859257698059082 -2.5
-8.912343978881836 1.4483983516693115 -2.5
8.627089500427246 0.6964452862739563 -2.5
8.543070793151855 1.3883886337280273 -2.5
8.209735870361328 2.7408103942871094 -2.5
6.497504711151123 4.882538795471191 -2.347599983215332
6.083554744720459 5.389560222625732 -2.347599983215332
5.140224456787109 6.295634746551514 -2.347599983215332
4.616967678070068 6.688827991485596 -2.347599983215332
3.4842185974121094 7.342822074890137 -2.347599983215332
2.8820605278015137 7.599384784698486 -2.347599983215332
2.261220693588257 7.806640625 -2.347599983215332
1.6257128715515137 7.963281154632568 -2.347599983215332
-0.32725584506988525 8.12093734741211 -2.347599983215332
-2.8820555210113525 7.599384784698486 -2.347599983215332
-4.616962909698486 6.68883752822876 -2.347599983215332
-4.877050876617432 5.077538967132568 -2.033586263656616
-7.307255744934082 4.620830059051514 -2.497270107269287
-7.962558269500732 3.392529249191284 -2.5
-8.40365219116211 2.0713086128234863 -2.5
-8.543070793151855 1.3883788585662842 -2.5
-8.627079963684082 0.6964452862739563 -2.5
8.308691024780273 0.0 -2.5
8.281733512878418 0.6685742139816284 -2.5
8.201079368591309 1.3328124284744263 -2.5
8.067240715026855 1.9883984327316284 -2.5
7.356972694396973 3.8612401485443115 -2.5
6.3836669921875 4.797001838684082 -2.402651786804199
5.404755592346191 5.626953125 -2.347599983215332
3.9010887145996094 6.756894588470459 -2.347599983215332
3.344731330871582 7.048886775970459 -2.347599983215332
1.560644507408142 7.644501686096191 -2.347599983215332
-0.94044429063797 7.745292663574219 -2.347599983215332
-2.170703172683716 7.494150161743164 -2.347599983215332
-2.7666893005371094 7.295166015625 -2.347599983215332
-3.344741106033325 7.048886775970459 -2.347599983215332
-3.9010887145996094 6.756875038146973 -2.347599983215332
-4.869882583618164 5.070087909698486 -2.1152706146240234
-5.840009689331055 5.173808574676514 -2.347599983215332
-7.020766258239746 4.439667701721191 -2.4994161128997803
-7.35696268081665 3.8612303733825684 -2.5
-7.643808364868164 3.256718635559082 -2.5
-8.281728744506836 0.6685644388198853 -2.5
7.98681640625 9.765624781721272e-06 -2.5
7.960917949676514 0.6426659822463989 -2.5
7.754735946655273 1.9113671779632568 -2.5
7.347704887390137 3.130566358566284 -2.5
7.071972370147705 3.711660146713257 -2.5
6.750375747680664 4.268681526184082 -2.5
4.743300437927246 5.809482097625732 -2.347599983215332
4.260454177856445 6.172324180603027 -2.347599983215332
3.7499706745147705 6.49514627456665 -2.347599983215332
2.6595213413238525 7.01256799697876 -2.347599983215332
2.086616277694702 7.203827857971191 -2.347599983215332
1.5001806020736694 7.348359107971191 -2.347599983215332
0.9040185213088989 7.445243835449219 -2.347599983215332
-0.9040136337280273 7.445253849029541 -2.347599983215332
-2.086611270904541 7.203827857971191 -2.347599983215332
-4.743295669555664 5.809501647949219 -2.347599983215332
-5.613779067993164 4.973378658294678 -2.347599983215332
-6.300419807434082 4.734462738037109 -2.466886043548584
-6.750370979309082 4.268681526184082 -2.5
-7.575780868530273 2.5291600227355957 -2.5
-7.754726409912109 1.9113671779632568 -2.5
-7.960917949676514 0.6426659822463989 -2.5
7.686977386474609 0.0 -2.5
7.587421894073486 1.2330760955810547 -2.5
6.806474685668945 3.57232403755188 -2.5
6.4969482421875 4.108437538146973 -2.5
5.403032302856445 4.786660194396973 -2.347599983215332
5.000341892242432 5.205908298492432 -2.347599983215332
4.100507736206055 5.940585613250732 -2.347599983215332
3.609184503555298 6.251288890838623 -2.347599983215332
3.0944628715515137 6.521435260772705 -2.347599983215332
1.4438623189926147 7.072499752044678 -2.347599983215332
0.8700780868530273 7.165751934051514 -2.347599983215332
0.2906543016433716 7.212509632110596 -2.347599983215332
-0.2906543016433716 7.212509632110596 -2.347599983215332
-1.4438623189926147 7.072499752044678 -2.347599983215332
-4.100502967834473 5.940605163574219 -2.347599983215332
-4.565219402313232 5.591386795043945 -2.347599983215332
-6.806459903717041 3.5723142623901367 -2.5
-7.071850299835205 3.0130369663238525 -2.5
-7.291362285614014 2.434208869934082 -2.5
-7.463593482971191 1.8396093845367432 -2.5
-7.587416648864746 1.2330858707427979 -2.5
-7.662031173706055 0.6185253858566284 -2.5
7.382861137390137 0.5960156321525574 -2.5
7.310966491699219 1.1881444454193115 -2.5
7.025693416595459 2.345507860183716 -2.5
6.814174652099609 2.903251886367798 -2.5
6.55846643447876 3.4421582221984863 -2.5
5.913608074188232 4.443789005279541 -2.4967200756073
4.81814432144165 5.016220569610596 -2.347599983215332
3.9510984420776367 5.72415018081665 -2.347599983215332
3.4776806831359863 6.023515701293945 -2.347599983215332
2.9817090034484863 6.28380823135376 -2.347599983215332
2.4664061069488525 6.503359317779541 -2.347599983215332
1.3912451267242432 6.814794540405273 -2.347599983215332
-0.8383691310882568 6.904648303985596 -2.347599983215332
-1.935097575187683 6.680742263793945 -2.347599983215332
-2.4663915634155273 6.503378868103027 -2.347599983215332
-2.981703996658325 6.283818244934082 -2.347599983215332
-4.398881912231445 5.387656211853027 -2.347599983215332
-4.81814432144165 5.016211032867432 -2.347599983215332
-5.206152439117432 4.612246036529541 -2.347599983215332
-5.911913871765137 4.442509651184082 -2.4960086345672607
-6.260210037231445 3.958730459213257 -2.5
-6.814169883728027 2.9032421112060547 -2.5
-7.191640377044678 1.7725878953933716 -2.5
-7.31094217300415 1.1881542205810547 -2.5
-7.382851600646973 0.595996081829071 -2.5
7.144594669342041 -9.765624781721272e-06 -2.5
6.326215744018555 3.320244073867798 -2.5
5.708803653717041 4.289882659912109 -2.4987337589263916
5.188984394073486 4.597031116485596 -2.4257559776306152
4.647524356842041 4.838593482971191 -2.347599983215332
4.243105411529541 5.196865081787109 -2.347599983215332
3.3545312881469727 5.810194969177246 -2.347599983215332
1.8665771484375 6.444169998168945 -2.347599983215332
1.3419872522354126 6.573476314544678 -2.347599983215332
0.2701464891433716 6.70361328125 -2.347599983215332
-0.8086816072463989 6.660136699676514 -2.347599983215332
-1.8665722608566284 6.444159984588623 -2.347599983215332
-3.3545215129852295 5.810204982757568 -2.347599983215332
-4.647519588470459 4.838583946228027 -2.347599983215332
-5.157172679901123 4.568857192993164 -2.410886287689209
-5.707373142242432 4.288818359375 -2.4981117248535156
-6.038525104522705 3.818535089492798 -2.5
-6.326210975646973 3.320244073867798 -2.5
-6.57287073135376 2.8004393577575684 -2.5
-7.052065372467041 1.1460741758346558 -2.5
-7.121416091918945 0.5748925805091858 -2.5
6.876044750213623 0.5550878643989563 -2.5
6.80908203125 1.1065820455551147 -2.5
6.543398380279541 2.184501886367798 -2.5
6.108242034912109 3.2058591842651367 -2.5
5.83047342300415 3.6869726181030273 -2.5
5.514892578125 4.144160270690918 -2.5
4.096913814544678 5.017802715301514 -2.347599983215332
3.67986798286438 5.331191062927246 -2.347599983215332
3.2389402389526367 5.609999656677246 -2.347599983215332
2.7770214080810547 5.852441310882568 -2.347599983215332
2.2970995903015137 6.056933403015137 -2.347599983215332
1.295742154121399 6.346972465515137 -2.347599983215332
0.7808203101158142 6.430644512176514 -2.347599983215332
-0.2608300745487213 6.472636699676514 -2.347599983215332
-0.7808154225349426 6.430654048919678 -2.347599983215332
-1.295742154121399 6.346972465515137 -2.347599983215332
-1.8022656440734863 6.222118854522705 -2.347599983215332
-2.2970848083496094 6.056933403015137 -2.347599983215332
-2.7770166397094727 5.852441310882568 -2.347599983215332
-3.2389354705810547 5.610009670257568 -2.347599983215332
-6.108232498168945 3.2058591842651367 -2.5
-6.543393611907959 2.184511661529541 -2.5
-6.697954177856445 1.65090811252594 -2.5
-6.809067249298096 1.1065820455551147 -2.5
6.580512523651123 1.069433569908142 -2.5
6.473114967346191 1.5954785346984863 -2.5
6.323750019073486 2.1111717224121094 -2.5
6.133364200592041 2.6131834983825684 -2.5
5.329760551452637 4.005038738250732 -2.5
4.979701995849609 4.41165018081665 -2.494739294052124
4.336757659912109 4.515048503875732 -2.347599983215332
3.9593846797943115 4.849374771118164 -2.347599983215332
3.55633282661438 5.152226448059082 -2.347599983215332
3.1302196979522705 5.421699047088623 -2.347599983215332
-0.2520751953125 6.255351543426514 -2.347599983215332
-1.741762638092041 6.013251781463623 -2.347599983215332
-2.219975471496582 5.853593826293945 -2.347599983215332
-2.6838035583496094 5.655986309051514 -2.347599983215332
-3.1302099227905273 5.421699047088623 -2.347599983215332
-3.9593749046325684 4.849365234375 -2.347599983215332
-4.978945255279541 4.410966873168945 -2.494359254837036
-5.903188228607178 3.0982322692871094 -2.5
-6.133349418640137 2.6131834983825684 -2.5
-6.473105430603027 1.5954785346984863 -2.5
6.365063190460205 1.0344140529632568 -2.5
6.261181354522705 1.54324209690094 -2.5
6.116689205169678 2.042050838470459 -2.5
5.709926605224609 2.9967968463897705 -2.5
4.309267520904541 4.486435413360596 -2.4116854667663574
3.439892530441284 4.983534812927246 -2.347599983215332
2.1472997665405273 5.661952972412109 -2.347599983215332
1.2112548351287842 5.933085918426514 -2.347599983215332
-1.2112499475479126 5.933085918426514 -2.347599983215332
-3.0277295112609863 5.244179725646973 -2.347599983215332
-4.819780349731445 4.269941329956055 -2.4963550567626953
-5.155253887176514 3.8739256858825684 -2.5
-5.709907054901123 2.9967968463897705 -2.5
-6.11669397354126 2.042050838470459 -2.5
-6.261171817779541 1.54324209690094 -2.5
-6.365048885345459 1.034423828125 -2.5
-6.427651405334473 0.5188866853713989 -2.5
6.242421627044678 0.0 -2.5
6.222187519073486 0.5023046731948853 -2.5
6.161586761474609 1.0013476610183716 -2.5
6.06102991104126 1.49392569065094 -2.5
5.921166896820068 1.9767773151397705 -2.5
4.990463733673096 3.750077962875366 -2.5
4.670146465301514 4.137392520904541 -2.498730421066284
4.294838905334473 4.471396446228027 -2.4829814434051514
3.707329034805298 4.540644645690918 -2.347599983215332
3.3299314975738525 4.824238300323486 -2.347599983215332
2.9309422969818115 5.076523303985596 -2.347599983215332
2.512944221496582 5.295917987823486 -2.347599983215332
1.6308789253234863 5.630449295043945 -2.347599983215332
-1.1725292205810547 5.743417739868164 -2.347599983215332
-2.9309422969818115 5.076552391052246 -2.347599983215332
-3.7073240280151367 4.540644645690918 -2.347599983215332
-4.263447284698486 4.438720703125 -2.4648375511169434
-4.669228553771973 4.136572360992432 -2.4982428550720215
-6.06102991104126 1.4939160346984863 -2.5
-6.222177505493164 0.5023046731948853 -2.5
6.047382831573486 0.0 -2.5
6.027768611907959 0.4866015613079071 -2.5
5.871650218963623 1.4472362995147705 -2.5
5.563466548919678 2.370371103286743 -2.5
5.111176490783691 3.232119083404541 -2.5
4.834531307220459 3.632929563522339 -2.5
4.526528358459473 4.010156154632568 -2.5
3.6026952266693115 4.412499904632568 -2.354928731918335
2.839365243911743 4.917919635772705 -2.347599983215332
2.4344236850738525 5.130449295043945 -2.347599983215332
2.0137109756469727 5.309706687927246 -2.347599983215332
1.579921841621399 5.454531192779541 -2.347599983215332
1.1358935832977295 5.56396484375 -2.347599983215332
-2.0136961936950684 5.309706687927246 -2.347599983215332
-2.4344334602355957 5.130449295043945 -2.347599983215332
-2.839365243911743 4.917919635772705 -2.347599983215332
-3.22588849067688 4.673505783081055 -2.347599983215332
-4.526513576507568 4.010146617889404 -2.5
-4.834526062011719 3.6329100131988525 -2.5
-5.354677677154541 2.8103418350219727 -2.5
-5.563457012176514 2.370361328125 -2.5
-5.736147403717041 1.9150097370147705 -2.5
-5.871650218963623 1.4472265243530273 -2.5
-6.027753829956055 0.4866015613079071 -2.5
5.862524509429932 0.0 -2.5
5.843510627746582 0.4717089831829071 -2.5
5.692172527313232 1.4029881954193115 -2.5
5.191000938415527 2.724443197250366 -2.5
4.954951286315918 3.1333203315734863 -2.5
4.686752796173096 3.521855354309082 -2.5
4.054736137390137 4.221425533294678 -2.4960734844207764
3.591254711151123 4.398496150970459 -2.4214656352996826
2.752573251724243 4.767587661743164 -2.347599983215332
1.9521484375 5.147392272949219 -2.347599983215332
1.1011669635772705 5.393886566162109 -2.347599983215332
0.6635693311691284 5.465009689331055 -2.347599983215332
-0.22166991233825684 5.500673770904541 -2.347599983215332
-1.101171851158142 5.393886566162109 -2.347599983215332
-1.5316259860992432 5.287773132324219 -2.347599983215332
-1.9521435499191284 5.147392272949219 -2.347599983215332
-3.5785398483276367 4.382910251617432 -2.4128990173339844
-4.054013729095459 4.220673561096191 -2.495635509490967
-4.388159275054932 3.887568235397339 -2.5
-4.686748027801514 3.5218749046325684 -2.5
-4.954936504364014 3.1333203315734863 -2.5
-5.393393516540527 2.297910213470459 -2.5
-5.692158222198486 1.4029881954193115 -2.5
-5.843505859375 0.47172850370407104 -2.5
5.668583869934082 0.4576171636581421 -2.5
5.394345760345459 1.8008984327316284 -2.5
5.231947898864746 2.229120969772339 -2.5
5.035605430603027 2.642880916595459 -2.5
4.806616306304932 3.0395312309265137 -2.5
4.546454906463623 3.4164257049560547 -2.5
4.256801605224609 3.771191358566284 -2.5
3.579965829849243 4.384667873382568 -2.48834228515625
2.670175790786743 4.624873161315918 -2.347599983215332
2.289370059967041 4.82473611831665 -2.347599983215332
1.4857860803604126 5.129492282867432 -2.347599983215332
1.068203091621399 5.232421875 -2.347599983215332
-3.5675342082977295 4.369452953338623 -2.479708671569824
-3.9356346130371094 4.09744119644165 -2.4975244998931885
-4.256796836853027 3.771191358566284 -2.5
-4.546440124511719 3.416455030441284 -2.5
-4.806611061096191 3.0395214557647705 -2.5
-5.035600662231445 2.642890453338623 -2.5
-5.231943130493164 2.229120969772339 -2.5
5.448681354522705 0.8854882717132568 -2.5
5.359755516052246 1.3210644721984863 -2.5
5.236069202423096 1.748046875 -2.5
5.078437328338623 2.1637303829193115 -2.5
4.887856483459473 2.5653417110443115 -2.5
4.665585994720459 2.950331926345825 -2.5
4.131899356842041 3.660537004470825 -2.5
2.2221922874450684 4.683164119720459 -2.347599983215332
1.8381494283676147 4.846796989440918 -2.347599983215332
1.036865234375 5.078906059265137 -2.347599983215332
0.6248193383216858 5.145849704742432 -2.347599983215332
0.20872558653354645 5.179452896118164 -2.347599983215332
-0.20872069895267487 5.179452896118164 -2.347599983215332
-1.4421727657318115 4.978993892669678 -2.347599983215332
-1.8381445407867432 4.846796989440918 -2.347599983215332
-2.2221972942352295 4.683164119720459 -2.347599983215332
-3.4827489852905273 4.265605449676514 -2.4939558506011963
-4.413042068481445 3.3161914348602295 -2.5
-4.665571212768555 2.950331926345825 -2.5
-5.078432559967041 2.1637303829193115 -2.5
-5.502250671386719 0.4441796839237213 -2.5
5.361269474029541 0.0 -2.5
5.291845798492432 0.85999995470047 -2.5
