ply
format ascii 1.0
element vertex 785
property float x
property float y
property float z
end_header
13.503666877746582 -16.53898811340332 5.7211198806762695
-8.931894302368164 -15.470498085021973 4.575038909912109
13.506425857543945 -16.542367935180664 5.46938419342041
-8.931654930114746 -15.47008228302002 4.364567756652832
13.50916862487793 -16.545726776123047 5.218971252441406
13.511899948120117 -16.5490665435791 4.969808101654053
13.517317771911621 -16.555707931518555 4.474959850311279
-8.930703163146973 -15.468427658081055 3.5335681438446045
13.52000617980957 -16.55900764465332 4.229136943817139
-8.930460929870605 -15.468017578125 3.3282439708709717
13.522692680358887 -16.562284469604492 3.9842913150787354
-17.724761962890625 -13.319296836853027 3.8777544498443604
-8.930229187011719 -15.467612266540527 3.1237804889678955
13.52536392211914 -16.565561294555664 3.740359306335449
-8.929994583129883 -15.467206954956055 2.9201128482818604
13.52802562713623 -16.568822860717773 3.49727463722229
13.530675888061523 -16.57207489013672 3.2549760341644287
-8.92952823638916 -15.466401100158691 2.5149753093719482
13.53332233428955 -16.5753116607666 3.013397216796875
13.535961151123047 -16.57854461669922 2.772475481033325
-8.929069519042969 -15.46560001373291 2.1123979091644287
13.538591384887695 -16.581771850585938 2.532151699066162
-8.928839683532715 -15.46519947052002 1.9119374752044678
13.543841361999512 -16.588193893432617 2.0530505180358887
-8.928383827209473 -15.464408874511719 1.5124269723892212
13.546454429626465 -16.591400146484375 1.8141534328460693
-8.928153991699219 -15.464008331298828 1.313273549079895
9.309365272521973 -24.546791076660156 1.930807113647461
13.549068450927734 -16.594594955444336 1.5756139755249023
-8.927919387817383 -15.463603019714355 1.1144540309906006
13.551681518554688 -16.59779167175293 1.3373714685440063
-8.927441596984863 -15.462787628173828 0.9158950448036194
9.299756050109863 -24.521459579467773 1.345288634300232
13.55428695678711 -16.60098648071289 1.0993640422821045
-8.926970481872559 -15.461962699890137 0.7175827026367188
13.556894302368164 -16.60417366027832 0.8615383505821228
13.562098503112793 -16.61055564880371 0.3861883580684662
9.309365272521973 -24.546791076660156 0.18149840831756592
13.564701080322266 -16.613739013671875 0.14854705333709717
-8.92507553100586 -15.458681106567383 -0.07409591227769852
7.070690631866455 -6.264086723327637 -0.03925415128469467
-8.924599647521973 -15.457865715026855 -0.27191513776779175
13.569911003112793 -16.6201171875 -0.3269537389278412
6.432895183563232 -6.697358131408691 -0.14150558412075043
9.872193336486816 -6.2427978515625 -0.17798705399036407
-8.924125671386719 -15.457045555114746 -0.4697660803794861
13.572518348693848 -16.623310089111328 -0.5649310350418091
9.82943344116211 -6.215756893157959 -0.30614760518074036
-8.923657417297363 -15.456225395202637 -0.667780876159668
9.309365272521973 -24.546791076660156 -0.9824374318122864
6.198376178741455 -7.591635704040527 -0.36671262979507446
6.22430419921875 -6.480195045471191 -0.33620283007621765
6.970016956329346 -6.174897193908691 -0.3484230041503906
8.20165729522705 -6.163144588470459 -0.38387128710746765
9.78702163696289 -6.188940525054932 -0.4332786500453949
-8.92318058013916 -15.455400466918945 -0.8658410310745239
9.309365272521973 -24.546781539916992 -1.2737582921981812
8.160405158996582 -6.132148265838623 -0.49526548385620117
-17.286808013916016 -21.17251968383789 -1.629974365234375
-8.922707557678223 -15.45457935333252 -1.0642037391662598
-3.085073232650757 -10.650897979736328 -0.6612566709518433
5.943239688873291 -7.279140472412109 -0.5603874325752258
6.047382831573486 -6.295996189117432 -0.520589292049408
6.903954982757568 -6.116372108459473 -0.5500321984291077
16.664941787719727 -7.100258827209473 -1.0802249908447266
-16.678709030151367 -20.427738189697266 -1.8661210536956787
-8.922233581542969 -15.45375919342041 -1.2625638246536255
-10.17446517944336 -21.442270278930664 -1.6794472932815552
8.072443962097168 -21.285303115844727 -1.6108709573745728
7.350744247436523 -10.64937973022461 -0.9156568646430969
5.828857421875 -7.139057636260986 -0.6521685719490051
5.978569030761719 -6.224350452423096 -0.6107110381126404
6.883334636688232 -6.098100662231445 -0.6507290601730347
8.108566284179688 -6.093188285827637 -0.7177214026451111
9.689409255981445 -6.127216815948486 -0.8112267851829529
-21.45330810546875 -19.00599479675293 -2.347599983215332
-10.26422119140625 -27.064516067504883 -2.3708767890930176
-3.04681396484375 -10.518817901611328 -0.896993100643158
-3.498552083969116 -28.813167572021484 -2.377370595932007
-1.1690673828125 -29.01028823852539 -2.378110647201538
1.1690527200698853 -29.009672164916992 -2.378060817718506
1.8718432188034058 -15.416044235229492 -1.2719756364822388
6.815929889678955 -9.874574661254883 -0.9827756881713867
5.935427188873291 -6.17943811416626 -0.7018092274665833
18.31633949279785 -9.613149642944336 -1.6943342685699463
-26.773048400878906 -2.1613476276397705 -2.5
-25.47783851623535 -8.505756378173828 -2.5
-24.710792541503906 -10.52828598022461 -2.5
-23.783498764038086 -12.482548713684082 -2.5
-22.68708610534668 -14.34645938873291 -2.4983651638031006
-18.879499435424805 -16.72579002380371 -2.347599983215332
-10.988146781921387 -15.919145584106445 -1.800362467765808
-8.886728286743164 -15.392260551452637 -1.654258370399475
-9.937067985534668 -20.94197654724121 -2.1574697494506836
-8.984301567077637 -23.68966293334961 -2.3581480979919434
-4.179426193237305 -20.4720458984375 -1.9447301626205444
-3.0613110065460205 -25.212162017822266 -2.3638486862182617
3.14263653755188 -15.393617630004883 -1.4623082876205444
4.463046550750732 -15.408217430114746 -1.4930633306503296
8.984101295471191 -23.68914031982422 -2.3580968379974365
10.846840858459473 -22.859256744384766 -2.354990243911743
5.913693904876709 -6.156806468963623 -0.7945647835731506
6.860888481140137 -6.078212738037109 -0.8531258702278137
8.073046684265137 -6.066498756408691 -0.9398984909057617
9.633275985717773 -6.091718673706055 -1.0608421564102173
18.28592300415039 -9.597187042236328 -1.9221230745315552
25.47783660888672 -8.505756378173828 -2.5
26.5123233795166 -4.308676719665527 -2.5
-23.977590560913086 -4.882812390860636e-06 -2.5
-23.899810791015625 -1.9293993711471558 -2.5
-23.667062759399414 -3.8462841510772705 -2.5
-20.265602111816406 -12.815195083618164 -2.5
-15.59731674194336 -16.2385196685791 -2.347599983215332
-8.864785194396973 -15.354262351989746 -1.848557710647583
-7.986469745635986 -21.0585880279541 -2.348252773284912
-2.720590829849243 -22.406112670898438 -2.353311777114868
-0.9090502858161926 -22.55782699584961 -2.353881597518921
0.9090478420257568 -22.5577392578125 -2.3538713455200195
3.1417675018310547 -15.389360427856445 -1.6376538276672363
4.461813926696777 -15.403959274291992 -1.6720980405807495
9.652388572692871 -20.34200668334961 -2.347599983215332
8.055412292480469 -6.053246974945068 -1.0505939722061157
9.60521125793457 -6.07396936416626 -1.1849149465560913
23.280818939208984 -5.738217830657959 -2.5
23.899816513061523 -1.9294042587280273 -2.5
-21.648893356323242 4.882812390860636e-06 -2.5
-21.578693389892578 -1.7420214414596558 -2.5
-21.36853790283203 -3.472734212875366 -2.5
-21.019805908203125 -5.18093729019165 -2.5
-20.53476333618164 -6.855517387390137 -2.5
-19.916540145874023 -8.485649108886719 -2.5
-19.16914176940918 -10.060742378234863 -2.5
-18.29742431640625 -11.57059097290039 -2.5
-17.307058334350586 -13.005410194396973 -2.5
-16.19379997253418 -14.346488952636719 -2.4983646869659424
-14.14321517944336 -14.724642753601074 -2.3577184677124023
-12.857091903686523 -15.747089385986328 -2.347599983215332
-8.852590560913086 -15.333134651184082 -2.0445828437805176
-2.4504148960113525 -20.18095588684082 -2.347599983215332
0.8185741901397705 -20.31269073486328 -2.347599983215332
1.871865153312683 -15.41616153717041 -1.7933236360549927
4.453664302825928 -15.375829696655273 -1.8485764265060425
5.505615234375 -6.74315881729126 -1.0052800178527832
6.838493347167969 -6.058383464813232 -1.0550341606140137
9.585355758666992 -6.061415672302246 -1.3096591234207153
14.759862899780273 -7.746567249298096 -1.9249502420425415
21.01980972290039 -5.180932521820068 -2.5
21.36854362487793 -3.472734212875366 -2.5
-19.47250747680664 -3.164599657058716 -2.5
-19.154714584350586 -4.721225261688232 -2.5
-18.71270751953125 -6.24722146987915 -2.5
-18.149343490600586 -7.732699871063232 -2.5
-16.673892974853516 -10.543940544128418 -2.5
-14.766603469848633 -13.082079887390137 -2.5
-13.666051864624023 -14.227866172790527 -2.5
-12.014679908752441 -14.71532154083252 -2.4073915481567383
-7.941677093505859 -16.736753463745117 -2.347599983215332
-6.569189071655273 -17.321517944335938 -2.347599983215332
-3.705556631088257 -18.150985717773438 -2.347599983215332
-2.232985734939575 -18.39029312133789 -2.347599983215332
0.7459350228309631 -18.51033592224121 -2.347599983215332
1.8718847036361694 -15.416352272033691 -1.9679630994796753
4.453664302825928 -15.375829696655273 -2.028571367263794
5.051093578338623 -10.644946098327637 -1.4931259155273438
5.438005447387695 -6.660346508026123 -1.0896166563034058
5.794743537902832 -6.032973289489746 -1.0600608587265015
6.827311992645264 -6.048471450805664 -1.1558690071105957
9.565539360046387 -6.048886775970459 -1.4342080354690552
14.72496223449707 -7.728251934051514 -2.107386827468872
19.664012908935547 -1.5874462127685547 -2.5
-18.05730628967285 -1.4577441215515137 -2.5
-17.589630126953125 -4.335473537445068 -2.5
-17.183732986450195 -5.736772537231445 -2.5
-16.666399002075195 -7.100883483886719 -2.5
-15.311501502990723 -9.682426452636719 -2.5
-13.56005573272705 -12.013168334960938 -2.5
-12.549430847167969 -13.06534194946289 -2.5
-11.457409858703613 -14.032797813415527 -2.5
-10.14980697631836 -14.704535484313965 -2.46567702293396
-8.505851745605469 -14.73256778717041 -2.347599983215332
-7.29278564453125 -15.369233131408691 -2.347599983215332
-6.032431602478027 -15.906225204467773 -2.347599983215332
-3.034477472305298 -10.47622013092041 -1.505135416984558
-3.402787923812866 -16.667909622192383 -2.347599983215332
-2.050529718399048 -16.88765525817871 -2.347599983215332
0.6849926710128784 -16.997900009155273 -2.347599983215332
3.134111166000366 -15.351874351501465 -2.162242889404297
4.453666687011719 -15.375829696655273 -2.2090697288513184
6.816288948059082 -6.038705825805664 -1.2566839456558228
8.04288101196289 -6.043832778930664 -1.388354778289795
14.703801155090332 -7.717143535614014 -2.291599988937378
17.18373680114746 -5.736777305603027 -2.5
17.589632034301758 -4.335468769073486 -2.5
17.881454467773438 -2.9060254096984863 -2.5
18.05731201171875 -1.4577343463897705 -2.5
-16.257204055786133 -4.007055759429932 -2.5
-15.403913497924805 -6.562993049621582 -2.5
-14.825861930847168 -7.781215667724609 -2.5
-14.151657104492188 -8.948969841003418 -2.5
-12.532873153686523 -11.10317325592041 -2.5
-11.598808288574219 -12.075639724731445 -2.5
-8.358930587768555 -14.478105545043945 -2.496134042739868
-6.980412483215332 -14.710922241210938 -2.4312098026275635
-5.585705280303955 -14.728304862976074 -2.3519091606140137
3.127924680709839 -15.321391105651855 -2.334813117980957
5.585700511932373 -14.72829532623291 -2.351907968521118
8.048422813415527 -6.047997951507568 -1.5031777620315552
14.825861930847168 -7.781205654144287 -2.5
15.40391731262207 -6.562993049621582 -2.5
15.882068634033203 -5.302216529846191 -2.5
16.257213592529297 -4.007055759429932 -2.5
16.526931762695312 -2.685903310775757 -2.5
-15.108903884887695 -3.7240233421325684 -2.5
-13.77865982055664 -7.231601238250732 -2.5
-11.64763355255127 -10.318921089172363 -2.5
-9.841530799865723 -12.05370044708252 -2.5
-8.839706420898438 -12.806532859802246 -2.5
-3.0326805114746094 -10.470019340515137 -1.7512261867523193
-0.5933056473731995 -14.722758293151855 -2.3672358989715576
0.5933080911636353 -14.722758293151855 -2.3672358989715576
1.787331461906433 -14.719980239868164 -2.382239580154419
4.259541034698486 -14.705634117126465 -2.4596781730651855
5.507829666137695 -14.52294921875 -2.4953737258911133
4.672609806060791 -9.84731388092041 -1.7511111497879028
5.479909420013428 -9.491474151611328 -1.7607723474502563
4.777111530303955 -6.920835018157959 -1.3510366678237915
5.079609394073486 -6.221396446228027 -1.2903491258621216
9.539544105529785 -6.032441139221191 -1.813314437866211
14.315885543823242 -6.099428653717041 -2.5
-14.342878341674805 -2.3309619426727295 -2.5
-14.108805656433105 -3.4775195121765137 -2.5
-13.78322982788086 -4.601518630981445 -2.5
-13.368273735046387 -5.695688247680664 -2.5
-12.866608619689941 -6.752914905548096 -2.5
-12.281500816345215 -7.766357421875 -2.5
-10.066015243530273 -10.479833602905273 -2.5
-9.190093040466309 -11.255839347839355 -2.5
-8.254587173461914 -11.958823204040527 -2.5
-7.265524864196777 -12.584267616271973 -2.5
-6.229350566864014 -13.128095626831055 -2.5
-5.152780532836914 -13.586776733398438 -2.5
-3.03143048286438 -10.465703010559082 -1.8745871782302856
-1.7496337890625 -14.409506797790527 -2.4972965717315674
-0.5841308236122131 -14.495131492614746 -2.495845079421997
0.5841357111930847 -14.495136260986328 -2.495845079421997
4.713435173034668 -6.828583717346191 -1.4275197982788086
5.010515213012695 -6.136772155761719 -1.363019347190857
5.812934398651123 -6.05190896987915 -1.4437023401260376
9.586892127990723 -6.062387466430664 -1.951489806175232
13.368273735046387 -5.695683479309082 -2.5
14.483935356140137 -1.1692724227905273 -2.5
-13.62567138671875 0.0 -2.5
-13.581491470336914 -1.0964159965515137 -2.5
-13.22973346710205 -3.2608494758605957 -2.5
-12.924445152282715 -4.3148193359375 -2.5
-10.198952674865723 -9.035502433776855 -2.5
-8.617487907409668 -10.554521560668945 -2.5
-7.740265846252441 -11.21371078491211 -2.5
-3.0449461936950684 -10.512368202209473 -2.008061408996582
-2.7254881858825684 -13.350312232971191 -2.5
-1.6423925161361694 -13.526323318481445 -2.5
-0.5486523509025574 -13.614619255065918 -2.5
1.6423925161361694 -13.526323318481445 -2.5
2.7254858016967773 -13.35030746459961 -2.5
4.610227108001709 -9.715848922729492 -1.973143219947815
5.816648006439209 -6.055776119232178 -1.5406148433685303
6.8358154296875 -6.056005954742432 -1.6756147146224976
8.066323280334473 -6.061450004577637 -1.8512717485427856
12.535340309143066 -5.340800762176514 -2.5
13.229732513427734 -3.2608447074890137 -2.5
13.581487655639648 -1.0964159965515137 -2.5
-12.823444366455078 0.0 -2.5
-12.450812339782715 -3.068857431411743 -2.5
-12.163505554199219 -4.060776233673096 -2.5
-11.797307014465332 -5.0263671875 -2.5
-11.354598999023438 -5.959360122680664 -2.5
-10.838252067565918 -6.853701114654541 -2.5
-9.59848403930664 -8.503530502319336 -2.5
-8.883112907409668 -9.248295783996582 -2.5
-8.110129356384277 -9.933110237121582 -2.5
-7.284548282623291 -10.55349063873291 -2.5
-6.411728382110596 -11.105429649353027 -2.5
-5.497309684753418 -11.585355758666992 -2.5
-3.034125804901123 -10.475004196166992 -2.1261017322540283
-1.5456981658935547 -12.729950904846191 -2.5
1.5456957817077637 -12.729950904846191 -2.5
2.565016984939575 -12.56429672241211 -2.5
3.5677099227905273 -12.317152976989746 -2.5
4.612419128417969 -9.720468521118164 -2.0975770950317383
5.442853927612305 -9.427299499511719 -2.1222267150878906
4.616110801696777 -6.687587738037109 -1.5842119455337524
4.987627029418945 -6.108730316162109 -1.5374675989151
12.163505554199219 -4.060781002044678 -2.5
12.45081901550293 -3.068862199783325 -2.5
12.657387733459473 -2.0570361614227295 -2.5
12.781865119934082 -1.0318652391433716 -2.5
-12.068249702453613 -0.9742528796195984 -2.5
-11.950722694396973 -1.9421874284744263 -2.5
-9.67926025390625 -7.273500919342041 -2.5
-8.387167930603027 -8.73196792602539 -2.5
-6.877849102020264 -9.964296340942383 -2.5
-6.053754806518555 -10.485414505004883 -2.5
-5.190395355224609 -10.938544273376465 -2.5
-4.293381214141846 -11.320717811584473 -2.5
-1.4593993425369263 -12.019232749938965 -2.5
2.421818733215332 -11.86282730102539 -2.5
3.368520498275757 -11.629487037658691 -2.5
4.293378829956055 -11.320717811584473 -2.5
5.442858695983887 -9.427299499511719 -2.24771785736084
6.845964431762695 -6.065000057220459 -1.888520359992981
8.079330444335938 -6.071225643157959 -2.0867624282836914
10.233149528503418 -6.471054553985596 -2.5
10.720672607421875 -5.626640319824219 -2.5
11.484416007995605 -3.834062337875366 -2.5
12.06825065612793 -0.97425776720047 -2.5
-11.42734146118164 -0.9225195050239563 -2.5
-11.131379127502441 -2.74365234375 -2.5
-10.87450885772705 -3.630444288253784 -2.5
-10.151320457458496 -5.327831745147705 -2.5
-9.689697265625 -6.127397537231445 -2.5
-9.165224075317383 -6.887221336364746 -2.5
-8.581303596496582 -7.602382659912109 -2.5
-7.250676155090332 -8.880483627319336 -2.5
-6.512580394744873 -9.435111999511719 -2.5
-5.732260704040527 -9.928564071655273 -2.5
-4.06536865234375 -10.71950626373291 -2.5
-3.189631223678589 -11.01186466217041 -2.5
-1.3818920850753784 -11.380922317504883 -2.5
1.38189697265625 -11.380927085876465 -2.5
4.573024749755859 -6.625165939331055 -1.7554564476013184
4.989199161529541 -6.110659122467041 -1.7202513217926025
5.827451229095459 -6.067026138305664 -1.8344351053237915
6.851601600646973 -6.069994926452637 -1.9960813522338867
10.151323318481445 -5.327822208404541 -2.5
10.547120094299316 -4.493700981140137 -2.5
10.874504089355469 -3.630449056625366 -2.5
11.42734146118164 -0.9225146174430847 -2.5
-10.883703231811523 -4.882812390860636e-06 -2.5
-10.848410606384277 -0.8757763504981995 -2.5
-9.637036323547363 -5.057914733886719 -2.5
-8.700896263122559 -6.538300514221191 -2.5
-8.146562576293945 -7.217236042022705 -2.5
-7.539409160614014 -7.849355220794678 -2.5
-5.441850662231445 -9.42557144165039 -2.5
-3.8594090938568115 -10.176445007324219 -2.5
-2.1770238876342773 -10.663740158081055 -2.5
-1.3118847608566284 -10.80434513092041 -2.5
0.4382421672344208 -10.8748779296875 -2.5
1.311892032623291 -10.80434513092041 -2.5
2.1770262718200684 -10.663744926452637 -2.5
3.0280394554138184 -10.453989028930664 -2.5
4.554230690002441 -6.597934246063232 -1.8415355682373047
4.995690822601318 -6.118613243103027 -1.8144118785858154
5.780917644500732 -6.018574237823486 -1.9169014692306519
6.857277870178223 -6.075014591217041 -2.1043450832366943
9.637041091918945 -5.057909965515137 -2.5
10.567440032958984 -2.6046483516693115 -2.5
10.742759704589844 -1.7458739280700684 -2.5
-10.055419921875 -2.478447198867798 -2.5
-9.527631759643555 -4.059340953826904 -2.5
-8.279314041137695 -6.221508502960205 -2.5
-7.751840591430664 -6.867543697357178 -2.5
-7.174103736877441 -7.469033241271973 -2.5
-6.549824237823486 -8.022085189819336 -2.5
-5.178175926208496 -8.968867301940918 -2.5
-3.672416925430298 -9.683363914489746 -2.5
-2.8813257217407227 -9.947470664978027 -2.5
-2.071540594100952 -10.14706039428711 -2.5
-1.2483203411102295 -10.280854225158691 -2.5
-0.41700437664985657 -10.347953796386719 -2.5
0.41701170802116394 -10.347953796386719 -2.5
2.8813207149505615 -9.947465896606445 -2.5
4.553627967834473 -6.597060203552246 -1.9350512027740479
5.003300666809082 -6.1279296875 -1.9097052812576294
5.780917644500732 -6.018574237823486 -2.0145089626312256
8.279311180114746 -6.221503734588623 -2.5
8.75308609008789 -5.535126686096191 -2.5
9.170097351074219 -4.812841892242432 -2.5
9.527633666992188 -4.059345722198486 -2.5
9.823379516601562 -3.279531240463257 -2.5
10.05541706085205 -2.478442430496216 -2.5
10.222244262695312 -1.6612792015075684 -2.5
-9.875300407409668 0.0 -2.5
-9.843276023864746 -0.794628918170929 -2.5
-9.747416496276855 -1.5841113328933716 -2.5
-9.588339805603027 -2.3633251190185547 -2.5
-9.367084503173828 -3.127197265625 -2.5
-7.894738674163818 -5.932509422302246 -2.5
-7.391765117645264 -6.548544883728027 -2.5
-6.840861797332764 -7.122094631195068 -2.5
-6.245588302612305 -7.649462699890137 -2.5
-5.609809398651123 -8.127216339111328 -2.5
-3.50182843208313 -9.233569145202637 -2.5
-2.7474827766418457 -9.4854097366333 -2.5
-1.190334439277649 -9.803300857543945 -2.5
1.1903369426727295 -9.803296089172363 -2.5
1.9753148555755615 -9.675726890563965 -2.5
4.233466625213623 -8.921850204467773 -2.5
4.93765115737915 -8.552265167236328 -2.5
5.012055397033691 -6.138652324676514 -2.006237030029297
7.391769886016846 -6.548540115356445 -2.5
7.894738674163818 -5.932514667510986 -2.5
8.744144439697266 -4.589282035827637 -2.5
9.085075378417969 -3.870790958404541 -2.5
9.747420310974121 -1.5841162204742432 -2.5
9.843278884887695 -0.7946337461471558 -2.5
-9.312423706054688 -1.5134228467941284 -2.5
-8.949065208435059 -2.9876365661621094 -2.5
-8.679640769958496 -3.698051691055298 -2.5
-8.353920936584473 -4.384482383728027 -2.5
-7.061896800994873 -6.256298542022705 -2.5
-5.359469890594482 -7.764516353607178 -2.5
-3.3455517292022705 -8.821508407592773 -2.5
-2.624868154525757 -9.062104225158691 -2.5
-1.8871630430221558 -9.24393081665039 -2.5
-1.1372168064117432 -9.36581039428711 -2.5
-0.379890114068985 -9.426942825317383 -2.5
0.37989744544029236 -9.426942825317383 -2.5
2.6248779296875 -9.06209945678711 -2.5
4.717304706573486 -8.170599937438965 -2.5
4.567033767700195 -6.616488933563232 -2.1303579807281494
5.780917644500732 -6.018574237823486 -2.2113261222839355
7.542421817779541 -5.667758464813232 -2.5
7.974025726318359 -5.042475700378418 -2.5
9.16044807434082 -2.257861375808716 -2.5
9.404006958007812 -0.7591747641563416 -2.5
-9.029279708862305 -4.882812390860636e-06 -2.5
-7.631452560424805 -4.825844764709473 -2.5
-7.218388557434082 -5.424272537231445 -2.5
-6.758505821228027 -5.987524509429932 -2.5
-3.2018284797668457 -8.442523956298828 -2.5
-2.5121068954467773 -8.672782897949219 -2.5
-1.8060864210128784 -8.846796989440918 -2.5
-0.36357176303863525 -9.021952629089355 -2.5
0.36357420682907104 -9.021957397460938 -2.5
4.514636039733887 -7.819584846496582 -2.5
5.129216194152832 -7.430947303771973 -2.5
5.710522174835205 -6.994121074676514 -2.5
5.780917644500732 -6.018574237823486 -2.3105926513671875
6.758510589599609 -5.987519264221191 -2.5
7.218390941619873 -5.424272537231445 -2.5
7.631454944610596 -4.825839519500732 -2.5
8.306750297546387 -3.5391697883605957 -2.5
8.564598083496094 -2.8592772483825684 -2.5
8.766901969909668 -2.1608495712280273 -2.5
8.99999713897705 -0.7265527248382568 -2.5
-8.403647422790527 -2.0713231563568115 -2.5
-7.962563514709473 -3.392534017562866 -2.5
-7.31524658203125 -4.625888347625732 -2.5
-6.919299125671387 -5.199526309967041 -2.5
-5.995636940002441 -6.242118835449219 -2.5
-5.473910808563232 -6.704326152801514 -2.5
-4.91668701171875 -7.123056411743164 -2.5
-3.710392951965332 -7.819511413574219 -2.5
-3.069155216217041 -8.092714309692383 -2.5
-2.408015012741089 -8.313432693481445 -2.5
1.0432641506195068 -8.592045783996582 -2.5
1.7312524318695068 -8.480238914489746 -2.5
2.408017635345459 -8.313432693481445 -2.5
3.069155216217041 -8.092714309692383 -2.5
4.327578067779541 -7.495575904846191 -2.5
4.91668701171875 -7.123051643371582 -2.5
5.473910808563232 -6.704326152801514 -2.5
5.99563455581665 -6.242118835449219 -2.5
6.919299125671387 -5.199521541595459 -2.5
8.209726333618164 -2.7408103942871094 -2.5
8.543070793151855 -1.388393521308899 -2.5
-8.308676719665527 0.0 -2.5
-8.201086044311523 -1.3328173160552979 -2.5
-6.219130516052246 -5.509677410125732 -2.5
-5.254785060882568 -6.435946941375732 -2.5
-4.154338359832764 -7.195531845092773 -2.5
-3.5618627071380615 -7.506479263305664 -2.5
-1.661953091621399 -8.140766143798828 -2.5
-0.3345580995082855 -8.301933288574219 -2.5
1.6619505882263184 -8.140756607055664 -2.5
2.3116161823272705 -7.980634689331055 -2.5
2.946296215057373 -7.768749713897705 -2.5
4.154338359832764 -7.195531845092773 -2.5
4.719868183135986 -6.837904930114746 -2.5
5.254782676696777 -6.43594217300415 -2.5
5.755617618560791 -5.992240905761719 -2.5
7.022407054901123 -4.440712928771973 -2.5
7.356967449188232 -3.8612353801727295 -2.5
7.881081581115723 -2.6310887336730957 -2.5
8.201081275939941 -1.3328075408935547 -2.5
8.281733512878418 -0.6685742139816284 -2.5
-7.960910320281982 -0.6426757574081421 -2.5
-7.883383750915527 -1.2811815738677979 -2.5
-7.575783729553223 -2.529169797897339 -2.5
-7.071972370147705 -3.711660146713257 -2.5
-6.750373363494873 -4.268686294555664 -2.5
-5.978212833404541 -5.296245098114014 -2.5
-5.532660961151123 -5.760107517242432 -2.5
-3.423884153366089 -7.2156982421875 -2.5
-2.832160472869873 -7.46780252456665 -2.5
-2.2220752239227295 -7.671479225158691 -2.5
-1.5975658893585205 -7.825395107269287 -2.5
0.3215966820716858 -7.980336666107178 -2.5
0.9627026319503784 -7.928578853607178 -2.5
1.5975682735443115 -7.825400352478027 -2.5
2.832160472869873 -7.46780252456665 -2.5
3.423884153366089 -7.21569299697876 -2.5
3.99340558052063 -6.916781902313232 -2.5
5.051220417022705 -6.186630725860596 -2.5
5.978215217590332 -5.296240329742432 -2.5
6.384999752044678 -4.798017501831055 -2.5
6.750373363494873 -4.2686767578125 -2.5
7.071969985961914 -3.711660146713257 -2.5
7.347707271575928 -3.130561351776123 -2.5
7.754731178283691 -1.911376953125 -2.5
7.883386135101318 -1.2811766862869263 -2.5
7.960915565490723 -0.6426708698272705 -2.5
-7.686962604522705 -4.882812390860636e-06 -2.5
-7.587421894073486 -1.2330809831619263 -2.5
-7.291359901428223 -2.434218645095825 -2.5
-7.071850299835205 -3.0130369663238525 -2.5
-6.806469440460205 -3.572319269180298 -2.5
-4.861581802368164 -5.954370021820068 -2.5
-4.366694450378418 -6.326254844665527 -2.5
-3.295344114303589 -6.944804668426514 -2.5
-2.1386473178863525 -7.383471488952637 -2.5
-1.5375951528549194 -7.531620979309082 -2.5
-0.30952391028404236 -7.680727481842041 -2.5
2.1386499404907227 -7.383461952209473 -2.5
2.725830078125 -7.187436580657959 -2.5
4.861584186553955 -5.954365253448486 -2.5
5.324943542480469 -5.543862342834473 -2.5
5.753781795501709 -5.097402095794678 -2.5
6.145287990570068 -4.617885589599609 -2.5
6.49694299697876 -4.108417987823486 -2.5
6.806464672088623 -3.5723094940185547 -2.5
7.071850299835205 -3.0130321979522705 -2.5
7.291364669799805 -2.434213876724243 -2.5
7.662035942077637 -0.6185449361801147 -2.5
-7.406874656677246 0.0 -2.5
-7.310959339141846 -1.1881542205810547 -2.5
-7.191642761230469 -1.7725976705551147 -2.5
-6.814174652099609 -2.903247117996216 -2.5
-6.260217189788818 -3.958730459213257 -2.5
-5.544123649597168 -4.911669731140137 -2.5
-5.13092041015625 -5.341855525970459 -2.5
-4.684440612792969 -5.737407207489014 -2.5
-4.207585334777832 -6.095736980438232 -2.5
-3.703437328338623 -6.414535999298096 -2.5
-1.4815648794174194 -7.257187366485596 -2.5
-0.8928002715110779 -7.352870941162109 -2.5
-0.2982446253299713 -7.400868892669678 -2.5
0.8928027153015137 -7.352870941162109 -2.5
1.4815648794174194 -7.257187366485596 -2.5
2.060724973678589 -7.114433288574219 -2.5
2.6265110969543457 -6.925556659698486 -2.5
3.1752684116363525 -6.691733360290527 -2.5
3.703437328338623 -6.414540767669678 -2.5
4.207582950592041 -6.095742225646973 -2.5
4.684440612792969 -5.737402439117432 -2.5
5.130915641784668 -5.341860294342041 -2.5
6.814172267913818 -2.903247117996216 -2.5
7.310959339141846 -1.188149333000183 -2.5
7.382856369018555 -0.5960009694099426 -2.5
-7.144584655761719 0.0 -2.5
-7.121420860290527 -0.5749072432518005 -2.5
-4.058588981628418 -5.8798828125 -2.5
-3.5722949504852295 -6.187397480010986 -2.5
-0.8611816167831421 -7.092499732971191 -2.5
-0.2876830995082855 -7.1387939453125 -2.5
0.8611865043640137 -7.092494964599609 -2.5
2.53350830078125 -6.680307388305664 -2.5
3.5722973346710205 -6.187392234802246 -2.5
4.058588981628418 -5.8798828125 -2.5
4.949225902557373 -5.152695178985596 -2.5
5.347800254821777 -4.737734317779541 -2.5
5.711687088012695 -4.292055606842041 -2.5
6.038532733917236 -3.818544864654541 -2.5
6.326220512390137 -3.320253849029541 -2.5
6.5728759765625 -2.8004393577575684 -2.5
6.9369797706604 -1.7098095417022705 -2.5
7.121423244476318 -0.574902355670929 -2.5
-6.898407936096191 -4.882812390860636e-06 -2.5
-6.87603759765625 -0.5550976395606995 -2.5
-6.697951316833496 -1.6509032249450684 -2.5
-6.543388366699219 -2.184506893157959 -2.5
-6.346394062042236 -2.7039451599121094 -2.5
-5.514882564544678 -4.144169807434082 -2.5
-4.778700828552246 -4.975151062011719 -2.5
-4.362868785858154 -5.343544960021973 -2.5
-3.9187450408935547 -5.677285194396973 -2.5
-3.4492039680480957 -5.974204063415527 -2.5
-2.957292318344116 -6.232378005981445 -2.5
-1.9192602634429932 -6.626044750213623 -2.5
-1.3798632621765137 -6.758994102478027 -2.5
-0.8315111994743347 -6.848110198974609 -2.5
-0.2777734398841858 -6.892822265625 -2.5
0.27777099609375 -6.89281702041626 -2.5
0.8315087556838989 -6.848110198974609 -2.5
1.3798632621765137 -6.758994102478027 -2.5
2.4462084770202637 -6.450126647949219 -2.5
2.957292318344116 -6.232378005981445 -2.5
4.778693675994873 -4.975146293640137 -2.5
5.514882564544678 -4.144169807434082 -2.5
5.830468654632568 -3.686962842941284 -2.5
6.809079647064209 -1.1065869331359863 -2.5
-6.666840553283691 -4.882812390860636e-06 -2.5
-6.645222187042236 -0.5364599227905273 -2.5
-6.323740005493164 -2.1111767292022705 -2.5
-6.133354187011719 -2.6131787300109863 -2.5
-5.90319299697876 -3.0982372760772705 -2.5
-5.634743690490723 -3.5632030963897705 -2.5
-5.329758167266846 -4.005053520202637 -2.5
-4.9902024269104 -4.420937538146973 -2.5
-4.618283748626709 -4.808144569396973 -2.5
-4.216413497924805 -5.164174556732178 -2.5
-3.3334226608276367 -5.773657321929932 -2.5
-1.854833960533142 -6.403623104095459 -2.5
-0.26844480633735657 -6.661430358886719 -2.5
1.3335424661636353 -6.532109260559082 -2.5
2.858022451400757 -6.023163795471191 -2.5
3.3334202766418457 -5.773652076721191 -2.5
4.216418266296387 -5.164165019989014 -2.5
5.329758167266846 -4.005053520202637 -2.5
5.90319299697876 -3.0982275009155273 -2.5
6.133359432220459 -2.6131787300109863 -2.5
6.323742389678955 -2.1111717224121094 -2.5
6.473117351531982 -1.595483422279358 -2.5
6.580510139465332 -1.0694384574890137 -2.5
6.645222187042236 -0.5364599227905273 -2.5
-6.448561668395996 0.0 -2.5
-6.427651405334473 -0.5189013481140137 -2.5
-6.11669397354126 -2.042055606842041 -2.5
-5.450261116027832 -3.446537971496582 -2.5
-4.826813697814941 -4.276196002960205 -2.5
-4.467077732086182 -4.650727272033691 -2.5
-3.663203001022339 -5.307065486907959 -2.5
-3.2242796421051025 -5.584628582000732 -2.5
-0.25965818762779236 -6.443339824676514 -2.5
0.25965574383735657 -6.443339824676514 -2.5
1.2898778915405273 -6.3182373046875 -2.5
1.7941014766693115 -6.19396448135376 -2.5
2.286691904067993 -6.029511451721191 -2.5
4.078364372253418 -4.995087623596191 -2.5
4.467072486877441 -4.650722503662109 -2.5
4.826818943023682 -4.276191234588623 -2.5
5.155258655548096 -3.8739256858825684 -2.5
5.450258731842041 -3.446537971496582 -2.5
5.932548522949219 -2.527636766433716 -2.5
6.261181354522705 -1.5432469844818115 -2.5
6.427653789520264 -0.5188915729522705 -2.5
-6.242421627044678 0.0 -2.5
-6.222175121307373 -0.5023095607757568 -2.5
-6.061022758483887 -1.493920922279358 -2.5
-5.742897987365723 -2.4468212127685547 -2.5
-4.961127758026123 -3.728041887283325 -2.485306978225708
-4.672516822814941 -4.139496803283691 -2.5
-4.324277400970459 -4.502055644989014 -2.5
-3.546098470687866 -5.137416839599609 -2.5
-2.676076650619507 -5.639716625213623 -2.5
-1.7367528676986694 -5.995956897735596 -2.5
-0.7524389624595642 -6.196904182434082 -2.5
-0.25135985016822815 -6.237358093261719 -2.5
1.2486474514007568 -6.116264343261719 -2.5
2.2135913372039795 -5.836772441864014 -2.5
2.676074266433716 -5.639716625213623 -2.5
3.121210813522339 -5.406088829040527 -2.5
4.324272155761719 -4.502050876617432 -2.5
4.672519207000732 -4.139492034912109 -2.5
4.990458965301514 -3.7500877380371094 -2.5
5.276032447814941 -3.33636212348938 -2.5
5.921164512634277 -1.976782202720642 -2.5
6.222179889678955 -0.5023046731948853 -2.5
-6.047372817993164 0.0 -2.5
-6.02776575088501 -0.48661619424819946 -2.5
-5.969062328338623 -0.9700781106948853 -2.5
-5.871647834777832 -1.447241187095642 -2.5
-5.354687213897705 -2.810356378555298 -2.5
-5.111178874969482 -3.232119083404541 -2.5
-4.834528923034668 -3.6329150199890137 -2.5
-3.435305118560791 -4.976889610290527 -2.5
-3.023688793182373 -5.237187385559082 -2.5
-2.592460870742798 -5.4635009765625 -2.5
-0.7289282083511353 -6.003276348114014 -2.5
-0.2435034066438675 -6.042470455169678 -2.5
0.24350585043430328 -6.042470455169678 -2.5
1.209631323814392 -5.925156116485596 -2.5
1.6824877262115479 -5.808618068695068 -2.5
2.1444311141967773 -5.654399394989014 -2.5
3.824636220932007 -4.684326171875 -2.5
4.189162731170654 -4.361381530761719 -2.5
4.526523113250732 -4.010151386260986 -2.5
4.834531307220459 -3.6329150199890137 -2.5
5.111181735992432 -3.232119083404541 -2.5
5.563459396362305 -2.370371103286743 -2.5
5.871652603149414 -1.447231411933899 -2.5
6.02776575088501 -0.4866113066673279 -2.5
-5.843510627746582 -0.4717382788658142 -2.5
-5.786596775054932 -0.9404199123382568 -2.5
-5.692165374755859 -1.4030028581619263 -2.5
-5.393395900726318 -2.297914981842041 -2.5
-5.190998554229736 -2.7244529724121094 -2.5
-4.686745643615723 -3.521865129470825 -2.5
-3.707719564437866 -4.5411376953125 -2.5
-3.3302905559539795 -4.824760437011719 -2.5
-2.9312596321105957 -5.077094554901123 -2.5
-2.0788793563842773 -5.481547832489014 -2.5
-1.1726561784744263 -5.744032859802246 -2.5
0.23605956137180328 -5.857758522033691 -2.5
1.1726561784744263 -5.744032859802246 -2.5
1.6310595273971558 -5.631054401397705 -2.5
2.5132176876068115 -5.296494007110596 -2.5
2.9312572479248047 -5.077085018157959 -2.5
3.3302879333496094 -4.824760437011719 -2.5
3.7077221870422363 -4.5411376953125 -2.5
4.686745643615723 -3.521865129470825 -2.5
4.954943656921387 -3.133315324783325 -2.5
5.393398284912109 -2.297905206680298 -2.5
5.560810565948486 -1.8564696311950684 -2.5
5.843508243560791 -0.471748024225235 -2.5
-5.687026023864746 0.0 -2.5
-5.668581485748291 -0.4576171636581421 -2.5
-5.613376140594482 -0.9122704863548279 -2.5
-5.39434814453125 -1.8009082078933716 -2.5
-5.231943130493164 -2.2291259765625 -2.5
-4.806613445281982 -3.0395262241363525 -2.5
-4.54644775390625 -3.416445255279541 -2.5
-4.256796836853027 -3.7712011337280273 -2.5
-3.230597972869873 -4.68032693862915 -2.5
-2.437980890274048 -5.137944221496582 -2.5
-2.0166454315185547 -5.317461013793945 -2.5
-1.1375560760498047 -5.572089672088623 -2.5
-0.685498058795929 -5.645561218261719 -2.5
-0.22899413108825684 -5.682412147521973 -2.5
1.1375536918640137 -5.572089672088623 -2.5
1.5822679996490479 -5.462490081787109 -2.5
2.0166430473327637 -5.317455768585205 -2.5
2.843513011932373 -4.925112247467041 -2.5
3.596730947494507 -4.405195236206055 -2.5
4.256796836853027 -3.7712011337280273 -2.5
4.546452522277832 -3.416435480117798 -2.5
4.806613445281982 -3.0395214557647705 -2.5
5.231947898864746 -2.229120969772339 -2.5
5.394335746765137 -1.8008984327316284 -2.5
-5.520161151885986 0.0 -2.5
-5.448671817779541 -0.8855029344558716 -2.5
-5.07843017578125 -2.1637206077575684 -2.5
-4.887858867645264 -2.5653514862060547 -2.5
-4.413046836853027 -3.3161962032318115 -2.5
-4.131894588470459 -3.6605420112609863 -2.5
-3.8239500522613525 -3.981152296066284 -2.5
-2.760075569152832 -4.780600547790527 -2.5
-2.366445302963257 -4.987187385559082 -2.5
-1.9574755430221558 -5.161435604095459 -2.5
-1.535805583000183 -5.302202224731445 -2.5
-1.1041747331619263 -5.40859842300415 -2.5
-0.6653783917427063 -5.479902267456055 -2.5
0.22227294743061066 -5.515673637390137 -2.5
0.6654052734375 -5.479902267456055 -2.5
1.535803198814392 -5.302206993103027 -2.5
1.9574755430221558 -5.161435604095459 -2.5
2.366452693939209 -4.987192153930664 -2.5
3.135805606842041 -4.543007850646973 -2.5
3.8239452838897705 -3.981157064437866 -2.5
4.13189697265625 -3.6605420112609863 -2.5
4.665580749511719 -2.9503369331359863 -2.5
4.887858867645264 -2.5653417110443115 -2.5
5.236069202423096 -1.7480517625808716 -2.5
5.448674201965332 -0.885498046875 -2.5
5.50225830078125 -0.44419431686401367 -2.5
-5.343883991241455 -0.4314062297344208 -2.5
-5.291840553283691 -0.8600146174430847 -2.5
-4.747168064117432 -2.491508722305298 -2.5
-4.531291484832764 -2.865419864654541 -2.5
-4.286025524139404 -3.2207469940185547 -2.5
-4.012959003448486 -3.555180549621582 -2.5
-3.3907055854797363 -4.152871131896973 -2.5
-2.298332452774048 -4.843637466430664 -2.5
-0.21587646007537842 -5.356923580169678 -2.5
0.21587646007537842 -5.356923580169678 -2.5
0.646228015422821 -5.322177410125732 -2.5
1.072390079498291 -5.252919673919678 -2.5
1.9011303186416626 -5.012876033782959 -2.5
3.3907079696655273 -4.152865886688232 -2.5
4.286025524139404 -3.2207422256469727 -2.5
4.531291484832764 -2.865419864654541 -2.5
4.747165203094482 -2.491508722305298 -2.5
4.932258129119873 -2.1014404296875 -2.5
5.343883991241455 -0.4314013719558716 -2.5
