ply
format ascii 1.0
element vertex 770
property float x
property float y
property float z
end_header
-12.189892768859863 -12.69100570678711 4.715104103088379
-9.157217025756836 -15.860722541809082 4.907347679138184
4.812216758728027 -16.61368179321289 4.634606838226318
23.35693359375 -12.258710861206055 7.068083763122559
4.813237190246582 -16.617216110229492 4.430715084075928
23.363759994506836 -12.26229476928711 6.757675647735596
23.370555877685547 -12.265849113464355 6.448843955993652
-12.181982040405273 -12.68277359008789 4.090755462646484
4.815263748168945 -16.624217987060547 4.026077747344971
23.3773193359375 -12.269404411315918 6.141501426696777
-27.755102157592773 -9.266044616699219 6.4657464027404785
-12.227079391479492 -12.72972583770752 3.900242805480957
-9.119935989379883 -15.796142578125 4.030465126037598
4.816269397735596 -16.627704620361328 3.8252196311950684
23.3802490234375 -12.270936965942383 5.8345537185668945
-12.23500919342041 -12.737977981567383 3.6979851722717285
4.817270278930664 -16.631162643432617 3.6252551078796387
-12.210028648376465 -12.7119722366333 3.4870147705078125
-9.1016845703125 -15.764540672302246 3.601210832595825
4.818271160125732 -16.63460922241211 3.426137685775757
23.384002685546875 -12.272900581359863 5.224518299102783
-27.71415901184082 -9.25235366821289 5.444509983062744
4.819267272949219 -16.63802719116211 3.227806329727173
23.385868072509766 -12.273896217346191 4.921515464782715
-9.083662033081055 -15.733339309692383 3.177422523498535
-27.68153190612793 -9.241464614868164 4.771493911743164
-9.07992172241211 -15.726835250854492 2.9691386222839355
-27.665327072143555 -9.236074447631836 4.437445163726807
4.822231292724609 -16.64826202392578 2.637026309967041
-28.436410903930664 -7.008984088897705 4.124360084533691
-27.64920425415039 -9.230664253234863 4.104908466339111
-12.1588716506958 -12.658720016479492 2.471766948699951
-9.081893920898438 -15.730263710021973 2.352926015853882
4.824189186096191 -16.655019760131836 2.2461626529693604
23.39510726928711 -12.278739929199219 3.422597646713257
-27.61715316772461 -9.219980239868164 3.444009304046631
-9.08254337310791 -15.731395721435547 2.1487083435058594
4.825165748596191 -16.65837860107422 2.051478147506714
4.826137542724609 -16.66175651550293 1.8572213649749756
-9.083867073059082 -15.733652114868164 1.741731882095337
-27.569520950317383 -9.204092025756836 2.461766242980957
-9.08450698852539 -15.734785079956055 1.5388741493225098
23.402400970458984 -12.282567977905273 2.238515853881836
23.404218673706055 -12.28353500366211 1.9439327716827393
-9.085805892944336 -15.737040519714355 1.1341629028320312
4.830014705657959 -16.67513656616211 1.0835418701171875
23.406034469604492 -12.284462928771973 1.6498321294784546
4.830986022949219 -16.678485870361328 0.8907158970832825
-27.506669998168945 -9.183095932006836 1.1655248403549194
4.831948280334473 -16.681806564331055 0.6980316042900085
23.409652709960938 -12.28636646270752 1.0625051259994507
-27.491039276123047 -9.17788028717041 0.8433050513267517
-9.087753295898438 -15.740409851074219 0.5288528203964233
4.834848403930664 -16.69180679321289 0.12035766243934631
23.415067672729492 -12.28921890258789 0.18308928608894348
-27.444320678710938 -9.162275314331055 -0.12023665755987167
-9.089692115783691 -15.743759155273438 -0.07554671913385391
23.416879653930664 -12.290165901184082 -0.10992050170898438
-9.090341567993164 -15.744892120361328 -0.27703917026519775
4.836777210235596 -16.698476791381836 -0.2649134695529938
-9.090986251831055 -15.746015548706055 -0.4786285161972046
23.420488357543945 -12.29207992553711 -0.6963180303573608
-27.397733688354492 -9.146728515625 -1.0807703733444214
4.838706016540527 -16.705156326293945 -0.6507554650306702
-24.8842716217041 -2.008867025375366 -1.211296558380127
-27.382225036621094 -9.141542434692383 -1.4006502628326416
-9.09228515625 -15.748251914978027 -0.8823032975196838
4.839682579040527 -16.70849609375 -0.8440092206001282
23.424110412597656 -12.293954849243164 -1.2835458517074585
-24.62112808227539 -1.9876171350479126 -1.4730167388916016
-28.258657455444336 -6.965156078338623 -1.7356003522872925
-22.1688232421875 -16.65882682800293 -1.6536555290222168
4.840649127960205 -16.711854934692383 -1.0375481843948364
23.42591667175293 -12.294901847839355 -1.5776805877685547
-27.642168045043945 0.0 -1.956015944480896
-28.22071647644043 -6.955810546875 -2.056720495223999
-26.42904281616211 -8.823320388793945 -1.97163987159729
4.841616153717041 -16.715194702148438 -1.231420636177063
11.371787071228027 -19.696474075317383 -1.6093777418136597
22.46260643005371 -11.789374351501465 -1.7951191663742065
-27.828514099121094 -6.859120845794678 -2.347599983215332
-26.367835998535156 -11.23427677154541 -2.347599983215332
-24.22347068786621 -15.31801700592041 -2.3475232124328613
-21.55048370361328 -16.19417953491211 -2.207996368408203
-21.580053329467773 -19.118270874023438 -2.361469030380249
-20.024276733398438 -20.847450256347656 -2.367677688598633
-18.316640853881836 -22.433807373046875 -2.3721933364868164
-9.094233512878418 -15.751630783081055 -1.4897853136062622
-10.348554611206055 -27.28695297241211 -2.390362501144409
-1.1763622760772705 -29.191162109375 -2.3929338455200195
1.1755664348602295 -29.170995712280273 -2.391282081604004
3.516962766647339 -28.964784622192383 -2.389876127243042
4.842587947845459 -16.718564987182617 -1.42567777633667
10.300233840942383 -27.159442901611328 -2.3791909217834473
12.42577075958252 -26.186717987060547 -2.37412691116333
11.3973388671875 -19.740741729736328 -1.8670648336410522
18.23133659362793 -22.329374313354492 -2.361145257949829
14.479589462280273 -15.074862480163574 -1.7120757102966309
22.926698684692383 -17.228281021118164 -2.3489928245544434
24.22427749633789 -15.318476676940918 -2.347599983215332
26.36785125732422 -11.234267234802246 -2.347599983215332
-26.86016082763672 0.0 -2.5
-24.402090072631836 -1.9699218273162842 -2.2786056995391846
-26.079633712768555 -6.428066253662109 -2.5
-24.66170883178711 -8.233281135559082 -2.419917583465576
-21.318021774291992 -13.48070240020752 -2.347599983215332
-20.16415023803711 -15.1524019241333 -2.347599983215332
-18.879491806030273 -16.725780487060547 -2.347599983215332
-14.39273452758789 -20.85147476196289 -2.3581793308258057
-9.09488296508789 -15.752763748168945 -1.6930065155029297
-10.896415710449219 -22.963769912719727 -2.365755319595337
-9.025575637817383 -23.79856300354004 -2.368988037109375
-3.078056573867798 -25.35000991821289 -2.376772880554199
-1.0280028581619263 -25.51041030883789 -2.3763012886047363
1.0272070169448853 -25.48943328857422 -2.374345541000366
5.091894626617432 -24.94169807434082 -2.3693220615386963
4.843569278717041 -16.721942901611328 -1.6203641891479492
11.632577896118164 -20.148183822631836 -2.165391683578491
14.365898132324219 -20.812557220458984 -2.3537802696228027
15.965224266052246 -19.553857803344727 -2.3495430946350098
20.164159774780273 -15.152372360229492 -2.347599983215332
23.204437255859375 -9.886474609375 -2.347599983215332
25.403671264648438 -8.480976104736328 -2.4927220344543457
26.079652786254883 -6.428046703338623 -2.5
26.512332916259766 -4.308661937713623 -2.5
26.7730655670166 -2.1613476276397705 -2.5
-23.97758674621582 9.765624781721272e-06 -2.5
-23.280839920043945 -5.738232135772705 -2.5
-19.96651268005371 -10.479228019714355 -2.351091146469116
-18.00019073486328 -13.526288986206055 -2.347599983215332
-15.597338676452637 -16.238544464111328 -2.347599983215332
-9.662549018859863 -20.36341667175293 -2.350072145462036
-8.00155258178711 -21.098407745361328 -2.352692127227783
-6.283793926239014 -21.694217681884766 -2.3549036979675293
-4.521093845367432 -22.14582061767578 -2.356637477874756
-2.725898265838623 -22.44979476928711 -2.3578996658325195
4.518642425537109 -22.13374900817871 -2.3553519248962402
4.844541072845459 -16.725311279296875 -1.815531611442566
11.257983207702637 -19.49935531616211 -2.347599983215332
12.790522575378418 -18.530242919921875 -2.347599983215332
14.240107536315918 -17.440937042236328 -2.347599983215332
16.853412628173828 -14.930819511413574 -2.347599983215332
19.03023910522461 -12.033984184265137 -2.347599983215332
20.7618408203125 -10.89664077758789 -2.444744348526001
22.058876037597656 -9.398398399353027 -2.5
-21.57869529724121 -1.7420116662979126 -2.5
-21.3685302734375 -3.472734212875366 -2.5
-20.534770965576172 -6.855517387390137 -2.5
-19.916528701782227 -8.485634803771973 -2.5
-15.216606140136719 -13.480741500854492 -2.347599983215332
-14.082524299621582 -14.661444664001465 -2.347599983215332
-12.857094764709473 -15.747079849243164 -2.347599983215332
-11.5482759475708 -16.730594635009766 -2.347599983215332
-8.711586952209473 -15.088886260986328 -2.012016773223877
-4.066352367401123 -19.918338775634766 -2.347599983215332
0.8185839653015137 -20.312685012817383 -2.347599983215332
2.4504148960113525 -20.18095588684082 -2.347599983215332
4.628246784210205 -15.978534698486328 -1.9210381507873535
6.015727519989014 -15.86214828491211 -1.9590575695037842
10.164594650268555 -17.605566024780273 -2.347599983215332
12.857104301452637 -15.7470703125 -2.347599983215332
16.612674713134766 -12.483603477478027 -2.3996970653533936
18.280067443847656 -11.559598922729492 -2.497627019882202
19.916547775268555 -8.485644340515137 -2.5
20.534774780273438 -6.855488300323486 -2.5
21.36854362487793 -3.47271466255188 -2.5
-19.72799301147461 0.0 -2.5
-19.664012908935547 -1.587441325187683 -2.5
-19.472509384155273 -3.164599657058716 -2.5
-18.712705612182617 -6.247226238250732 -2.5
-18.149335861206055 -7.732714653015137 -2.5
-17.4682559967041 -9.168046951293945 -2.5
-14.14101505279541 -12.527851104736328 -2.394087076187134
-12.832983016967773 -13.360536575317383 -2.347599983215332
-11.716283798217773 -14.34984302520752 -2.347599983215332
-10.206313133239746 -14.78636646270752 -2.2768194675445557
-8.711586952209473 -15.088886260986328 -2.207925796508789
-7.94167947769165 -16.736757278442383 -2.347599983215332
-6.569179534912109 -17.321542739868164 -2.347599983215332
0.7459570169448853 -18.510351181030273 -2.347599983215332
2.232988119125366 -18.39029312133789 -2.347599983215332
7.941694259643555 -16.736766815185547 -2.347599983215332
9.262685775756836 -16.043447494506836 -2.347599983215332
10.5236177444458 -15.246073722839355 -2.347599983215332
12.969413757324219 -13.50259780883789 -2.3725593090057373
14.715214729309082 -13.036552429199219 -2.491300344467163
15.771401405334473 -11.851435661315918 -2.5
16.673906326293945 -10.543925285339355 -2.5
17.468271255493164 -9.168046951293945 -2.5
18.71271514892578 -6.247206687927246 -2.5
19.154706954956055 -4.721171855926514 -2.5
19.472503662109375 -3.164599657058716 -2.5
19.664012908935547 -1.587441325187683 -2.5
-18.11605453491211 0.0 -2.5
-18.057310104370117 -1.4577245712280273 -2.5
-17.589624404907227 -4.335468769073486 -2.5
-16.666400909423828 -7.100908279418945 -2.5
-16.04097557067871 -8.418954849243164 -2.5
-14.48275375366211 -10.883085250854492 -2.5
-12.4617919921875 -12.974091529846191 -2.482539415359497
-10.916361808776855 -13.3701171875 -2.3819420337677
-8.505844116210938 -14.732577323913574 -2.347599983215332
-7.292783260345459 -15.369237899780273 -2.347599983215332
-4.732944011688232 -16.340057373046875 -2.347599983215332
-3.40276837348938 -16.66790008544922 -2.347599983215332
-0.6849902272224426 -16.997909545898438 -2.347599983215332
2.050546884536743 -16.88765525817871 -2.347599983215332
3.402778148651123 -16.667909622192383 -2.347599983215332
5.974867820739746 -15.754413604736328 -2.3251969814300537
7.292792797088623 -15.36922836303711 -2.347599983215332
9.750737190246582 -14.126386642456055 -2.36873197555542
11.300825119018555 -13.841005325317383 -2.4658315181732178
14.482758522033691 -10.883075714111328 -2.5
15.31151294708252 -9.682421684265137 -2.5
16.666400909423828 -7.100898265838623 -2.5
17.881444931030273 -2.905996084213257 -2.5
18.057310104370117 -1.4577441215515137 -2.5
-16.68946647644043 -1.3473047018051147 -2.5
-16.526927947998047 -2.685908079147339 -2.5
-15.88206958770752 -5.302216529846191 -2.5
-14.825859069824219 -7.781200885772705 -2.5
-9.433667182922363 -13.667031288146973 -2.4795312881469727
-8.048036575317383 -13.939628601074219 -2.403297185897827
-6.740346431732178 -14.205018997192383 -2.347599983215332
-4.374428749084473 -15.102274894714355 -2.347599983215332
-3.145014524459839 -15.405292510986328 -2.347599983215332
1.8952001333236694 -15.608417510986328 -2.347599983215332
3.14501953125 -15.405312538146973 -2.347599983215332
6.873803615570068 -14.48624038696289 -2.3940773010253906
9.50606918334961 -13.771894454956055 -2.498558521270752
11.5988130569458 -12.075663566589355 -2.5
13.3856782913208 -10.058671951293945 -2.5
16.25721549987793 -4.007050514221191 -2.5
16.68941879272461 -1.3471875190734863 -2.5
-15.561083793640137 1.9531249563442543e-05 -2.5
-15.510629653930664 -1.252138614654541 -2.5
-15.359575271606445 -2.4961912631988525 -2.5
-15.10891056060791 -3.7240233421325684 -2.5
-14.315878868103027 -6.099413871765137 -2.5
-10.779555320739746 -11.222684860229492 -2.5
-9.841543197631836 -12.0537109375 -2.5
-8.839696884155273 -12.806532859802246 -2.5
-7.780541896820068 -13.47630786895752 -2.5
-6.655927658081055 -14.027099609375 -2.494385004043579
-4.19058084487915 -14.467577934265137 -2.41986083984375
-2.9771337509155273 -14.582987785339355 -2.3911869525909424
-1.7810595035552979 -14.668319702148438 -2.3738760948181152
-0.5934032797813416 -14.725214958190918 -2.367631435394287
1.7917627096176147 -14.756454467773438 -2.38814377784729
7.780556678771973 -13.476298332214355 -2.5
8.839712142944336 -12.806523323059082 -2.5
9.841547966003418 -12.05370044708252 -2.5
10.779545783996582 -11.222695350646973 -2.5
12.440204620361328 -9.348212242126465 -2.5
13.778661727905273 -7.231601238250732 -2.5
14.315888404846191 -6.099433422088623 -2.5
14.760268211364746 -4.927695274353027 -2.5
15.359569549560547 -2.4961814880371094 -2.5
15.510615348815918 -1.2521288394927979 -2.5
-14.483935356140137 -1.1692479848861694 -2.5
-13.368270874023438 -5.695683479309082 -2.5
-10.876649856567383 -9.635869026184082 -2.5
-10.066015243530273 -10.479833602905273 -2.5
-9.19009780883789 -11.255829811096191 -2.5
-8.254570007324219 -11.958818435668945 -2.5
-5.152773380279541 -13.586776733398438 -2.5
-4.042792797088623 -13.957343101501465 -2.5
-2.904472589492798 -14.227030754089355 -2.498180627822876
0.5842528939247131 -14.498065948486328 -2.4963464736938477
1.750038981437683 -14.412860870361328 -2.497875690460205
5.152792930603027 -13.586776733398438 -2.5
6.229355335235596 -13.128105163574219 -2.5
7.265536785125732 -12.584257125854492 -2.5
8.254584312438965 -11.958807945251465 -2.5
10.066015243530273 -10.479833602905273 -2.5
11.616747856140137 -8.729433059692383 -2.5
14.342880249023438 -2.330947160720825 -2.5
14.483930587768555 -1.1692675352096558 -2.5
-13.625663757324219 1.9531249563442543e-05 -2.5
-13.581483840942383 -1.0964062213897705 -2.5
-13.229741096496582 -3.2608494758605957 -2.5
-12.924443244934082 -4.314804553985596 -2.5
-12.5353364944458 -5.340810298919678 -2.5
-12.064926147460938 -6.332158088684082 -2.5
-11.516279220581055 -7.282460689544678 -2.5
-4.600429534912109 -3.4570019245147705 -1.0558279752731323
-8.617494583129883 -10.554521560668945 -2.5
-6.812836647033691 -11.80019474029541 -2.5
-5.841220378875732 -12.3101167678833 -2.5
-4.831713676452637 -12.740234375 -2.5
-3.790898323059082 -13.0877046585083 -2.5
-2.7254834175109863 -13.350312232971191 -2.5
-1.6424022912979126 -13.526328086853027 -2.5
-0.548657238483429 -13.614619255065918 -2.5
0.5486621260643005 -13.614628791809082 -2.5
2.7254834175109863 -13.350312232971191 -2.5
4.831743240356445 -12.740234375 -2.5
5.841225624084473 -12.310126304626465 -2.5
7.740268230438232 -11.21371078491211 -2.5
10.198959350585938 -9.03548812866211 -2.5
11.516279220581055 -7.282460689544678 -2.5
12.924457550048828 -4.314824104309082 -2.5
13.229741096496582 -3.2608299255371094 -2.5
-12.781865119934082 -1.0318652391433716 -2.5
-12.657387733459473 -2.057021379470825 -2.5
-11.797308921813965 -5.026386737823486 -2.5
-4.205492973327637 -3.160224437713623 -1.025568962097168
-3.5677099227905273 -12.317157745361328 -2.5
-2.565019369125366 -12.564287185668945 -2.5
-1.5456883907318115 -12.729950904846191 -2.5
-0.5163476467132568 -12.8130464553833 -2.5
0.516357421875 -12.8130464553833 -2.5
1.5457030534744263 -12.729941368103027 -2.5
2.565019369125366 -12.56429672241211 -2.5
3.567704916000366 -12.317157745361328 -2.5
4.547260761260986 -11.99013614654541 -2.5
5.497319221496582 -11.585341453552246 -2.5
6.411728382110596 -11.105439186096191 -2.5
7.284560203552246 -10.553495407104492 -2.5
8.11014175415039 -9.93310546875 -2.5
9.598485946655273 -8.503515243530273 -2.5
10.251615524291992 -7.703574180603027 -2.5
12.45082950592041 -3.06884765625 -2.5
12.781865119934082 -1.0318554639816284 -2.5
-12.10750961303711 9.765624781721272e-06 -2.5
-12.068251609802246 -0.97425776720047 -2.5
-11.484418869018555 -3.834062337875366 -2.5
-11.138667106628418 -4.745732307434082 -2.5
-5.034535884857178 -2.642324209213257 -1.1740262508392334
-8.387167930603027 -8.731952667236328 -2.5
-7.657338619232178 -9.378535270690918 -2.5
-6.053750038146973 -10.485419273376465 -2.5
-3.3685107231140137 -11.62948226928711 -2.5
-2.421811580657959 -11.862841606140137 -2.5
-0.4875243902206421 -12.097695350646973 -2.5
3.368525266647339 -11.629501342773438 -2.5
6.877861022949219 -9.964296340942383 -2.5
7.65734338760376 -9.378535270690918 -2.5
8.387167930603027 -8.731972694396973 -2.5
9.679262161254883 -7.273505687713623 -2.5
11.138667106628418 -4.745741844177246 -2.5
11.484423637390137 -3.834062337875366 -2.5
11.755693435668945 -2.897509813308716 -2.5
11.950727462768555 -1.942177653312683 -2.5
12.068256378173828 -0.97425776720047 -2.5
-4.925849437713623 -2.585283041000366 -1.2131054401397705
-3.6792235374450684 -3.2595019340515137 -1.071871280670166
-2.2931933403015137 -11.23282241821289 -2.5
-1.3818944692611694 -11.3809175491333 -2.5
0.4616357386112213 -11.45523452758789 -2.5
1.381899356842041 -11.3809175491333 -2.5
3.18963360786438 -11.01187515258789 -2.5
4.914755821228027 -10.357617378234863 -2.5
5.732265472412109 -9.92855453491211 -2.5
8.581308364868164 -7.602372646331787 -2.5
10.151328086853027 -5.327812194824219 -2.5
10.547123908996582 -4.493700981140137 -2.5
10.874516487121582 -3.630449056625366 -2.5
-10.883706092834473 0.0 -2.5
-10.84841251373291 -0.875781238079071 -2.5
-10.742758750915527 -1.7458691596984863 -2.5
-4.836713790893555 -2.5384960174560547 -1.2547187805175781
-4.2071533203125 -2.660449266433716 -1.1433978080749512
-6.18264627456665 -8.957109451293945 -2.5
-4.665761470794678 -9.832890510559082 -2.5
-2.177016496658325 -10.663759231567383 -2.5
-1.3118896484375 -10.80435562133789 -2.5
-0.4382373094558716 -10.874873161315918 -2.5
2.1770215034484863 -10.663740158081055 -2.5
3.8594188690185547 -10.17642593383789 -2.5
4.665766716003418 -9.832900047302246 -2.5
8.146567344665527 -7.217226505279541 -2.5
8.700902938842773 -6.538300514221191 -2.5
9.198793411254883 -5.816962718963623 -2.5
10.012792587280273 -4.266054630279541 -2.5
10.323583602905273 -3.4465136528015137 -2.5
-10.356351852416992 -9.765624781721272e-06 -2.5
-10.322772979736328 -0.8333398103713989 -2.5
-10.055415153503418 -2.478456974029541 -2.5
-9.823383331298828 -3.279531240463257 -2.5
-3.6629345417022705 -2.7525291442871094 -1.106050729751587
-5.883076190948486 -8.523115158081055 -2.5
-5.178168773651123 -8.968867301940918 -2.5
-4.439692497253418 -9.356454849243164 -2.5
-3.6724071502685547 -9.683359146118164 -2.5
-2.8813085556030273 -9.947480201721191 -2.5
-1.248315453529358 -10.280839920043945 -2.5
-0.41700682044029236 -10.347968101501465 -2.5
0.41701170802116394 -10.3479585647583 -2.5
2.071537971496582 -10.147069931030273 -2.5
3.672416925430298 -9.683359146118164 -2.5
5.883080959320068 -8.523115158081055 -2.5
7.17410135269165 -7.46902322769165 -2.5
7.751840591430664 -6.867538928985596 -2.5
8.753095626831055 -5.535136699676514 -2.5
9.1701021194458 -4.812851428985596 -2.5
10.055429458618164 -2.4784374237060547 -2.5
10.222246170043945 -1.6612889766693115 -2.5
10.32277774810791 -0.8333398103713989 -2.5
-9.8753023147583 9.765624781721272e-06 -2.5
-9.843276023864746 -0.794628918170929 -2.5
-9.747421264648438 -1.5841015577316284 -2.5
-9.367079734802246 -3.1271777153015137 -2.5
-9.085073471069336 -3.870790958404541 -2.5
-4.746987342834473 -2.491406202316284 -1.3571892976760864
-4.133994102478027 -2.6141796112060547 -1.238242506980896
-3.3056640625 -3.4415624141693115 -1.2080587148666382
-5.609814167022705 -8.127216339111328 -2.5
-4.233461856842041 -8.921854972839355 -2.5
-2.7474803924560547 -9.4854097366333 -2.5
-1.9753124713897705 -9.675742149353027 -2.5
-1.190332055091858 -9.803300857543945 -2.5
0.3976415991783142 -9.867294311523438 -2.5
5.609819412231445 -8.127226829528809 -2.5
6.245590686798096 -7.649453163146973 -2.5
6.840864181518555 -7.122118949890137 -2.5
7.894736289978027 -5.932509422302246 -2.5
8.744140625 -4.589286804199219 -2.5
9.588349342346191 -2.3633203506469727 -2.5
9.747421264648438 -1.5841211080551147 -2.5
9.843276023864746 -0.794628918170929 -2.5
-9.43459415435791 1.9531249563442543e-05 -2.5
-9.160439491271973 -2.257861375808716 -2.5
-8.949057579040527 -2.9876365661621094 -2.5
-5.4283447265625 -2.312802791595459 -1.5635294914245605
-4.702495098114014 -2.4680566787719727 -1.4072707891464233
-4.097104549407959 -2.5908594131469727 -1.2845155000686646
-3.584355354309082 -2.693476438522339 -1.1880648136138916
-3.3265185356140137 -2.9470410346984863 -1.1776273250579834
-3.234672784805298 -3.3676464557647705 -1.2373337745666504
-5.359467506408691 -7.764540672302246 -2.5
-4.717299461364746 -8.170615196228027 -2.5
-4.044531345367432 -8.523691177368164 -2.5
-3.3455467224121094 -8.821503639221191 -2.5
-1.8871630430221558 -9.243935585021973 -2.5
-0.37989744544029236 -9.426972389221191 -2.5
1.1372168064117432 -9.365819931030273 -2.5
1.887172818183899 -9.243935585021973 -2.5
2.624872922897339 -9.062108993530273 -2.5
3.3455615043640137 -8.821503639221191 -2.5
4.044545650482178 -8.523691177368164 -2.5
4.717309474945068 -8.170605659484863 -2.5
5.359472751617432 -7.764531135559082 -2.5
5.966869831085205 -7.308085918426514 -2.5
6.535575866699219 -6.804257869720459 -2.5
7.061899185180664 -6.256308555603027 -2.5
8.353925704956055 -4.384482383728027 -2.5
8.949057579040527 -2.9876365661621094 -2.5
9.160453796386719 -2.2578516006469727 -2.5
-9.029281616210938 0.0 -2.5
-8.999990463256836 -0.7265527248382568 -2.5
-8.766899108886719 -2.1608495712280273 -2.5
-8.564604759216309 -2.8592967987060547 -2.5
-4.060649394989014 -2.567802667617798 -1.3302360773086548
-3.166738271713257 -3.29693341255188 -1.2657252550125122
-3.070268392562866 -3.760390520095825 -1.3441259860992432
-4.514638423919678 -7.819580078125 -2.5
-3.2018213272094727 -8.442519187927246 -2.5
-2.512099504470825 -8.672792434692383 -2.5
-1.8060839176177979 -8.846806526184082 -2.5
-0.3635595738887787 -9.021943092346191 -2.5
1.0883642435073853 -8.963457107543945 -2.5
3.8707761764526367 -8.157509803771973 -2.5
4.5146484375 -7.819580078125 -2.5
5.710532188415527 -6.994121074676514 -2.5
6.254799842834473 -6.511952877044678 -2.5
7.218398094177246 -5.424286842346191 -2.5
7.631459712982178 -4.825829982757568 -2.5
7.995028972625732 -4.196123123168945 -2.5
8.56459903717041 -2.8592772483825684 -2.5
8.766913414001465 -2.1608495712280273 -2.5
9.000004768371582 -0.7265527248382568 -2.5
-8.627084732055664 -0.6964550614356995 -2.5
-8.403642654418945 -2.0713281631469727 -2.5
-8.209731101989746 -2.7408103942871094 -2.5
-5.382026195526123 -2.2930662631988525 -1.6897917985916138
-4.600581169128418 -2.4145703315734863 -1.5007596015930176
-4.327573299407959 -7.495585918426514 -2.5
-1.7312450408935547 -8.480243682861328 -2.5
-1.0432616472244263 -8.592050552368164 -2.5
0.3485107421875 -8.648144721984863 -2.5
1.0432714223861694 -8.592060089111328 -2.5
5.473920822143555 -6.704316139221191 -2.5
7.315258502960205 -4.625878810882568 -2.5
8.209731101989746 -2.740800619125366 -2.5
8.543081283569336 -1.3883788585662842 -2.5
8.627084732055664 -0.6964452862739563 -2.5
-5.340991020202637 -2.275585889816284 -1.7468345165252686
-4.546318054199219 -2.3860838413238525 -1.544900894165039
-4.009140491485596 -2.535224437713623 -1.4272658824920654
-3.0439844131469727 -3.169130802154541 -1.3221781253814697
-2.9351463317871094 -3.5948925018310547 -1.3964136838912964
-2.3116111755371094 -7.980634689331055 -2.5
-0.33455565571784973 -8.301942825317383 -2.5
1.001499056816101 -8.248095512390137 -2.5
1.6619482040405273 -8.140761375427246 -2.5
2.3116209506988525 -7.980644226074219 -2.5
2.9463086128234863 -7.768730163574219 -2.5
3.5618748664855957 -7.506484031677246 -2.5
4.154340744018555 -7.195527076721191 -2.5
5.755629539489746 -5.992246150970459 -2.5
7.022417068481445 -4.440722465515137 -2.5
7.881083965301514 -2.631093740463257 -2.5
8.067251205444336 -1.9883984327316284 -2.5
-7.98681116104126 0.0 -2.5
-7.883388519287109 -1.2811717987060547 -2.5
-7.575780868530273 -2.5291600227355957 -2.5
-4.491523265838623 -2.3573338985443115 -1.5877904891967773
-3.5076904296875 -2.635859251022339 -1.3734105825424194
-2.8711278438568115 -3.516494035720825 -1.4210070371627808
-2.726489305496216 -3.9499998092651367 -1.5023523569107056
-3.993398427963257 -6.916787147521973 -2.5
-3.423881769180298 -7.215683460235596 -2.5
-2.222060441970825 -7.671464443206787 -2.5
-1.59756338596344 -7.825409889221191 -2.5
-0.9627050757408142 -7.92858362197876 -2.5
2.2220654487609863 -7.671483993530273 -2.5
2.8321728706359863 -7.467812538146973 -2.5
3.993412971496582 -6.916787147521973 -2.5
4.537031173706055 -6.573007583618164 -2.5
5.051225662231445 -6.186621189117432 -2.5
6.38500452041626 -4.798007488250732 -2.5
7.071972370147705 -3.7116503715515137 -2.5
7.575790882110596 -2.529179573059082 -2.5
7.883388519287109 -1.2811815738677979 -2.5
-7.686957836151123 0.0 -2.5
-7.463593482971191 -1.8396190404891968 -2.5
-3.9150633811950684 -2.4757323265075684 -1.5065021514892578
-3.486445188522339 -2.6199023723602295 -1.4183430671691895
-2.7904882431030273 -3.4177441596984863 -1.434968113899231
-3.8434765338897705 -6.657118797302246 -2.5
-2.1386473178863525 -7.383476257324219 -2.5
-1.5375878810882568 -7.531620979309082 -2.5
-0.9265576004981995 -7.630918025970459 -2.5
-0.30952635407447815 -7.680722713470459 -2.5
2.1386523246765137 -7.383466720581055 -2.5
2.725830078125 -7.187431335449219 -2.5
3.295341730117798 -6.944794654846191 -2.5
4.366694450378418 -6.326250076293945 -2.5
4.861596584320068 -5.954355239868164 -2.5
5.324946403503418 -5.543867111206055 -2.5
6.14529275894165 -4.617890357971191 -2.5
6.49694299697876 -4.10842752456665 -2.5
7.071860313415527 -3.0130369663238525 -2.5
7.291367053985596 -2.4342284202575684 -2.5
7.463603496551514 -1.8396093845367432 -2.5
7.587426662445068 -1.2330858707427979 -2.5
7.662045955657959 -0.6185449361801147 -2.5
-7.406869888305664 0.0 -2.5
-7.310952186584473 -1.1881444454193115 -2.5
-7.191650390625 -1.7725976705551147 -2.5
-7.025688171386719 -2.345527410507202 -2.5
-4.437392711639404 -2.328925848007202 -1.6914767026901245
-3.022231340408325 -2.6774609088897705 -1.362807035446167
-2.8678221702575684 -2.985722541809082 -1.3973251581192017
-3.703442335128784 -6.414540767669678 -2.5
-2.060717821121216 -7.114433288574219 -2.5
-0.29823729395866394 -7.40087890625 -2.5
1.4815673828125 -7.257187366485596 -2.5
3.1752781867980957 -6.691738128662109 -2.5
3.703442335128784 -6.414540767669678 -2.5
4.207587718963623 -6.09573221206665 -2.5
4.684443473815918 -5.737402439117432 -2.5
5.130918025970459 -5.341865062713623 -2.5
5.544120788574219 -4.911669731140137 -2.5
5.921376705169678 -4.449609279632568 -2.5
6.558461666107178 -3.442138671875 -2.5
7.191640377044678 -1.7725878953933716 -2.5
-7.052070140838623 -1.1460741758346558 -2.5
-6.776894569396973 -2.2624707221984863 -2.5
-4.425082683563232 -2.322460889816284 -1.7487064599990845
-3.4061522483825684 -2.559560537338257 -1.4908708333969116
-2.646718740463257 -3.241650342941284 -1.4643598794937134
-2.464174747467041 -3.569999933242798 -1.517883062362671
0.2876953184604645 -7.138779163360596 -2.5
0.8611865043640137 -7.092499732971191 -2.5
1.9877489805221558 -6.862509727478027 -2.5
2.533505916595459 -6.680312156677246 -2.5
3.0628318786621094 -6.454784870147705 -2.5
4.05859375 -5.8798828125 -2.5
4.518564224243164 -5.534228324890137 -2.5
5.347802639007568 -4.737734317779541 -2.5
5.711694240570068 -4.292060375213623 -2.5
6.572880744934082 -2.8004491329193115 -2.5
6.776904106140137 -2.262460947036743 -2.5
7.052065372467041 -1.1460741758346558 -2.5
-6.697958946228027 -1.65090811252594 -2.5
-4.413081169128418 -2.316152334213257 -1.8061999082565308
-3.800356388092041 -2.403203010559082 -1.6295260190963745
-3.3645410537719727 -2.5282909870147705 -1.5252118110656738
-2.753164052963257 -2.8663573265075684 -1.4403347969055176
-2.5847020149230957 -3.1656932830810547 -1.4810795783996582
-1.9192577600479126 -6.626054763793945 -2.5
-0.8315087556838989 -6.848114967346191 -2.5
-0.27775877714157104 -6.892812252044678 -2.5
1.3798681497573853 -6.758984088897705 -2.5
1.9192626476287842 -6.626054763793945 -2.5
3.9187498092651367 -5.677265644073486 -2.5
4.778700828552246 -4.975156307220459 -2.5
5.163535118103027 -4.574501991271973 -2.5
5.830468654632568 -3.6869726181030273 -2.5
6.108237266540527 -3.2058591842651367 -2.5
6.543393611907959 -2.184511661529541 -2.5
6.876039981842041 -0.5550878643989563 -2.5
-6.580507755279541 -1.0694433450698853 -2.5
-6.473114967346191 -1.5954785346984863 -2.5
-6.323740005493164 -2.1111814975738525 -2.5
-4.404994964599609 -2.3119139671325684 -1.8655123710632324
-3.7940428256988525 -2.3992090225219727 -1.6833223104476929
-2.945488214492798 -2.6094822883605957 -1.4756346940994263
-2.326591730117798 -3.3706541061401367 -1.5358288288116455
-2.8580174446105957 -6.023163795471191 -2.5
-1.3335301876068115 -6.532109260559082 -2.5
-0.8035937547683716 -6.618242263793945 -2.5
-0.2684423625469208 -6.661425590515137 -2.5
0.26844725012779236 -6.661435604095459 -2.5
1.3335399627685547 -6.532109260559082 -2.5
1.854833960533142 -6.403623104095459 -2.5
2.3640966415405273 -6.233613014221191 -2.5
3.3334226608276367 -5.773652076721191 -2.5
3.7872021198272705 -5.486689567565918 -2.5
5.329760551452637 -4.005058288574219 -2.5
5.90319299697876 -3.0982420444488525 -2.5
6.323740005493164 -2.1111814975738525 -2.5
6.473119735717773 -1.59548819065094 -2.5
6.580507755279541 -1.069433569908142 -2.5
-6.427646160125732 -0.5188866853713989 -2.5
-6.261176586151123 -1.543251872062683 -2.5
-6.11669921875 -2.042050838470459 -2.5
-5.191908836364746 -2.2120702266693115 -2.187892198562622
-4.404750823974609 -2.3117969036102295 -1.9285507202148438
-3.7890477180480957 -2.396064281463623 -1.7380106449127197
-3.2916553020477295 -2.473525285720825 -1.5962622165679932
-2.649858236312866 -2.7588086128234863 -1.4829952716827393
-2.0862646102905273 -3.613515615463257 -1.6176210641860962
-2.7644433975219727 -5.82595682144165 -2.5
-2.286689519882202 -6.029511451721191 -2.5
-0.7772900462150574 -6.401542663574219 -2.5
-0.2596533000469208 -6.443339824676514 -2.5
0.7772900462150574 -6.401523113250732 -2.5
1.2898778915405273 -6.318242073059082 -2.5
1.794106364250183 -6.193984031677246 -2.5
4.078369140625 -4.995087623596191 -2.5
4.467074871063232 -4.650732517242432 -2.5
5.155258655548096 -3.8739256858825684 -2.5
5.450258731842041 -3.446542978286743 -2.5
5.709921836853027 -2.9968066215515137 -2.5
5.932543754577637 -2.5276269912719727 -2.5
6.11669921875 -2.042050838470459 -2.5
6.427656173706055 -0.5188964605331421 -2.5
-6.242421627044678 0.0 -2.5
-6.161577224731445 -1.0013574361801147 -2.5
-5.921162128448486 -1.9767773151397705 -2.5
-5.191908836364746 -2.2120702266693115 -2.260143518447876
-4.405742168426514 -2.312324285507202 -1.9926879405975342
-2.4143407344818115 -2.95703125 -1.5288437604904175
-2.2183446884155273 -3.2138280868530273 -1.5639326572418213
-1.8607128858566284 -3.9213671684265137 -1.7382804155349731
-1.7367430925369263 -5.99596643447876 -2.5
-1.2486425638198853 -6.116269588470459 -2.5
-0.7524316310882568 -6.19689416885376 -2.5
-0.2513476610183716 -6.237363338470459 -2.5
0.75244140625 -6.196913719177246 -2.5
1.2486523389816284 -6.116279125213623 -2.5
1.7367528676986694 -5.995956897735596 -2.5
2.2135984897613525 -5.836777210235596 -2.5
2.676079034805298 -5.639716625213623 -2.5
3.121210813522339 -5.406093597412109 -2.5
3.947988271713257 -4.835410118103027 -2.5
4.67251443862915 -4.139492034912109 -2.5
4.990454196929932 -3.750077962875366 -2.5
5.527392387390137 -2.900995969772339 -2.5
5.742905139923096 -2.4468164443969727 -2.5
6.161577224731445 -1.0013574361801147 -2.5
6.222177505493164 -0.5023242235183716 -2.5
-5.969057559967041 -0.9700683355331421 -2.5
-5.736162185668945 -1.9150097370147705 -2.5
-5.191908836364746 -2.2120702266693115 -2.333038330078125
-4.407163143157959 -2.313056707382202 -2.057619333267212
-2.860405206680298 -2.5341014862060547 -1.5798004865646362
-2.361577033996582 -2.892402172088623 -1.5436609983444214
-1.9889354705810547 -3.444941282272339 -1.6444648504257202
-1.8133105039596558 -3.821484327316284 -1.7486443519592285
-1.6824804544448853 -5.808613300323486 -2.5
1.2096385955810547 -5.925156116485596 -2.5
1.6824853420257568 -5.808613300323486 -2.5
2.592470645904541 -5.463505744934082 -2.5
3.023691415786743 -5.237187385559082 -2.5
3.435307502746582 -4.976904392242432 -2.5
4.189169883728027 -4.361386775970459 -2.5
4.526533126831055 -4.010146617889404 -2.5
5.736166954040527 -1.9150097370147705 -2.5
-5.560810565948486 -1.85647451877594 -2.5
-3.2655956745147705 -2.453935384750366 -1.7419308423995972
-2.3102049827575684 -2.8295018672943115 -1.5576997995376587
-1.9470555782318115 -3.3724119663238525 -1.660600185394287
-1.7912304401397705 -3.7749509811401367 -1.7818180322647095
-2.078871965408325 -5.481552600860596 -2.5
-1.172646403312683 -5.744032859802246 -2.5
-0.7066552639007568 -5.819785118103027 -2.5
0.7066454887390137 -5.819775104522705 -2.5
1.6310644149780273 -5.631064414978027 -2.5
2.9312596321105957 -5.077089786529541 -2.5
3.3303027153015137 -4.824765682220459 -2.5
3.7077245712280273 -4.541132926940918 -2.5
4.388159275054932 -3.887568235397339 -2.5
4.686752796173096 -3.521865129470825 -2.5
4.954946041107178 -3.133310556411743 -2.5
5.692162990570068 -1.4029979705810547 -2.5
-5.668583869934082 -0.4576171636581421 -2.5
-3.7826220989227295 -2.3919920921325684 -1.9674017429351807
-3.2636523246765137 -2.452470541000366 -1.7946141958236694
-2.8247265815734863 -2.502500057220459 -1.6589516401290894
-2.2730321884155273 -2.7839550971984863 -1.5799295902252197
-1.9072118997573853 -3.303408145904541 -1.6768155097961426
-2.0166406631469727 -5.317461013793945 -2.5
-1.1375536918640137 -5.572089672088623 -2.5
-0.6854931712150574 -5.645546913146973 -2.5
-0.22899413108825684 -5.682421684265137 -2.5
0.22899413108825684 -5.682412147521973 -2.5
0.6854882836341858 -5.645576000213623 -2.5
1.1375585794448853 -5.572089672088623 -2.5
2.016650438308716 -5.317461013793945 -2.5
2.437983274459839 -5.137948989868164 -2.5
3.230605363845825 -4.680331707000732 -2.5
4.256801605224609 -3.771191358566284 -2.5
5.035614967346191 -2.642890453338623 -2.5
5.231947898864746 -2.229130744934082 -2.5
5.521767616271973 -1.3609960079193115 -2.5
-5.520165920257568 9.765624781721272e-06 -2.5
-5.502255916595459 -0.4441894292831421 -2.5
-5.359745979309082 -1.3210742473602295 -2.5
-3.2629246711730957 -2.4519336223602295 -1.8484567403793335
-2.236821174621582 -2.7396092414855957 -1.6017582416534424
-2.0392186641693115 -2.9543261528015137 -1.625751256942749
-1.8681102991104126 -3.235663890838623 -1.692078948020935
-1.7480419874191284 -3.6839451789855957 -1.846701979637146
-1.9574706554412842 -5.161435604095459 -2.5
-0.6653808355331421 -5.479921817779541 -2.5
-0.22227050364017487 -5.515683650970459 -2.5
0.22228026390075684 -5.515703201293945 -2.5
1.104164958000183 -5.408593654632568 -2.5
1.5358006954193115 -5.302206993103027 -2.5
2.366455078125 -4.987196922302246 -2.5
3.135815382003784 -4.543007850646973 -2.5
4.413051605224609 -3.3162012100219727 -2.5
5.078437328338623 -2.1637206077575684 -2.5
5.359750747680664 -1.3210742473602295 -2.5
5.448676586151123 -0.885498046875 -2.5
5.502260684967041 -0.4441894292831421 -2.5
-5.291840553283691 -0.8600097298622131 -2.5
-4.9322509765625 -2.101435422897339 -2.5
-2.4443700313568115 -2.544872999191284 -1.6454287767410278
-1.8319774866104126 -3.173085927963257 -1.7085355520248413
0.2158837914466858 -5.35693359375 -2.5
0.6462353467941284 -5.322177410125732 -2.5
1.0723974704742432 -5.252910137176514 -2.5
1.4915966987609863 -5.149609088897705 -2.5
1.9011377096176147 -5.012880802154541 -2.5
2.6806347370147705 -4.642997741699219 -2.5
3.045546770095825 -4.412246227264404 -2.5
3.3907177448272705 -4.152871131896973 -2.5
3.713876962661743 -3.866572141647339 -2.5
4.012973308563232 -3.555185556411743 -2.5
4.286025524139404 -3.2207324504852295 -2.5
4.747177600860596 -2.491523265838623 -2.5
5.085361003875732 -1.6977343559265137 -2.5
5.205483436584473 -1.2830370664596558 -2.5
5.291840553283691 -0.8600097298622131 -2.5
5.343886375427246 -0.431396484375 -2.5
