ply
format ascii 1.0
element vertex 966
property float x
property float y
property float z
end_header
12.417768478393555 17.99025535583496 4.073399543762207
10.240922927856445 17.737817764282227 3.8166325092315674
3.8349266052246094 18.78472328186035 3.572585344314575
-3.8502538204193115 18.859731674194336 3.58685040473938
-5.415082931518555 18.69498062133789 3.6268577575683594
-15.286386489868164 18.72242546081543 4.503941535949707
14.75578784942627 18.072574615478516 4.08062744140625
12.417485237121582 17.989845275878906 3.8231687545776367
10.240922927856445 17.737804412841797 3.5822551250457764
8.785768508911133 18.515644073486328 3.584444522857666
3.8349266052246094 18.78472137451172 3.3531951904296875
3.075014591217041 25.3250675201416 4.461862087249756
-0.7678564190864563 19.05388069152832 3.335209846496582
-2.314077138900757 19.058177947998047 3.357738494873047
-10.802216529846191 18.7099609375 3.778589963912964
-14.426708221435547 9.122896194458008 2.9853851795196533
25.54983139038086 8.529794692993164 4.404052257537842
23.20008087158203 17.43374252319336 4.744829177856445
14.851035118103027 18.189245223999023 3.839304208755493
12.442797660827637 18.026517868041992 3.5812840461730957
3.8349218368530273 18.78472137451172 3.1346569061279297
2.3125243186950684 19.04530906677246 3.1367833614349365
0.7676757574081421 19.04961395263672 3.117145299911499
-5.597192287445068 19.323667526245117 3.289293050765991
-15.286396026611328 18.722429275512695 3.9518492221832275
-14.425668716430664 9.122243881225586 2.790616273880005
23.330501556396484 17.531747817993164 4.4400506019592285
20.378978729248047 18.054241180419922 4.142251014709473
5.117787837982178 17.668638229370117 2.7986509799957275
3.5349462032318115 29.112987518310547 4.461862087249756
-3.89165997505188 19.062564849853516 2.960049867630005
-11.01723575592041 19.08238410949707 3.352381467819214
-13.17578125 19.08838653564453 3.5288195610046387
20.51366424560547 18.173559188842773 3.8594024181365967
16.939727783203125 17.636144638061523 3.4436564445495605
15.08013916015625 18.469825744628906 3.3578147888183594
11.485468864440918 24.205169677734375 3.7729289531707764
5.117783069610596 17.668638229370117 2.59043288230896
3.8349218368530273 18.78472328186035 2.699892520904541
0.7676708698272705 19.049612045288086 2.684809446334839
-3.891664981842041 19.062562942504883 2.7398266792297363
-7.232988357543945 19.071855545043945 2.8724255561828613
-14.423637390136719 9.120954513549805 2.4032280445098877
20.696041107177734 18.33512306213379 3.5817136764526367
16.93973159790039 17.63614273071289 3.167741537094116
12.54234790802002 18.170730590820312 2.860109806060791
10.240922927856445 17.73780059814453 2.653204917907715
11.48547077178955 24.205169677734375 3.4706060886383057
3.8349266052246094 18.78472137451172 2.483551263809204
-7.33031702041626 19.328487396240234 2.677813768386841
-11.017226219177246 19.08238410949707 2.854327440261841
-13.175776481628418 19.08838653564453 3.0045530796051025
20.843637466430664 18.465883255004883 3.2939367294311523
12.564702033996582 18.203123092651367 2.6163389682769775
10.240922927856445 17.73780059814453 2.4227495193481445
21.00391960144043 18.60789680480957 3.0043699741363525
16.939727783203125 17.636144638061523 2.6181533336639404
10.240922927856445 17.73780059814453 2.192894220352173
6.770195007324219 17.851547241210938 2.044114589691162
5.117787837982178 17.668638229370117 1.9694548845291138
2.267392635345459 18.673612594604492 2.013979434967041
-0.7528710961341858 18.6820125579834 2.0018181800842285
-3.8157079219818115 18.690532684326172 2.04238224029541
-7.091821193695068 18.699644088745117 2.1412270069122314
-13.175776481628418 19.08838653564453 2.483286142349243
-14.420595169067383 9.119029998779297 1.8267431259155273
21.24909210205078 18.82509422302246 2.721595287322998
12.318368911743164 17.84625244140625 2.0789132118225098
11.485468864440918 24.205169677734375 2.568528890609741
6.802231311798096 17.935998916625977 1.8390246629714966
5.117783069610596 17.668638229370117 1.7635116577148438
3.8113670349121094 18.66931915283203 1.8267370462417603
2.267392635345459 18.673612594604492 1.8033801317214966
0.752685546875 18.677824020385742 1.7920886278152466
-0.7528662085533142 18.6820125579834 1.7924904823303223
-2.268915891647339 18.686229705810547 1.804598331451416
-5.415087699890137 18.69498062133789 1.8659515380859375
-7.09182596206665 18.699644088745117 1.9173216819763184
-8.875444412231445 18.70460319519043 1.9848382472991943
-10.80221176147461 18.7099609375 2.0712053775787354
-13.17578125 19.08838653564453 2.223612070083618
-14.419584274291992 9.118391990661621 1.635608434677124
21.24909210205078 18.825090408325195 2.404437780380249
11.48547077178955 24.205169677734375 2.269212484359741
6.801987171173096 17.935361862182617 1.6246602535247803
3.8113622665405273 18.66931915283203 1.613863468170166
2.267387628555298 18.673612594604492 1.5932284593582153
0.752685546875 18.677825927734375 1.5832527875900269
-2.2689208984375 18.686229705810547 1.5943048000335693
-3.8157079219818115 18.690532684326172 1.6156976222991943
-5.415082931518555 18.69498062133789 1.6485083103179932
-7.09182596206665 18.69964599609375 1.6938921213150024
-8.875444412231445 18.704605102539062 1.7535408735275269
-10.802216529846191 18.709962844848633 1.8298434019088745
-15.286386489868164 18.722429275512695 2.047168016433716
-14.418574333190918 9.117755889892578 1.4449065923690796
23.707849502563477 17.8153076171875 2.1810638904571533
20.915328979492188 18.52939224243164 2.0550878047943115
16.93971061706543 17.636144638061523 1.798478364944458
15.277121543884277 18.71109390258789 1.7765759229660034
12.375458717346191 17.9289493560791 1.6022374629974365
3.8113622665405273 18.66931915283203 1.4013891220092773
2.267392635345459 18.673612594604492 1.3834704160690308
0.752685546875 18.677825927734375 1.3748083114624023
-0.7528710961341858 18.6820125579834 1.3751168251037598
-2.2689208984375 18.686229705810547 1.3844058513641357
-5.415082931518555 18.69498062133789 1.4314727783203125
-8.875444412231445 18.704607009887695 1.5226773023605347
-10.802216529846191 18.709964752197266 1.588934302330017
-15.286386489868164 18.722429275512695 1.7776464223861694
-14.417572975158691 9.117120742797852 1.2545888423919678
16.939725875854492 17.636144638061523 1.5262459516525269
15.277544021606445 18.711606979370117 1.507698893547058
12.374960899353027 17.92823600769043 1.3596508502960205
11.48547077178955 24.205167770385742 1.67218017578125
3.8113720417022705 18.66931915283203 1.189260482788086
2.267387628555298 18.673612594604492 1.174054503440857
-0.7528710961341858 18.6820125579834 1.1669650077819824
-2.268915891647339 18.686229705810547 1.1748477220535278
-5.415087699890137 18.69498062133789 1.2147903442382812
-8.875444412231445 18.704607009887695 1.292189359664917
-12.9186372756958 18.715848922729492 1.419385313987732
-14.416269302368164 9.116293907165527 1.0645852088928223
16.939727783203125 17.636144638061523 1.254390835762024
15.277963638305664 18.712121963500977 1.2391772270202637
10.240922927856445 17.73780059814453 1.0506490468978882
6.801259517669678 17.933433532714844 0.9838582873344421
5.117787837982178 17.66864013671875 0.9435955882072449
0.7526904344558716 18.677831649780273 0.9588866829872131
-3.8157126903533936 18.690532684326172 0.9785363674163818
-5.415082931518555 18.69498062133789 0.9984079003334045
-8.875444412231445 18.704607009887695 1.062020182609558
-10.802206993103027 18.709964752197266 1.1082321405410767
-15.286386489868164 18.722429275512695 1.2398535013198853
-14.415023803710938 9.115509986877441 0.8748824596405029
20.994586944580078 18.599620819091797 1.1273293495178223
16.939725875854492 17.636144638061523 0.9828194975852966
15.278383255004883 18.712636947631836 0.970947265625
12.373969078063965 17.926801681518555 0.8754836916923523
10.240922927856445 17.73781394958496 0.8232027888298035
2.267392635345459 18.673620223999023 0.7560390830039978
0.752685546875 18.677831649780273 0.7513052225112915
-2.268915891647339 18.686235427856445 0.7565496563911438
-3.8157126903533936 18.690536499023438 0.7667010426521301
-7.091830730438232 18.699647903442383 0.8038070201873779
-12.9186372756958 18.715850830078125 0.9140209555625916
16.939725875854492 17.636144638061523 0.7115280032157898
15.278803825378418 18.71314811706543 0.702940046787262
11.485468864440918 24.205169677734375 0.7795727252960205
5.117787837982178 17.668638229370117 0.5352352857589722
-5.415087699890137 18.69498634338379 0.566326916217804
-7.091835975646973 18.699647903442383 0.5819180011749268
-8.875439643859863 18.704607009887695 0.6024093627929688
-12.9186372756958 18.715850830078125 0.6617074608802795
-14.412680625915527 9.114027976989746 0.4961785674095154
19.91030502319336 8.482987403869629 0.3897576928138733
23.812177658081055 17.893701553344727 0.5364303588867188
20.995574951171875 18.600500106811523 0.5051599144935608
16.939725875854492 17.636144638061523 0.44039762020111084
15.279223442077637 18.71366310119629 0.4350866675376892
12.372981071472168 17.92536735534668 0.39226073026657104
10.240922927856445 17.73780059814453 0.36886200308799744
5.117783069610596 17.668638229370117 0.3312780559062958
3.8113670349121094 18.669328689575195 0.3431552052497864
-0.7528710961341858 18.682018280029297 0.336721807718277
-3.8157079219818115 18.690536499023438 0.34354522824287415
-7.09182596206665 18.699647903442383 0.36017149686813354
-8.875449180603027 18.704607009887695 0.3728542923927307
-15.286396026611328 18.722434997558594 0.43528807163238525
-14.411508560180664 9.113286972045898 0.3070794641971588
20.996068954467773 18.600934982299805 0.19427551329135895
16.939725875854492 17.636144638061523 0.16936156153678894
15.279641151428223 18.714176177978516 0.1673397719860077
12.37248706817627 17.924652099609375 0.1508459448814392
6.800278186798096 17.93086814880371 0.13281890749931335
5.117783069610596 17.668638229370117 0.12740172445774078
3.8113720417022705 18.669328689575195 0.13196930289268494
2.267392635345459 18.673620223999023 0.1302819848060608
-0.7528710961341858 18.682018280029297 0.12949523329734802
-2.2689208984375 18.686235427856445 0.13037016987800598
-3.8157126903533936 18.690536499023438 0.13211944699287415
-8.875444412231445 18.704607009887695 0.14339111745357513
-10.80221176147461 18.709964752197266 0.1496301293373108
-12.9186372756958 18.715850830078125 0.15750548243522644
-15.286396026611328 18.722434997558594 0.16740141808986664
19.200685501098633 10.07730770111084 -0.09011352062225342
23.809595108032227 17.891767501831055 -0.12376571446657181
20.996564865112305 18.60137367248535 -0.11656554788351059
15.280057907104492 18.71470069885254 -0.10040679574012756
12.371996879577637 17.92393684387207 -0.09050384163856506
10.240922927856445 17.737804412841797 -0.08511565625667572
6.800034046173096 17.93022918701172 -0.07969055324792862
3.8349316120147705 18.78473663330078 -0.07967285066843033
-0.757519543170929 18.797502517700195 -0.07817947119474411
-8.986552238464355 18.938766479492188 -0.08711395412683487
-13.17578125 19.088390350341797 -0.0963868722319603
-14.40916919708252 9.111807823181152 -0.07084701210260391
21.7717227935791 9.276062965393066 -0.36061781644821167
17.561460494995117 9.216971397399902 -0.30222198367118835
23.808305740356445 17.890796661376953 -0.45381253957748413
15.280478477478027 18.715211868286133 -0.3681701719760895
10.240922927856445 17.73780632019043 -0.3121057152748108
6.79979944229126 17.929590225219727 -0.2922021448612213
5.117787837982178 17.668638229370117 -0.2803044021129608
3.8349316120147705 18.78473663330078 -0.2921493351459503
0.7676708698272705 19.04961395263672 -0.2905166447162628
-8.995370864868164 18.957340240478516 -0.3197457790374756
-11.01723575592041 19.082387924194336 -0.3357641398906708
-13.175786018371582 19.088390350341797 -0.35343611240386963
-14.407998085021973 9.111067771911621 -0.2597653269767761
17.561460494995117 9.216974258422852 -0.5220979452133179
15.950248718261719 10.086339950561523 -0.4967883229255676
20.9975528717041 18.602251052856445 -0.7384573221206665
16.939708709716797 17.636144638061523 -0.6437446475028992
12.370988845825195 17.922496795654297 -0.5732789635658264
11.48547077178955 24.205169677734375 -0.705278754234314
3.8349266052246094 18.78473663330078 -0.5046961903572083
-11.01723575592041 19.082387924194336 -0.580043613910675
-13.17578125 19.088390350341797 -0.610571563243866
-14.406830787658691 9.11032772064209 -0.4487168788909912
17.561460494995117 9.216973304748535 -0.7421067357063293
15.950261116027832 10.086339950561523 -0.7061324715614319
12.370497703552246 17.921772003173828 -0.8148237466812134
11.48547077178955 24.20517349243164 -1.0024932622909546
6.79931640625 17.92830467224121 -0.717452347278595
5.117783069610596 17.668638229370117 -0.6882882714271545
3.8349266052246094 18.78473663330078 -0.7173721194267273
-0.757519543170929 18.797502517700195 -0.7039233446121216
-11.01723575592041 19.082387924194336 -0.8244706392288208
23.80442237854004 17.88787078857422 -1.44473135471344
20.998573303222656 18.6031551361084 -1.361159086227417
16.939725875854492 17.636144638061523 -1.186493992805481
15.281821250915527 18.71685218811035 -1.1723793745040894
12.369997024536133 17.921049118041992 -1.0565447807312012
10.240922927856445 17.737810134887695 -0.993775486946106
6.79906702041626 17.92766571044922 -0.9302926659584045
5.117787837982178 17.668638229370117 -0.8925089836120605
-11.017230987548828 19.082387924194336 -1.069097876548767
-13.17578125 19.088390350341797 -1.1253643035888672
20.94255256652832 18.553518295288086 -1.6684777736663818
15.282279968261719 18.717409133911133 -1.440969705581665
6.79882287979126 17.92702293395996 -1.1433472633361816
5.117783069610596 17.668638229370117 -1.096949577331543
3.8349266052246094 18.78473663330078 -1.1433019638061523
0.7676708698272705 19.04961585998535 -1.1369141340255737
-5.94094705581665 20.51043701171875 -1.2733819484710693
-7.781313419342041 20.517641067504883 -1.3085715770721436
-12.371176719665527 26.07170867919922 -1.7208956480026245
21.7717227935791 9.276068687438965 -1.6746129989624023
15.9502534866333 10.086339950561523 -1.3354049921035767
20.943050384521484 18.553958892822266 -1.9798961877822876
10.240922927856445 17.737804412841797 -1.4493094682693481
5.117783069610596 17.668638229370117 -1.301660418510437
0.7618994116783142 18.90620994567871 -1.338927984237671
-9.91067886352539 26.13228416442871 -1.9776911735534668
-9.298544883728027 19.596271514892578 -1.5348622798919678
-10.802206993103027 18.709964752197266 -1.5287723541259766
-12.918642044067383 18.715850830078125 -1.609232783317566
-8.896963119506836 10.896811485290527 -0.9954497814178467
-14.402138710021973 9.107364654541016 -1.205794095993042
27.18639373779297 9.076162338256836 -2.347599983215332
26.367910385131836 11.234315872192383 -2.347599983215332
17.561460494995117 9.216973304748535 -1.6245040893554688
20.943552017211914 18.554401397705078 -2.2918128967285156
16.939727783203125 17.636144638061523 -2.002969980239868
15.22783374786377 18.65072250366211 -1.9721599817276
10.240922927856445 17.737804412841797 -1.677672266960144
11.485468864440918 24.205169677734375 -2.1944727897644043
6.79833984375 17.925737380981445 -1.5703060626983643
-0.7528710961341858 18.68201446533203 -1.5314489603042603
-3.44671368598938 28.386215209960938 -2.342139482498169
-5.719687461853027 28.016746520996094 -2.3421294689178467
-7.955488204956055 27.465492248535156 -2.342120409011841
-12.918632507324219 18.715850830078125 -1.8627145290374756
-8.884389877319336 10.8814058303833 -1.1506201028823853
-19.854461669921875 20.670665740966797 -2.347599983215332
-21.453310012817383 19.00602149963379 -2.347599983215332
-27.186386108398438 9.076138496398926 -2.347599983215332
26.773054122924805 2.1613574028015137 -2.5
26.512313842773438 4.308688640594482 -2.5
26.079641342163086 6.428078651428223 -2.5
23.20442008972168 9.886483192443848 -2.347599983215332
19.17401123046875 10.063305854797363 -2.0154759883880615
15.950248718261719 10.086339950561523 -1.7564857006072998
18.879486083984375 16.725797653198242 -2.347599983215332
16.939725875854492 17.636146545410156 -2.276017904281616
15.228259086608887 18.6512451171875 -2.241091251373291
12.328879356384277 17.86147117614746 -2.0200276374816895
10.240922927856445 17.73780059814453 -1.906318187713623
5.117787837982178 17.668638229370117 -1.712099552154541
3.8113670349121094 18.669328689575195 -1.7734829187393188
-0.7528710961341858 18.682016372680664 -1.7402340173721313
-3.033212900161743 24.980712890625 -2.342149019241333
-7.001069068908691 24.17047882080078 -2.3421316146850586
-10.802216529846191 18.709964752197266 -2.010823965072632
-20.164159774780273 15.152366638183594 -2.347599983215332
-14.399789810180664 9.105877876281738 -1.5857453346252441
-22.333637237548828 11.721583366394043 -2.347599983215332
-24.33367156982422 8.123764038085938 -2.3877294063568115
-26.512298583984375 4.308676719665527 -2.5
-26.773046493530273 2.161325693130493 -2.5
23.977590560913086 4.882812390860636e-06 -2.5
23.66708755493164 3.8462986946105957 -2.5
23.28084945678711 5.738231182098389 -2.5
19.936853408813477 10.463672637939453 -2.347599983215332
15.083017349243164 9.53793716430664 -1.8606657981872559
16.8533935546875 14.930830955505371 -2.347599983215332
15.597318649291992 16.238542556762695 -2.347599983215332
10.240922927856445 17.73780059814453 -2.1355979442596436
3.8113670349121094 18.669328689575195 -1.9866888523101807
2.267392635345459 18.673620223999023 -1.9612865447998047
0.752685546875 18.677831649780273 -1.9490084648132324
-2.7039647102355957 22.26915740966797 -2.338927984237671
-4.487143516540527 21.979387283325195 -2.338927984237671
-6.241200923919678 21.54705238342285 -2.33892822265625
-9.298544883728027 19.596277236938477 -2.2615365982055664
-10.802216529846191 18.709964752197266 -2.252563238143921
-12.790502548217773 18.530223846435547 -2.347599983215332
-8.952431678771973 10.964742660522461 -1.4758851528167725
-16.853363037109375 14.93079948425293 -2.347599983215332
-18.000160217285156 13.526237487792969 -2.347599983215332
-14.293729782104492 9.038808822631836 -1.7632980346679688
-19.936840057373047 10.463642120361328 -2.347599983215332
-20.71419334411621 8.825471878051758 -2.347599983215332
-22.436439514160156 7.490379333496094 -2.4662351608276367
21.648889541625977 4.882812390860636e-06 -2.5
19.276681900024414 8.213027000427246 -2.4196836948394775
18.000593185424805 9.447443962097168 -2.347599983215332
12.857087135314941 15.747081756591797 -2.347599983215332
11.548280715942383 16.7305850982666 -2.347599983215332
6.776620864868164 17.86848258972168 -2.2068498134613037
5.117787837982178 17.668638229370117 -2.1242315769195557
-0.7528662085533142 18.68201446533203 -2.1591382026672363
-2.441357374191284 20.106401443481445 -2.338927984237671
-4.051347732543945 19.844751358032227 -2.338927984237671
-5.635048866271973 19.454402923583984 -2.338927984237671
-11.548315048217773 16.730566024780273 -2.347599983215332
-8.985102653503418 11.0047607421875 -1.640607237815857
-15.216601371765137 13.480734825134277 -2.347599983215332
-14.26870059967041 9.022985458374023 -1.949550986289978
-21.019832611083984 5.180920124053955 -2.5
19.472511291503906 3.1646130084991455 -2.5
18.712705612182617 6.247229099273682 -2.5
16.40338897705078 8.609171867370605 -2.347599983215332
15.657450675964355 9.901185035705566 -2.347599983215332
12.832963943481445 13.360543251037598 -2.347599983215332
9.262675285339355 16.04343605041504 -2.347599983215332
6.569184303283691 17.321510314941406 -2.347599983215332
2.5343213081359863 8.749455451965332 -1.1543360948562622
0.7459374666213989 18.51033592224121 -2.347599983215332
-3.705556631088257 18.15097427368164 -2.347599983215332
-6.569194316864014 17.321514129638672 -2.347599983215332
-7.94167947769165 16.736743927001953 -2.347599983215332
-10.5236177444458 15.24605941772461 -2.347599983215332
-9.020927429199219 11.0486421585083 -1.8075319528579712
-13.866430282592773 12.284586906433105 -2.347599983215332
-14.809975624084473 11.1289644241333 -2.347599983215332
-14.244990348815918 9.007984161376953 -2.1358160972595215
-18.149335861206055 7.73269510269165 -2.5
-19.66400909423828 1.5874340534210205 -2.5
18.116058349609375 3.662109293145477e-06 -2.5
18.05731201171875 1.4577478170394897 -2.5
17.183734893798828 5.736779689788818 -2.5
14.378114700317383 9.092182159423828 -2.347599983215332
13.59988021850586 10.219650268554688 -2.347599983215332
8.505849838256836 14.732562065124512 -2.347599983215332
7.292783260345459 15.36922836303711 -2.347599983215332
6.032431602478027 15.906210899353027 -2.347599983215332
-4.732958793640137 16.340038299560547 -2.347599983215332
-8.505839347839355 14.732559204101562 -2.347599983215332
-9.663759231567383 14.000333786010742 -2.347599983215332
-17.183725357055664 5.736764907836914 -2.5
-17.589618682861328 4.335447788238525 -2.5
-17.881444931030273 2.906033754348755 -2.5
16.526927947998047 2.685905694961548 -2.5
14.8228759765625 7.779652118682861 -2.499497175216675
13.28897476196289 8.4034423828125 -2.347599983215332
11.768869400024414 10.426326751708984 -2.347599983215332
10.891745567321777 11.339509010314941 -2.347599983215332
8.931706428527832 12.939821243286133 -2.347599983215332
6.74035120010376 14.205004692077637 -2.347599983215332
4.374423503875732 15.102279663085938 -2.347599983215332
1.8952099084854126 15.608415603637695 -2.347599983215332
-5.575473308563232 14.701312065124512 -2.347599983215332
-9.9439697265625 12.179156303405762 -2.347599983215332
-10.891742706298828 11.339509010314941 -2.347599983215332
-11.768861770629883 10.426318168640137 -2.347599983215332
-12.569677352905273 9.4454984664917 -2.347599983215332
-13.288959503173828 8.403433799743652 -2.347599983215332
-14.822890281677246 7.779635429382324 -2.499497413635254
-15.882064819335938 5.302206993103027 -2.5
-16.257226943969727 4.007041931152344 -2.5
-16.689443588256836 1.3473047018051147 -2.5
15.561091423034668 2.441406195430318e-06 -2.5
15.108908653259277 3.7240233421325684 -2.5
14.315876007080078 6.099431037902832 -2.5
13.77865219116211 7.231602668762207 -2.5
10.122424125671387 10.538561820983887 -2.347599983215332
8.300834655761719 12.025839805603027 -2.347599983215332
7.306249618530273 12.65478229522705 -2.347599983215332
5.181650161743164 13.662909507751465 -2.347599983215332
2.5345263481140137 8.750163078308105 -1.463559865951538
1.7613427639007568 14.505939483642578 -2.347599983215332
-0.5883935689926147 14.600627899169922 -2.347599983215332
-1.7613525390625 14.505938529968262 -2.347599983215332
-2.9228758811950684 14.317170143127441 -2.347599983215332
-6.264272212982178 13.201648712158203 -2.347599983215332
-8.300844192504883 12.025827407836914 -2.347599983215332
-9.241591453552246 11.31889820098877 -2.347599983215332
-10.937602043151855 9.689868927001953 -2.347599983215332
-11.681836128234863 8.778327941894531 -2.347599983215332
-13.778661727905273 7.23158597946167 -2.5
-14.760258674621582 4.927692890167236 -2.5
-15.10891056060791 3.724008798599243 -2.5
-15.359575271606445 2.496177911758423 -2.5
14.53105640411377 8.544921911379788e-06 -2.5
14.483932495117188 1.1692712306976318 -2.5
14.342875480651855 2.3309569358825684 -2.5
14.108800888061523 3.477515697479248 -2.5
10.213601112365723 9.048474311828613 -2.347599983215332
9.452384948730469 9.840984344482422 -2.347599983215332
8.629867553710938 10.569672584533691 -2.347599983215332
6.822621822357178 11.817126274108887 -2.347599983215332
4.838666915893555 12.758519172668457 -2.347599983215332
2.7294092178344727 13.369477272033691 -2.347599983215332
1.6447558403015137 13.545746803283691 -2.347599983215332
0.5494287014007568 13.634170532226562 -2.347599983215332
-1.6447607278823853 13.545746803283691 -2.347599983215332
-4.838666915893555 12.758519172668457 -2.347599983215332
-7.751376628875732 11.229799270629883 -2.347599983215332
-9.452387809753418 9.84097957611084 -2.347599983215332
-10.213607788085938 9.048468589782715 -2.347599983215332
-12.280200004577637 7.765530109405518 -2.4997363090515137
-12.86661148071289 6.752907752990723 -2.5
-13.368266105651855 5.695677280426025 -2.5
13.581491470336914 1.0964159965515137 -2.5
13.449225425720215 2.1857237815856934 -2.5
12.924448013305664 4.314816951751709 -2.5
12.5353364944458 5.340805530548096 -2.5
11.516276359558105 7.282464981079102 -2.5
8.863444328308105 9.227826118469238 -2.347599983215332
5.48513650894165 11.559694290161133 -2.347599983215332
2.534594774246216 8.750387191772461 -1.67149019241333
2.5593554973602295 12.536469459533691 -2.347599983215332
0.5152001976966858 12.784669876098633 -2.347599983215332
-5.485141277313232 11.55968952178955 -2.347599983215332
-6.397539138793945 11.08083438873291 -2.347599983215332
-8.0921630859375 9.911108016967773 -2.347599983215332
-8.863442420959473 9.227819442749023 -2.347599983215332
-11.516288757324219 7.282455921173096 -2.5
-12.064916610717773 6.332158088684082 -2.5
-12.535326957702637 5.34080171585083 -2.5
-12.924433708190918 4.314806938171387 -2.5
-13.229741096496582 3.2608349323272705 -2.5
-13.449213981628418 2.18571400642395 -2.5
12.657384872436523 2.0570335388183594 -2.5
12.163500785827637 4.060781002044678 -2.5
11.354592323303223 5.959356784820557 -2.5
10.25161075592041 7.70358943939209 -2.5
6.84048318862915 9.910147666931152 -2.347599983215332
2.534619092941284 8.750500679016113 -1.7760801315307617
2.4086620807647705 11.798371315002441 -2.347599983215332
1.4514745473861694 11.953930854797363 -2.347599983215332
0.4848681390285492 12.031960487365723 -2.347599983215332
-1.4514843225479126 11.953927993774414 -2.347599983215332
-3.350224494934082 11.566292762756348 -2.347599983215332
-6.02086877822876 10.428441047668457 -2.347599983215332
-7.615727424621582 9.327581405639648 -2.347599983215332
-8.34158706665039 8.684524536132812 -2.347599983215332
-9.037084579467773 8.006168365478516 -2.3537802696228027
-11.35460376739502 5.959344387054443 -2.5
-11.797289848327637 5.026352405548096 -2.5
-12.163496017456055 4.060771465301514 -2.5
-12.65737247467041 2.057027578353882 -2.5
12.068251609802246 0.9742553234100342 -2.5
11.95071792602539 1.9421886205673218 -2.5
11.138667106628418 4.745739459991455 -2.5
10.233141899108887 6.471060752868652 -2.5
9.67926025390625 7.27349853515625 -2.5
9.046347618103027 8.014382362365723 -2.495518684387207
7.1905517578125 8.806822776794434 -2.347599983215332
5.684716701507568 9.846222877502441 -2.347599983215332
2.5346531867980957 8.750614166259766 -1.8811269998550415
2.274184465408325 11.139665603637695 -2.347599983215332
0.4578027129173279 11.360212326049805 -2.347599983215332
-0.45780760049819946 11.360212326049805 -2.347599983215332
-4.031655311584473 10.630606651306152 -2.347599983215332
-4.873999118804932 10.271720886230469 -2.347599983215332
-5.684726238250732 9.846217155456543 -2.347599983215332
-7.190536975860596 8.806818962097168 -2.347599983215332
-7.900458812713623 8.22525691986084 -2.3549280166625977
-9.679272651672363 7.273487567901611 -2.5
-10.233149528503418 6.471053123474121 -2.5
-11.13866138458252 4.745729923248291 -2.5
-11.755668640136719 2.8975133895874023 -2.5
-11.95070743560791 1.9421789646148682 -2.5
-12.068232536315918 0.9742431640625 -2.5
11.46451187133789 2.441406195430318e-06 -2.5
11.316046714782715 1.8390440940856934 -2.5
10.87451171875 3.630449056625366 -2.5
10.151323318481445 5.327829360961914 -2.5
7.878002643585205 8.201869010925293 -2.4799325466156006
5.3828125 9.323317527770996 -2.347599983215332
4.61514139175415 9.726222038269043 -2.347599983215332
3.8175342082977295 10.066038131713867 -2.347599983215332
2.5346922874450684 8.750739097595215 -1.9866597652435303
2.1534130573272705 10.54806900024414 -2.347599983215332
1.2976512908935547 10.687143325805664 -2.347599983215332
-0.4334960877895355 10.756901741027832 -2.347599983215332
-1.297670841217041 10.687140464782715 -2.347599983215332
-2.1534032821655273 10.548063278198242 -2.347599983215332
-3.8175437450408936 10.066043853759766 -2.347599983215332
-4.615151405334473 9.726217269897461 -2.347599983215332
-5.382826805114746 9.323307991027832 -2.347599983215332
-6.808681488037109 8.339116096496582 -2.347599983215332
-7.729062557220459 8.046817779541016 -2.433051824569702
-8.528017044067383 7.55517053604126 -2.48447585105896
-9.165224075317383 6.887215614318848 -2.5
-9.689697265625 6.127389907836914 -2.5
-10.547119140625 4.493696212768555 -2.5
-10.874516487121582 3.630439281463623 -2.5
-11.316059112548828 1.8390405178070068 -2.5
10.74277114868164 1.7458752393722534 -2.5
10.323591232299805 3.446523427963257 -2.5
10.012784957885742 4.266047477722168 -2.5
9.637038230895996 5.057913780212402 -2.5
8.146564483642578 7.217236042022705 -2.5
5.805751800537109 8.411089897155762 -2.347599983215332
5.110121726989746 8.850982666015625 -2.347599983215332
4.381323337554932 9.23347282409668 -2.347599983215332
3.624135732650757 9.556085586547852 -2.347599983215332
2.044316291809082 10.013689041137695 -2.347599983215332
0.4115234315395355 10.21193790435791 -2.347599983215332
-2.044306516647339 10.013687133789062 -2.347599983215332
-4.381337642669678 9.233474731445312 -2.347599983215332
-5.110126972198486 8.850971221923828 -2.347599983215332
-5.805761814117432 8.411076545715332 -2.347599983215332
-8.700888633728027 6.538297176361084 -2.5
-9.637030601501465 5.057901382446289 -2.5
-10.51700210571289 2.59220814704895 -2.4880690574645996
-10.74276351928711 1.7458727359771729 -2.5
-10.848407745361328 0.8757665753364563 -2.5
10.32277774810791 0.8333446979522705 -2.5
10.222243309020996 1.661287784576416 -2.5
9.823378562927246 3.2795262336730957 -2.5
9.527628898620605 4.059345722198486 -2.5
9.170092582702637 4.812841892242432 -2.5
8.753090858459473 5.535121917724609 -2.5
7.17410135269165 7.469027996063232 -2.5
5.670331954956055 8.214895248413086 -2.4095942974090576
1.9452636241912842 9.528491973876953 -2.347599983215332
-0.39159178733825684 9.717140197753906 -2.347599983215332
-1.9452733993530273 9.52849006652832 -2.347599983215332
-2.7056736946105957 9.341063499450684 -2.347599983215332
-3.4485349655151367 9.093060493469238 -2.347599983215332
-4.862514495849609 8.422121047973633 -2.347599983215332
-6.428876876831055 7.873946189880371 -2.453834295272827
-7.751835823059082 6.867534160614014 -2.5
-8.279306411743164 6.221497535705566 -2.5
-9.170092582702637 4.812830924987793 -2.5
-9.823378562927246 3.279520273208618 -2.5
-10.055419921875 2.4784350395202637 -2.5
-10.222241401672363 1.6612805128097534 -2.5
9.8753023147583 1.220703097715159e-06 -2.5
9.843280792236328 0.794634997844696 -2.5
9.588339805603027 2.3633203506469727 -2.5
9.085070610046387 3.87078857421875 -2.5
8.744150161743164 4.589282035827637 -2.5
7.894741058349609 5.932509422302246 -2.5
6.245590686798096 7.649460315704346 -2.5
5.596210956573486 8.107512474060059 -2.4939401149749756
4.743700981140137 8.216339111328125 -2.4018027782440186
2.534858226776123 8.751297950744629 -2.3065173625946045
1.117773413658142 9.2056884765625 -2.347599983215332
-0.37340331077575684 9.26578426361084 -2.347599983215332
-1.1177831888198853 9.205687522888184 -2.347599983215332
-2.5799999237060547 8.907170295715332 -2.347599983215332
-3.2883543968200684 8.670686721801758 -2.347599983215332
-3.9779930114746094 8.383448600769043 -2.3491361141204834
-6.201303482055664 7.595221996307373 -2.4822747707366943
-7.391762733459473 6.54853630065918 -2.5
-7.894731044769287 5.932506084442139 -2.5
-8.744140625 4.589270114898682 -2.5
-9.085067749023438 3.870783567428589 -2.5
-9.367084503173828 3.127183675765991 -2.5
9.404006004333496 0.7591723203659058 -2.5
9.312426567077637 1.513426423072815 -2.5
9.160446166992188 2.2578539848327637 -2.5
8.949065208435059 2.987637758255005 -2.5
8.679643630981445 3.698049306869507 -2.5
7.974032878875732 5.042478084564209 -2.5
7.542436122894287 5.667764663696289 -2.5
4.704550743103027 8.148526191711426 -2.4932451248168945
2.4648680686950684 8.509678840637207 -2.347599983215332
-1.0679004192352295 8.794870376586914 -2.347599983215332
-1.772133708000183 8.680421829223633 -2.347599983215332
-3.867421865463257 8.150431632995605 -2.3905222415924072
-4.605244159698486 7.9765238761901855 -2.440617084503174
-5.308081150054932 7.690071105957031 -2.47602915763855
-5.95812463760376 7.297379016876221 -2.496335506439209
-7.06188440322876 6.256297588348389 -2.5
-7.542411804199219 5.667758464813232 -2.5
-8.35391616821289 4.384469032287598 -2.5
-8.679638862609863 3.6980395317077637 -2.5
-9.160444259643555 2.2578442096710205 -2.5
9.029279708862305 0.0 -2.5
9.0 0.7265563607215881 -2.5
8.564604759216309 2.8592894077301025 -2.5
8.306757926940918 3.5391783714294434 -2.5
7.995026588439941 4.196114540100098 -2.5
6.758520126342773 5.987526893615723 -2.5
6.254804611206055 6.51194429397583 -2.5
5.710527420043945 6.9941301345825195 -2.5
5.129209041595459 7.430954933166504 -2.5
3.8606345653533936 8.13614559173584 -2.493454933166504
3.113959789276123 8.210857391357422 -2.4314002990722656
2.381601572036743 8.222206115722656 -2.3701183795928955
1.6959960460662842 8.307501792907715 -2.347599983215332
1.0220165252685547 8.417036056518555 -2.347599983215332
0.3414013683795929 8.47197151184082 -2.347599983215332
-1.0220263004302979 8.417028427124023 -2.347599983215332
-2.375370979309082 8.200763702392578 -2.3639373779296875
-3.079409122467041 8.119757652282715 -2.4044225215911865
-3.7802586555480957 7.966741561889648 -2.4415366649627686
-4.462236404418945 7.728822231292725 -2.470982551574707
-5.111064434051514 7.404635429382324 -2.491149425506592
-6.758510589599609 5.987515926361084 -2.5
-8.306747436523438 3.5391697883605957 -2.5
-8.7669038772583 2.160848379135132 -2.5
-8.999984741210938 0.726550281047821 -2.5
8.655160903930664 0.0 -2.5
8.543075561523438 1.388391137123108 -2.5
8.40365219116211 2.071317195892334 -2.5
8.209731101989746 2.740814208984375 -2.5
7.962563514709473 3.392529249191284 -2.5
7.315258502960205 4.625887393951416 -2.5
6.91930627822876 5.199520111083984 -2.5
5.99563455581665 6.242120265960693 -2.5
4.916684627532959 7.123051166534424 -2.5
4.327573299407959 7.495580673217773 -2.5
3.7087156772613525 7.816000938415527 -2.4988811016082764
3.062387704849243 8.074883460998535 -2.494493246078491
1.6766504049301147 8.212756156921387 -2.4211466312408447
0.9978808164596558 8.218291282653809 -2.3912506103515625
0.33128905296325684 8.22101879119873 -2.376530647277832
-0.3281201124191284 8.14232063293457 -2.3537802696228027
-2.337827205657959 8.071144104003906 -2.427140712738037
-3.003969669342041 7.920843124389648 -2.4469075202941895
-3.6670408248901367 7.728147983551025 -2.4707939624786377
-4.307475566864014 7.460763931274414 -2.4883880615234375
-5.473920822143555 6.704324722290039 -2.5
-5.99563455581665 6.242116451263428 -2.5
-6.478481292724609 5.739424705505371 -2.5
-7.315238952636719 4.625880241394043 -2.5
-7.663744926452637 4.022244930267334 -2.5
-8.209721565246582 2.7408056259155273 -2.5
-8.403647422790527 2.0713157653808594 -2.5
-8.627079963684082 0.6964428424835205 -2.5
8.30868148803711 1.220703097715159e-06 -2.5
8.281743049621582 0.6685717701911926 -2.5
8.201090812683105 1.3328149318695068 -2.5
8.067245483398438 1.988399624824524 -2.5
7.881081581115723 2.631096124649048 -2.5
7.022421836853027 4.440706729888916 -2.5
6.642319202423096 4.991377830505371 -2.5
6.219135761260986 5.509675025939941 -2.5
5.254785060882568 6.435948371887207 -2.5
4.154330730438232 7.195526599884033 -2.5
3.5618553161621094 7.506478309631348 -2.5
2.945932626724243 7.767809867858887 -2.4996979236602783
-0.9429296851158142 7.765684127807617 -2.3537802696228027
-1.623696208000183 7.953348159790039 -2.4424452781677246
-2.271303653717041 7.841464042663574 -2.456403970718384
-2.9168994426727295 7.691267013549805 -2.4750664234161377
-3.544550657272339 7.46999979019165 -2.4878506660461426
-4.154340744018555 7.195535659790039 -2.5
-5.755624771118164 5.992237567901611 -2.5
-6.642319202423096 4.991368293762207 -2.5
-7.881078720092773 2.6310887336730957 -2.5
-8.067231178283691 1.9883922338485718 -2.5
7.986818790435791 0.0 -2.5
7.960917949676514 0.6426733136177063 -2.5
7.883393287658691 1.2811815738677979 -2.5
7.754735946655273 1.911373257637024 -2.5
7.57580041885376 2.5291736125946045 -2.5
6.750385761260986 4.268683910369873 -2.5
5.532660961151123 5.760109901428223 -2.5
5.051225662231445 6.186630725860596 -2.5
3.4238767623901367 7.2156901359558105 -2.5
1.5968017578125 7.82160758972168 -2.498785972595215
0.32111814618110657 7.968510150909424 -2.4962961673736572
-1.5782568454742432 7.730753421783447 -2.469761371612549
-2.8201024532318115 7.436028480529785 -2.4893627166748047
-4.537031173706055 6.57301139831543 -2.5
-5.532660961151123 5.760109901428223 -2.5
-6.38500452041626 4.798012733459473 -2.5
-6.750380516052246 4.268674373626709 -2.5
7.662040710449219 0.6185461282730103 -2.5
7.29137659072876 2.4342174530029297 -2.5
6.806474685668945 3.5723118782043457 -2.5
5.324951171875 5.543856143951416 -2.5
4.861586570739746 5.954362869262695 -2.5
3.8434765338897705 6.657105445861816 -2.5
3.2953319549560547 6.944791316986084 -2.5
2.1386570930480957 7.383467674255371 -2.5
1.5375927686691284 7.531613826751709 -2.5
-0.30253416299819946 7.5072455406188965 -2.4435336589813232
-2.725825071334839 7.187435150146484 -2.5
-3.295341730117798 6.944788455963135 -2.5
-3.8434765338897705 6.657103061676025 -2.5
-6.145287990570068 4.617880821228027 -2.5
-6.4969482421875 4.108420372009277 -2.5
-6.806449890136719 3.572303295135498 -2.5
-7.071840763092041 3.0130248069763184 -2.5
-7.291352272033691 2.4342126846313477 -2.5
-7.463583946228027 1.8396068811416626 -2.5
-7.587411880493164 1.2330760955810547 -2.5
-7.662031173706055 0.6185351610183716 -2.5
7.406884670257568 1.220703097715159e-06 -2.5
7.191655158996582 1.772581696510315 -2.5
7.025698184967041 2.345522403717041 -2.5
6.55846643447876 3.442145824432373 -2.5
6.260219573974609 3.9587278366088867 -2.5
4.207578182220459 6.095736026763916 -2.5
2.626518487930298 6.925546169281006 -2.5
2.060727596282959 7.114434719085693 -2.5
0.8927978277206421 7.352869510650635 -2.5
-0.2982470691204071 7.4008660316467285 -2.5
-3.1752636432647705 6.691741943359375 -2.5
-5.544130802154541 4.911662578582764 -2.5
-5.921376705169678 4.449616432189941 -2.5
-6.260219573974609 3.9587180614471436 -2.5
-6.5584716796875 3.442138671875 -2.5
-6.814155101776123 2.90324330329895 -2.5
-7.025678634643555 2.345515012741089 -2.5
-7.31094217300415 1.1881481409072876 -2.5
-7.382846355438232 0.5959972739219666 -2.5
7.121430397033691 0.5749011039733887 -2.5
6.326225280761719 3.3202574253082275 -2.5
6.038539886474609 3.818544864654541 -2.5
5.711689472198486 4.292055606842041 -2.5
4.518564224243164 5.534232139587402 -2.5
4.058588981628418 5.879878997802734 -2.5
3.5722899436950684 6.187393665313721 -2.5
2.533510684967041 6.680303573608398 -2.5
1.429101586341858 7.000198841094971 -2.5
0.2876855432987213 7.138792037963867 -2.5
-0.8611962795257568 7.092493057250977 -2.5
-1.429116129875183 7.00019645690918 -2.5
-2.533500909805298 6.680303573608398 -2.5
-3.5722899436950684 6.187392234802246 -2.5
-4.058588981628418 5.879875183105469 -2.5
-4.949228286743164 5.15269660949707 -2.5
-5.347797870635986 4.737736701965332 -2.5
-6.038539886474609 3.8185362815856934 -2.5
-6.326220512390137 3.32024884223938 -2.5
-7.052050590515137 1.1460729837417603 -2.5
-7.121406078338623 0.5748986601829529 -2.5
6.898417949676514 1.220703097715159e-06 -2.5
6.876049518585205 0.5550927519798279 -2.5
6.809086799621582 1.1065869331359863 -2.5
6.543403148651123 2.1845080852508545 -2.5
6.346401214599609 2.7039477825164795 -2.5
6.108246803283691 3.2058520317077637 -2.5
5.830468654632568 3.686967611312866 -2.5
5.514892578125 4.144168376922607 -2.5
5.163535118103027 4.574496746063232 -2.5
4.362865924835205 5.343544960021973 -2.5
3.9187400341033936 5.677277565002441 -2.5
3.4492039680480957 5.974197864532471 -2.5
2.957285165786743 6.232371807098389 -2.5
1.9192626476287842 6.626046180725098 -2.5
0.8315087556838989 6.8481125831604 -2.5
0.2777685523033142 6.892812728881836 -2.5
-1.3798730373382568 6.758998394012451 -2.5
-1.9192724227905273 6.626044750213623 -2.5
-2.957280158996582 6.232370376586914 -2.5
-3.4491991996765137 5.974194049835205 -2.5
-4.362865924835205 5.343544960021973 -2.5
-4.778696060180664 4.975151062011719 -2.5
-6.346401214599609 2.7039427757263184 -2.5
-6.543393611907959 2.1845006942749023 -2.5
-6.697963714599609 1.6508971452713013 -2.5
6.666850566864014 1.220703097715159e-06 -2.5
6.580512523651123 1.0694421529769897 -2.5
6.133364200592041 2.613182306289673 -2.5
5.903203010559082 3.098236083984375 -2.5
5.634750843048096 3.5632030963897705 -2.5
5.329760551452637 4.005055904388428 -2.5
4.990200042724609 4.420933723449707 -2.5
4.618281364440918 4.808142185211182 -2.5
3.3334131240844727 5.773651123046875 -2.5
2.8580126762390137 6.023157596588135 -2.5
1.8548437356948853 6.403623104095459 -2.5
1.3335497379302979 6.532109260559082 -2.5
0.8035986423492432 6.618230819702148 -2.5
0.26844725012779236 6.66143274307251 -2.5
-0.26845213770866394 6.661431789398193 -2.5
-0.80360347032547 6.618229866027832 -2.5
-1.3335448503494263 6.532107830047607 -2.5
-2.364077091217041 6.233604431152344 -2.5
-3.3334131240844727 5.7736496925354 -2.5
-3.7871923446655273 5.486695289611816 -2.5
-4.216406345367432 5.164169788360596 -2.5
-4.618276119232178 4.808142185211182 -2.5
-5.634750843048096 3.563196897506714 -2.5
-6.323750019073486 2.111170530319214 -2.5
-6.645229339599609 0.536456286907196 -2.5
6.427660942077637 0.5188989043235779 -2.5
6.365063190460205 1.034427523612976 -2.5
5.709926605224609 2.996798038482666 -2.5
4.826821327209473 4.276188850402832 -2.5
4.467080116271973 4.650722503662109 -2.5
3.2242772579193115 5.584615230560303 -2.5
2.764457941055298 5.825955867767334 -2.5
1.2898876667022705 6.318242073059082 -2.5
0.7772900462150574 6.401547908782959 -2.5
-0.25966307520866394 6.443332195281982 -2.5
-0.7772900462150574 6.40154504776001 -2.5
-1.289882779121399 6.318242073059082 -2.5
-2.7644383907318115 5.825953006744385 -2.5
-3.2242772579193115 5.584614276885986 -2.5
-3.663198232650757 5.307060241699219 -2.5
-4.078354358673096 4.995089054107666 -2.5
-5.155258655548096 3.8739233016967773 -2.5
-5.932548522949219 2.5276172161102295 -2.5
-6.116703987121582 2.042048215866089 -2.5
-6.261181354522705 1.5432409048080444 -2.5
-6.365058422088623 1.0344213247299194 -2.5
-6.427656173706055 0.5188928246498108 -2.5
6.222187519073486 0.5023120045661926 -2.5
6.161591529846191 1.0013598203659058 -2.5
6.06102991104126 1.4939135313034058 -2.5
5.921166896820068 1.976776123046875 -2.5
5.527392387390137 2.9010021686553955 -2.5
5.27603006362915 3.3363659381866455 -2.5
4.990454196929932 3.750084161758423 -2.5
4.672519207000732 4.1394944190979 -2.5
4.324272155761719 4.502048015594482 -2.5
3.546093702316284 5.137412071228027 -2.5
3.121206045150757 5.406089782714844 -2.5
1.2486523389816284 6.116263389587402 -2.5
0.7524462938308716 6.196906566619873 -2.5
0.25135740637779236 6.237355709075928 -2.5
-0.75244140625 6.196904182434082 -2.5
-1.736757755279541 5.99595308303833 -2.5
-3.1212010383605957 5.406089782714844 -2.5
-3.546098470687866 5.137407302856445 -2.5
-3.9479784965515137 4.835407733917236 -2.5
-4.67251443862915 4.139492034912109 -2.5
-4.990454196929932 3.750086545944214 -2.5
-5.742900371551514 2.446815013885498 -2.5
-5.921166896820068 1.9767675399780273 -2.5
-6.06103515625 1.4939074516296387 -2.5
6.047382831573486 1.220703097715159e-06 -2.5
6.027773380279541 0.48661863803863525 -2.5
5.969067096710205 0.9700707793235779 -2.5
5.871654987335205 1.447237491607666 -2.5
5.736162185668945 1.9150121212005615 -2.5
5.563466548919678 2.370368480682373 -2.5
5.354687213897705 2.8103575706481934 -2.5
4.526523113250732 4.010154724121094 -2.5
4.189159870147705 4.361379146575928 -2.5
3.8246288299560547 4.684327125549316 -2.5
3.435297727584839 4.976894378662109 -2.5
2.592475414276123 5.4635009765625 -2.5
2.1444432735443115 5.654393196105957 -2.5
1.2096385955810547 5.925160884857178 -2.5
0.24350585043430328 6.042470455169678 -2.5
-0.2435009777545929 6.042470455169678 -2.5
-1.2096385955810547 5.925158500671387 -2.5
-1.6825000047683716 5.808609485626221 -2.5
-3.435292959213257 4.976888179779053 -2.5
-3.8246288299560547 4.684327125549316 -2.5
-4.52651834487915 4.010154724121094 -2.5
-5.354687213897705 2.810351610183716 -2.5
-6.027768611907959 0.4866088628768921 -2.5
5.862529277801514 1.220703097715159e-06 -2.5
5.843515396118164 0.4717419445514679 -2.5
5.692172527313232 1.4029979705810547 -2.5
5.560815334320068 1.8564709424972534 -2.5
5.393403053283691 2.29791259765625 -2.5
5.191005706787109 2.7244529724121094 -2.5
4.954941272735596 3.1333203315734863 -2.5
4.388159275054932 3.8875732421875 -2.5
4.061108112335205 4.228062629699707 -2.5
3.707719564437866 4.541135311126709 -2.5
3.3302831649780273 4.824758052825928 -2.5
2.9312548637390137 5.077093601226807 -2.5
2.5132274627685547 5.29649543762207 -2.5
2.0788867473602295 5.48154878616333 -2.5
1.631069302558899 5.631054401397705 -2.5
0.23605956137180328 5.857759952545166 -2.5
-0.23605956137180328 5.857760906219482 -2.5
-1.6310644149780273 5.631049633026123 -2.5
-2.078862190246582 5.48154878616333 -2.5
-2.9312498569488525 5.077089786529541 -2.5
-4.061103343963623 4.228060245513916 -2.5
-4.388154029846191 3.887568235397339 -2.5
-4.954941272735596 3.1333141326904297 -2.5
-5.69216775894165 1.402990698814392 -2.5
5.687026023864746 0.0 -2.5
5.668583869934082 0.4576196074485779 -2.5
5.521777153015137 1.360998511314392 -2.5
5.231947898864746 2.229123592376709 -2.5
5.035610198974609 2.6428942680358887 -2.5
4.806621074676514 3.0395238399505615 -2.5
4.546450138092041 3.4164342880249023 -2.5
3.9395360946655273 4.101496696472168 -2.5
2.843505859375 4.925106048583984 -2.5
2.016655206680298 5.317463397979736 -2.5
-1.1375585794448853 5.572089672088623 -2.5
-1.5822314023971558 5.462482929229736 -2.5
-2.0166308879852295 5.317461013793945 -2.5
-2.4379637241363525 5.137942790985107 -2.5
-2.843500852584839 4.925105094909668 -2.5
-3.2305908203125 4.680323600769043 -2.5
-3.939531087875366 4.101496696472168 -2.5
-4.256796836853027 3.7711949348449707 -2.5
-4.806611061096191 3.0395164489746094 -2.5
-5.035605430603027 2.642888069152832 -2.5
-5.231947898864746 2.2291173934936523 -2.5
-5.394350528717041 1.8008935451507568 -2.5
-5.613379001617432 0.912261962890625 -2.5
5.520161151885986 1.220703097715159e-06 -2.5
5.502265453338623 0.4441930949687958 -2.5
5.359760761260986 1.3210644721984863 -2.5
5.236069202423096 1.7480578422546387 -2.5
4.887861251831055 2.565345287322998 -2.5
4.665580749511719 2.950338125228882 -2.5
4.413051605224609 3.3161938190460205 -2.5
3.8239452838897705 3.9811534881591797 -2.5
3.4911913871765137 4.275940895080566 -2.5
3.135805606842041 4.543001651763916 -2.5
1.957485318183899 5.161440372467041 -2.5
1.1041845083236694 5.408596038818359 -2.5
-0.22227539122104645 5.515678405761719 -2.5
-1.5358153581619263 5.302211761474609 -2.5
-3.13580060005188 4.54299783706665 -2.5
-3.4911913871765137 4.27593994140625 -2.5
-4.131894588470459 3.660543203353882 -2.5
-4.413042068481445 3.316187620162964 -2.5
-4.887856483459473 2.565342903137207 -2.5
-5.078432559967041 2.163713216781616 -2.5
-5.359750747680664 1.3210582733154297 -2.5
5.361274242401123 1.220703097715159e-06 -2.5
5.343886375427246 0.43140867352485657 -2.5
4.531289100646973 2.8654210567474365 -2.5
3.390702962875366 4.152867317199707 -2.5
3.045542001724243 4.412234783172607 -2.5
2.6806492805480957 4.642992973327637 -2.5
1.49160635471344 5.149594783782959 -2.5
1.0724023580551147 5.252919673919678 -2.5
0.21587401628494263 5.356921195983887 -2.5
-0.21587401628494263 5.35692024230957 -2.5
-0.6462304592132568 5.322178840637207 -2.5
-1.0723974704742432 5.252918720245361 -2.5
-1.49160635471344 5.149594783782959 -2.5
-1.9011424779891968 5.012872219085693 -2.5
-2.2983250617980957 4.843637466430664 -2.5
-3.045536994934082 4.4122314453125 -2.5
-3.713871955871582 3.8665599822998047 -2.5
-4.012963771820068 3.5551769733428955 -2.5
-4.286020278930664 3.220738410949707 -2.5
-4.747162818908691 2.4915013313293457 -2.5
-4.9322509765625 2.1014342308044434 -2.5
