ply
format ascii 1.0
element vertex 772
property float x
property float y
property float z
end_header
-4.359921932220459 -21.356307983398438 5.840432167053223
2.398329973220825 -19.751922607421875 5.331381797790527
4.393710613250732 -21.521806716918945 5.885692119598389
-0.8253417611122131 -20.480741500854492 5.249510765075684
2.631953001022339 -21.67616081237793 5.5921783447265625
-0.8545019626617432 -21.204511642456055 5.185126304626465
-2.646308422088623 -21.794218063354492 5.10699462890625
-0.8369921445846558 -20.769775390625 4.835377216339111
0.8729589581489563 -21.662548065185547 5.043221473693848
-5.148974418640137 -25.22132682800293 5.688055515289307
-0.8541699051856995 -21.196170806884766 4.687476634979248
4.433310508728027 -21.71575164794922 4.897464275360107
-2.9249022006988525 -24.08875846862793 5.080589294433594
-0.8611913919448853 -21.370330810546875 4.47800874710083
0.8834960460662842 -21.923828125 4.593992233276367
4.888955116271973 -23.94773292541504 5.117436408996582
-23.85396385192871 -12.51952075958252 5.329561710357666
-4.601318359375 -22.538759231567383 4.550873279571533
0.9139159917831421 -22.678680419921875 4.490220069885254
2.760302782058716 -22.733173370361328 4.530389785766602
-2.64599609375 -21.7916202545166 4.090517997741699
0.8112109303474426 -20.130136489868164 3.7541344165802
2.4914355278015137 -20.51873016357422 3.85158371925354
-2.817997932434082 -23.20832061767578 4.088924884796143
2.605048656463623 -21.45454978942871 3.779938220977783
-0.8432909846305847 -20.92609405517578 3.4241960048675537
0.7993456721305847 -19.83589744567871 3.2458043098449707
-4.558554649353027 -22.329248428344727 3.4673032760620117
0.9602929353713989 -23.829618453979492 3.6284430027008057
3.086249828338623 -25.417694091796875 3.8955180644989014
-3.116406202316284 -25.665956497192383 3.6409122943878174
0.9283788800239563 -23.037675857543945 3.246875524520874
-2.617314338684082 -21.555498123168945 2.812793016433716
-2.708017587661743 -22.30253791809082 2.4053642749786377
26.495399475097656 -8.845468521118164 2.9906444549560547
26.495399475097656 -8.845468521118164 2.6779167652130127
26.495399475097656 -8.845468521118164 2.365853786468506
5.746601581573486 -19.839580535888672 -0.08583160489797592
5.746601581573486 -19.839569091796875 -0.3147454857826233
-22.1968936920166 -19.66468620300293 -1.1095995903015137
-15.330721855163574 -15.960966110229492 -0.8280856013298035
5.567480564117432 -27.27120018005371 -1.041465163230896
14.032480239868164 -24.304950714111328 -1.0501154661178589
-15.3320894241333 -15.962411880493164 -1.0738815069198608
-16.07613182067871 -19.689647674560547 -1.233311414718628
-13.598769187927246 -19.70113182067871 -1.161489486694336
1.205996036529541 -29.92578125 -1.4531590938568115
5.724658012390137 -19.763906478881836 -0.9983486533164978
14.032470703125 -24.304960250854492 -1.3616937398910522
9.101269721984863 -3.877675771713257 -0.47999709844589233
9.194843292236328 -3.0696775913238525 -0.4703335464000702
-23.17640495300293 1.9531249563442543e-05 -1.382084608078003
-15.34129810333252 -15.971991539001465 -1.3206603527069092
-14.91201114654541 -18.263916015625 -1.406057357788086
-13.921698570251465 -20.169052124023438 -1.4614486694335938
-9.356884956359863 -19.71915054321289 -1.3015862703323364
-7.481142520904541 -19.726064682006836 -1.258087396621704
-0.7961523532867432 -19.75543975830078 -1.179039478302002
0.7963183522224426 -19.761327743530273 -1.179390788078308
2.4004199504852295 -19.769588470458984 -1.1875851154327393
5.713671684265137 -19.725996017456055 -1.2246791124343872
14.032480239868164 -24.304950714111328 -1.6736066341400146
8.319609642028809 -4.366464614868164 -0.5603055953979492
-22.071903228759766 1.9531249563442543e-05 -1.5618515014648438
-23.735408782958984 -15.00936508178711 -1.9872045516967773
-13.955615043640137 -20.21817398071289 -1.7384066581726074
-11.34708023071289 -19.65361213684082 -1.6058787107467651
-5.855868816375732 -20.216737747192383 -1.489382266998291
-4.146337985992432 -20.310087203979492 -1.4668270349502563
-2.391005754470825 -19.691375732421875 -1.4036364555358887
-0.8267871141433716 -20.51680564880371 -1.4529904127120972
0.8010448813438416 -19.878681182861328 -1.4077978134155273
4.1650390625 -20.40165901184082 -1.4734398126602173
7.754853248596191 -4.070048809051514 -0.6197363138198853
7.979843616485596 -2.6640625 -0.5953068137168884
10.331073760986328 -2.54638671875 -0.7529273629188538
-26.449071884155273 -13.881542205810547 -2.446643352508545
-21.453319549560547 -19.0059757232666 -2.347599983215332
-14.912148475646973 -18.26407241821289 -1.9312784671783447
-11.34706974029541 -19.653602600097656 -1.8588260412216187
-9.424443244934082 -19.861513137817383 -1.8006776571273804
-5.800117015838623 -20.0242862701416 -1.7075735330581665
-4.109501838684082 -20.129657745361328 -1.6827950477600098
-0.8112207055091858 -20.130605697631836 -1.6501973867416382
2.4671385288238525 -20.318710327148438 -1.6764894723892212
4.171718597412109 -20.434335708618164 -1.7082650661468506
5.713671684265137 -19.725996017456055 -1.6821346282958984
10.24251937866211 -27.00728416442871 -2.3658602237701416
12.36800765991211 -26.0650577545166 -2.3630924224853516
14.032480239868164 -24.304950714111328 -2.298748731613159
18.2625675201416 -22.36758804321289 -2.365190029144287
21.453338623046875 -19.00601577758789 -2.347599983215332
22.913095474243164 -17.21808624267578 -2.347599983215332
7.147587776184082 -4.519853591918945 -0.6926814317703247
7.416825771331787 -3.1599998474121094 -0.660340428352356
7.513105392456055 -2.508242130279541 -0.6487745642662048
10.115937232971191 -2.493359327316284 -0.8533735275268555
-26.773061752319336 -2.1613476276397705 -2.5
-26.512313842773438 -4.308691501617432 -2.5
-26.079633712768555 -6.428066253662109 -2.5
-25.47783088684082 -8.505732536315918 -2.5
-24.710790634155273 -10.528261184692383 -2.5
-22.64632797241211 -14.320683479309082 -2.493877649307251
-18.879501342773438 -16.725799560546875 -2.347599983215332
-17.472431182861328 -18.190702438354492 -2.347599983215332
-14.912216186523438 -18.26416015625 -2.1945793628692627
-11.34706974029541 -19.65361213684082 -2.1122448444366455
-9.440292358398438 -19.89493179321289 -2.04960298538208
-5.755195140838623 -19.869091033935547 -1.9253273010253906
-4.13625955581665 -20.26067352294922 -1.9246524572372437
-2.391005754470825 -19.691375732421875 -1.846230387687683
0.8010448813438416 -19.878681182861328 -1.8517040014266968
4.14309549331665 -20.294170379638672 -1.927833914756775
8.985029220581055 -23.691503524780273 -2.3583312034606934
10.868330001831055 -22.90438461303711 -2.35964035987854
12.682997703552246 -21.967802047729492 -2.360952615737915
14.328173637390137 -20.757909774780273 -2.347599983215332
15.952011108398438 -19.537675857543945 -2.347599983215332
18.8795108795166 -16.72579002380371 -2.347599983215332
20.16415023803711 -15.152372360229492 -2.347599983215332
6.737451076507568 -4.260498046875 -0.7419474720954895
7.010019302368164 -2.986689329147339 -0.7092065215110779
7.384580135345459 -2.46533203125 -0.7246084213256836
9.948720932006836 -2.452138662338257 -0.9536864757537842
26.5123233795166 -4.308671951293945 -2.5
26.7730655670166 -2.1613378524780273 -2.5
-22.1485538482666 0.0 -2.3092970848083496
-23.66707992553711 -3.846269369125366 -2.5
-10.652851104736328 -2.6256933212280273 -1.1439504623413086
-22.743621826171875 -7.592929363250732 -2.5
-22.058866500854492 -9.398388862609863 -2.5
-21.231082916259766 -11.142919540405273 -2.5
-15.597343444824219 -16.238534927368164 -2.347599983215332
-11.257948875427246 -19.49931526184082 -2.347599983215332
-7.525595664978027 -19.843242645263672 -2.2127318382263184
-5.756777286529541 -19.87455940246582 -2.1573829650878906
2.441904306411743 -20.11092758178711 -2.112248182296753
5.713671684265137 -19.72600555419922 -2.141254186630249
11.25795841217041 -19.49935531616211 -2.347599983215332
12.790488243103027 -18.530223846435547 -2.347599983215332
16.853397369384766 -14.930839538574219 -2.347599983215332
19.150428771972656 -14.39061450958252 -2.4976186752319336
6.387704849243164 -4.039345741271973 -0.7879981994628906
9.924667358398438 -2.4462108612060547 -1.0657540559768677
23.899824142456055 -1.9294042587280273 -2.5
-21.648916244506836 -9.765624781721272e-06 -2.5
-21.368539810180664 -3.472734212875366 -2.5
-10.390273094177246 -2.560976505279541 -1.235772967338562
-10.35489273071289 -3.4569530487060547 -1.2606542110443115
-19.916542053222656 -8.485625267028809 -2.5
-19.169139862060547 -10.060751914978027 -2.5
-18.29743194580078 -11.570605278015137 -2.5
-17.307050704956055 -13.005399703979492 -2.5
-16.189237594604492 -14.342421531677246 -2.4976577758789062
-14.098251342773438 -14.677812576293945 -2.3502228260040283
-12.85708999633789 -15.7470703125 -2.347599983215332
-11.548300743103027 -16.730575561523438 -2.347599983215332
-10.164589881896973 -17.605575561523438 -2.347599983215332
-8.714961051940918 -18.366405487060547 -2.347599983215332
-5.655937194824219 -19.526533126831055 -2.347599983215332
-4.066357135772705 -19.9183292388916 -2.347599983215332
-2.391005754470825 -19.691375732421875 -2.2906494140625
-0.8017578125 -19.894569396972656 -2.2992775440216064
2.436845541000366 -20.06947135925293 -2.3346333503723145
4.066357135772705 -19.9183292388916 -2.347599983215332
7.208818435668945 -19.00812530517578 -2.347599983215332
10.164589881896973 -17.6055850982666 -2.347599983215332
12.85708999633789 -15.7470703125 -2.347599983215332
6.036054611206055 -4.535790920257568 -0.8719062805175781
6.221513748168945 -3.2652928829193115 -0.8113972544670105
-19.664003372192383 -1.587441325187683 -2.5
-19.472509384155273 -3.16460919380188 -2.5
-10.1191987991333 -3.3782811164855957 -1.3519152402877808
-18.14934539794922 -7.732705116271973 -2.5
-16.67389678955078 -10.5439453125 -2.5
-15.77138614654541 -11.851435661315918 -2.5
-14.7666015625 -13.082059860229492 -2.5
-13.663652420043945 -14.225351333618164 -2.499560594558716
-11.979921340942383 -14.672734260559082 -2.4004266262054443
-7.941669940948486 -16.73674774169922 -2.347599983215332
-5.15408182144165 -17.793935775756836 -2.347599983215332
-3.705556631088257 -18.150976181030273 -2.347599983215332
-2.232988119125366 -18.390262603759766 -2.347599983215332
2.232988119125366 -18.390283584594727 -2.347599983215332
5.154091835021973 -17.793926239013672 -2.347599983215332
7.94167947769165 -16.73674774169922 -2.347599983215332
12.014784812927246 -14.715438842773438 -2.4074106216430664
6.036054611206055 -3.816962718963623 -0.9050151109695435
6.036054611206055 -3.16796875 -0.8638589382171631
6.057831764221191 -2.580996036529541 -0.834442138671875
7.236093521118164 -2.415761709213257 -0.9667353630065918
9.841474533081055 -2.425712823867798 -1.2844704389572144
-18.11605453491211 0.0 -2.5
-17.881454467773438 -2.9060351848602295 -2.5
-9.980302810668945 -2.4599316120147705 -1.4184926748275757
-16.66639518737793 -7.100878715515137 -2.5
-14.482744216918945 -10.883066177368164 -2.5
-13.56005859375 -12.013154029846191 -2.5
-12.549433708190918 -13.06533145904541 -2.5
-10.131933212280273 -14.67861270904541 -2.461334705352783
-8.505859375 -14.732539176940918 -2.347599983215332
-7.292783260345459 -15.369218826293945 -2.347599983215332
-4.732949256896973 -16.340028762817383 -2.347599983215332
-3.402783155441284 -16.667890548706055 -2.347599983215332
-0.6850000023841858 -16.997909545898438 -2.347599983215332
0.6849902272224426 -16.99789047241211 -2.347599983215332
3.402773380279541 -16.66790008544922 -2.347599983215332
6.032431602478027 -15.906210899353027 -2.347599983215332
7.292783260345459 -15.36922836303711 -2.347599983215332
12.549433708190918 -13.065351486206055 -2.5
13.560068130493164 -12.01317310333252 -2.5
6.036054611206055 -4.535790920257568 -1.0419377088546753
6.036044597625732 -3.81695294380188 -0.9855412244796753
6.036054611206055 -2.571718692779541 -0.9054215550422668
9.83511734008789 -2.424140453338623 -1.3978577852249146
17.881454467773438 -2.9060254096984863 -2.5
-16.743749618530273 9.765624781721272e-06 -2.5
-9.736494064331055 -2.399833917617798 -1.4972583055496216
-9.595351219177246 -3.2033984661102295 -1.5104080438613892
-15.403915405273438 -6.562997817993164 -2.5
-14.825859069824219 -7.781210899353027 -2.5
-13.385673522949219 -10.058661460876465 -2.5
-12.53287124633789 -11.103163719177246 -2.5
-11.598808288574219 -12.075634956359863 -2.5
-10.58951187133789 -12.969794273376465 -2.5
-9.511542320251465 -13.779833793640137 -2.5
-6.977997779846191 -14.705820083618164 -2.4303669929504395
-3.14501953125 -15.405292510986328 -2.347599983215332
-0.633105456829071 -15.710302352905273 -2.347599983215332
0.633105456829071 -15.71029281616211 -2.347599983215332
1.895205020904541 -15.608407974243164 -2.347599983215332
4.374433517456055 -15.102274894714355 -2.347599983215332
6.980458736419678 -14.71102523803711 -2.431227445602417
9.5115327835083 -13.779852867126465 -2.5
10.58951187133789 -12.969794273376465 -2.5
12.532880783081055 -11.10318374633789 -2.5
6.036054611206055 -4.535790920257568 -1.1273337602615356
6.036054611206055 -3.16796875 -1.0178241729736328
6.036054611206055 -2.571718692779541 -0.9796287417411804
9.820849418640137 -2.4206249713897705 -1.5102285146713257
-15.510624885559082 -1.2521483898162842 -2.5
-12.395097732543945 -2.014394521713257 -2.017486095428467
-9.260976791381836 -3.0917675495147705 -1.5685677528381348
-14.315878868103027 -6.099413871765137 -2.5
-13.152070045471191 -8.316864967346191 -2.5
-12.440204620361328 -9.348193168640137 -2.5
-11.647636413574219 -10.318915367126465 -2.5
-8.839706420898438 -12.806503295898438 -2.5
-4.259580135345459 -14.705771446228027 -2.4597010612487793
-3.003984212875366 -14.714462280273438 -2.4127440452575684
-1.7873437404632568 -14.720107078552246 -2.382260799407959
1.7873437404632568 -14.720097541809082 -2.3822593688964844
3.003984212875366 -14.714452743530273 -2.412743091583252
4.259580135345459 -14.705760955810547 -2.4596991539001465
5.507822036743164 -14.522958755493164 -2.495375871658325
6.670917987823486 -14.058671951293945 -2.5
8.839706420898438 -12.806523323059082 -2.5
9.841532707214355 -12.053690910339355 -2.5
15.510634422302246 -1.2521483898162842 -2.5
-14.531054496765137 9.765624781721272e-06 -2.5
-14.483930587768555 -1.1692577600479126 -2.5
-12.421523094177246 -2.018691301345825 -2.1651041507720947
-8.98891544342041 -3.000917911529541 -1.6304088830947876
-13.368270874023438 -5.69567346572876 -2.5
-11.616738319396973 -8.72940444946289 -2.5
-9.19008731842041 -11.255820274353027 -2.5
-7.265527248382568 -12.584257125854492 -2.5
-6.229345798492432 -13.128066062927246 -2.5
-4.042792797088623 -13.9573335647583 -2.5
-0.5841308236122131 -14.495145797729492 -2.495847225189209
1.7496386766433716 -14.409521102905273 -2.4972984790802
2.9065818786621094 -14.23739242553711 -2.5
5.152782917022705 -13.586767196655273 -2.5
8.254579544067383 -11.95882797241211 -2.5
9.19008731842041 -11.255820274353027 -2.5
10.066015243530273 -10.479833602905273 -2.5
6.036054611206055 -4.535790920257568 -1.2989970445632935
6.036054611206055 -3.816962718963623 -1.2286871671676636
6.036054611206055 -3.16796875 -1.1728123426437378
6.036054611206055 -2.571718692779541 -1.1288011074066162
7.635331630706787 -2.5490527153015137 -1.3848934173583984
9.792255401611328 -2.41357421875 -1.7351305484771729
14.483935356140137 -1.1692675352096558 -2.5
-13.581483840942383 -1.0963964462280273 -2.5
-13.44921875 -2.1857030391693115 -2.5
-9.006396293640137 -2.219863176345825 -1.7019258737564087
-8.822333335876465 -2.9453125 -1.7065215110778809
-10.198965072631836 -9.03548812866211 -2.5
-7.74026346206665 -11.213701248168945 -2.5
-6.812841415405273 -11.800166130065918 -2.5
-5.841210842132568 -12.3101167678833 -2.5
-1.6423925161361694 -13.526317596435547 -2.5
1.6423925161361694 -13.526328086853027 -2.5
3.790898323059082 -13.087695121765137 -2.5
4.831728458404541 -12.74022388458252 -2.5
9.438827514648438 -9.826874732971191 -2.5
10.198965072631836 -9.03548812866211 -2.5
6.036054611206055 -4.535790920257568 -1.3853116035461426
6.036054611206055 -3.816962718963623 -1.3103291988372803
6.036054611206055 -3.16796875 -1.250741958618164
9.777929306030273 -2.410048723220825 -1.8477187156677246
-12.781855583190918 -1.0318554639816284 -2.5
-12.65738296508789 -2.0570311546325684 -2.5
-8.921748161315918 -2.199023485183716 -1.7913973331451416
-8.8831148147583 -9.248291015625 -2.5
-6.411728382110596 -11.105420112609863 -2.5
-5.497314453125 -11.585331916809082 -2.5
-4.547255992889404 -11.990117073059082 -2.5
6.411728382110596 -11.105429649353027 -2.5
7.284550666809082 -10.553485870361328 -2.5
8.110126495361328 -9.933095932006836 -2.5
8.883105278015137 -9.248300552368164 -2.5
9.598485946655273 -8.503524780273438 -2.5
6.036044597625732 -3.81695294380188 -1.3923025131225586
6.036054611206055 -2.571718692779541 -1.279115080833435
9.76571273803711 -2.407031297683716 -1.9608577489852905
12.65738296508789 -2.0570311546325684 -2.5
12.781874656677246 -1.0318554639816284 -2.5
-11.950722694396973 -1.942177653312683 -2.5
-8.854248046875 -2.182382822036743 -1.8829705715179443
-8.702489852905273 -2.9053125381469727 -1.8944119215011597
-8.787519454956055 -3.7440037727355957 -1.9723011255264282
-10.233144760131836 -6.471044540405273 -2.5
-5.190390586853027 -10.938515663146973 -2.5
-0.48750975728034973 -12.097695350646973 -2.5
0.4875195324420929 -12.097675323486328 -2.5
1.4593944549560547 -12.019227981567383 -2.5
4.293388366699219 -11.32071304321289 -2.5
5.190400123596191 -10.938525199890137 -2.5
6.053750038146973 -10.485419273376465 -2.5
6.877851486206055 -9.964277267456055 -2.5
7.657333850860596 -9.378535270690918 -2.5
8.387167930603027 -8.731963157653809 -2.5
6.036054611206055 -4.535790920257568 -1.5590157508850098
6.036054611206055 -3.816962718963623 -1.4746317863464355
7.007246017456055 -2.33935546875 -1.525382161140442
10.880781173706055 -2.6818652153015137 -2.3139381408691406
11.950722694396973 -1.942177653312683 -2.5
12.06826114654541 -0.9742480516433716 -2.5
-11.46451187133789 9.765624781721272e-06 -2.5
-8.70132827758789 -2.904921770095825 -2.000394344329834
-9.689687728881836 -6.127372741699219 -2.5
-7.941747665405273 -8.268232345581055 -2.5
-7.250673770904541 -8.88045883178711 -2.5
-5.732255935668945 -9.92855453491211 -2.5
-4.914745807647705 -10.357675552368164 -2.5
-4.065371036529541 -10.719491958618164 -2.5
-3.189628839492798 -11.01187515258789 -2.5
-0.46163085103034973 -11.455204963684082 -2.5
1.3818944692611694 -11.3809175491333 -2.5
3.189628839492798 -11.01187515258789 -2.5
4.065380573272705 -10.719491958618164 -2.5
4.914745807647705 -10.357617378234863 -2.5
6.512597560882568 -9.4351167678833 -2.5
7.250683307647705 -8.880468368530273 -2.5
7.941747665405273 -8.26822280883789 -2.5
6.036054611206055 -4.535790920257568 -1.646454095840454
6.036044597625732 -3.81695294380188 -1.5573372840881348
6.036054611206055 -2.571718692779541 -1.430733561515808
7.018163681030273 -2.3429882526397705 -1.6134417057037354
11.131386756896973 -2.7436327934265137 -2.5
-10.88370132446289 0.0 -2.5
-10.848407745361328 -0.8757616877555847 -2.5
-10.74276351928711 -1.7458691596984863 -2.5
-8.679883003234863 -2.89776349067688 -2.101956844329834
-9.1987886428833 -5.816962718963623 -2.5
-8.700898170471191 -6.538280963897705 -2.5
-7.539403915405273 -7.849345684051514 -2.5
-6.883339881896973 -8.43057632446289 -2.5
-6.182656288146973 -8.957098960876465 -2.5
-5.441845417022705 -9.425546646118164 -2.5
-3.8594138622283936 -10.176435470581055 -2.5
-3.0280370712280273 -10.453993797302246 -2.5
-2.1770215034484863 -10.66373062133789 -2.5
-0.4382421672344208 -10.874882698059082 -2.5
2.1770215034484863 -10.663749694824219 -2.5
3.0280370712280273 -10.453993797302246 -2.5
5.441845417022705 -9.425556182861328 -2.5
6.883339881896973 -8.43056583404541 -2.5
8.146562576293945 -7.217226505279541 -2.5
6.036054611206055 -3.16796875 -1.5658459663391113
6.036054611206055 -2.571718692779541 -1.5070855617523193
10.74276351928711 -1.74587881565094 -2.5
10.848407745361328 -0.8757714629173279 -2.5
-10.222235679626465 -1.6612695455551147 -2.5
-8.76747989654541 -2.1609959602355957 -2.179793119430542
-8.639970779418945 -2.8844432830810547 -2.1988298892974854
-9.527626991271973 -4.059326171875 -2.5
-8.753095626831055 -5.535126686096191 -2.5
-7.751835823059082 -6.867519378662109 -2.5
-7.174091815948486 -7.469013690948486 -2.5
-6.549824237823486 -8.022079467773438 -2.5
-5.88308572769165 -8.52310562133789 -2.5
-1.2483203411102295 -10.280839920043945 -2.5
-0.41701170802116394 -10.347939491271973 -2.5
1.2483203411102295 -10.28084945678711 -2.5
2.071542978286743 -10.14706039428711 -2.5
2.8813183307647705 -9.947450637817383 -2.5
3.6724119186401367 -9.683349609375 -2.5
4.439687252044678 -9.356464385986328 -2.5
5.88308572769165 -8.52310562133789 -2.5
6.549824237823486 -8.022079467773438 -2.5
7.17410135269165 -7.469042778015137 -2.5
7.751835823059082 -6.867528915405273 -2.5
6.036054611206055 -2.571718692779541 -1.5838263034820557
7.039853572845459 -2.3502440452575684 -1.7916042804718018
10.055419921875 -2.4784374237060547 -2.5
10.322772979736328 -0.8333398103713989 -2.5
-8.346503257751465 -5.278007507324219 -2.5
-7.391767501831055 -6.548534870147705 -2.5
-6.245585918426514 -7.649453163146973 -2.5
-5.609814167022705 -8.127206802368164 -2.5
-3.501826047897339 -9.233564376831055 -2.5
-2.7474803924560547 -9.485400199890137 -2.5
-1.9753124713897705 -9.675722122192383 -2.5
-1.190332055091858 -9.803300857543945 -2.5
2.747490167617798 -9.485400199890137 -2.5
4.233466625213623 -8.921835899353027 -2.5
4.937655925750732 -8.55224609375 -2.5
5.609814167022705 -8.127206802368164 -2.5
6.245585918426514 -7.649453163146973 -2.5
6.840859413146973 -7.122089862823486 -2.5
7.894736289978027 -5.932519435882568 -2.5
6.171552658081055 -3.90264630317688 -1.8485413789749146
6.036054611206055 -3.16796875 -1.7257391214370728
6.036054611206055 -2.571718692779541 -1.6609792709350586
7.048573970794678 -2.353154182434082 -1.8812062740325928
9.588339805603027 -2.3633105754852295 -2.5
9.747421264648438 -1.5841015577316284 -2.5
9.843280792236328 -0.794628918170929 -2.5
-9.434598922729492 0.0 -2.5
-9.404004096984863 -0.75916987657547 -2.5
-9.160429954528809 -2.2578418254852295 -2.5
-8.679638862609863 -3.6980369091033936 -2.5
-8.353925704956055 -4.384462833404541 -2.5
-7.974032878875732 -5.042460918426514 -2.5
-7.542421817779541 -5.667763710021973 -2.5
-6.535575866699219 -6.804247856140137 -2.5
-4.717304706573486 -8.170615196228027 -2.5
-3.3455564975738525 -8.821503639221191 -2.5
-2.624872922897339 -9.06209945678711 -2.5
-1.8871679306030273 -9.243926048278809 -2.5
-1.1372168064117432 -9.365819931030273 -2.5
0.3798925578594208 -9.426953315734863 -2.5
3.3455467224121094 -8.821503639221191 -2.5
4.044540882110596 -8.523691177368164 -2.5
4.717294692993164 -8.17055606842041 -2.5
7.061894416809082 -6.256289005279541 -2.5
7.542431354522705 -5.667773246765137 -2.5
6.787294864654541 -4.29202127456665 -2.1279351711273193
6.144794940948486 -3.225039005279541 -1.838895320892334
6.036054611206055 -2.571718692779541 -1.7385649681091309
7.052236080169678 -2.354365110397339 -1.9701049327850342
9.312421798706055 -1.513427734375 -2.5
9.404004096984863 -0.75916987657547 -2.5
-9.029287338256836 0.0 -2.5
-8.912343978881836 -1.448388695716858 -2.5
-8.306737899780273 -3.5391697883605957 -2.5
-7.21837854385376 -5.424267292022705 -2.5
-6.758505821228027 -5.987509727478027 -2.5
-6.254794597625732 -6.511923789978027 -2.5
-2.5121092796325684 -8.67276382446289 -2.5
-1.806093692779541 -8.846796989440918 -2.5
-0.36357420682907104 -9.021952629089355 -2.5
0.3635644316673279 -9.021943092346191 -2.5
1.0883593559265137 -8.963446617126465 -2.5
2.512099504470825 -8.672773361206055 -2.5
3.870781183242798 -8.157489776611328 -2.5
5.129218578338623 -7.430947303771973 -2.5
6.254804611206055 -6.511952877044678 -2.5
6.758515357971191 -5.987519264221191 -2.5
7.995028972625732 -4.196113109588623 -2.5
6.319716453552246 -2.692568302154541 -1.9019838571548462
8.7669038772583 -2.1608495712280273 -2.5
8.912353515625 -1.4483983516693115 -2.5
-8.655156135559082 0.0 -2.5
-8.209726333618164 -2.740790843963623 -2.5
-7.315253734588623 -4.625888347625732 -2.5
-6.919296741485596 -5.199511528015137 -2.5
-5.47390604019165 -6.704306602478027 -2.5
-4.916689395904541 -7.123046875 -2.5
-4.327568054199219 -7.495575904846191 -2.5
-3.710400342941284 -7.819491863250732 -2.5
-2.408007860183716 -8.313417434692383 -2.5
-1.7312597036361694 -8.480243682861328 -2.5
-1.0432714223861694 -8.592050552368164 -2.5
-0.3485058546066284 -8.648124694824219 -2.5
0.3485058546066284 -8.648144721984863 -2.5
1.0432714223861694 -8.592041015625 -2.5
2.408017635345459 -8.313417434692383 -2.5
6.478476524353027 -5.739423751831055 -2.5
6.815781116485596 -4.310019493103027 -2.329300880432129
-8.28173828125 -0.6685742139816284 -2.5
-8.20107364654541 -1.3328222036361694 -2.5
-8.067235946655273 -1.988378882408142 -2.5
-7.881083965301514 -2.6310741901397705 -2.5
-7.022411823272705 -4.440693378448486 -2.5
-5.755615234375 -5.992226600646973 -2.5
-5.254785060882568 -6.435937404632568 -2.5
-4.719872951507568 -6.837900161743164 -2.5
-3.5618650913238525 -7.50646448135376 -2.5
-2.946298837661743 -7.768740177154541 -2.5
-2.3116111755371094 -7.980624675750732 -2.5
-1.661953091621399 -8.140761375427246 -2.5
-1.001503825187683 -8.248085975646973 -2.5
0.3345605432987213 -8.301942825317383 -2.5
1.001503825187683 -8.248085975646973 -2.5
2.3116307258605957 -7.980615139007568 -2.5
2.946298837661743 -7.768740177154541 -2.5
4.154335975646973 -7.195527076721191 -2.5
4.719872951507568 -6.837890625 -2.5
5.254785060882568 -6.435937404632568 -2.5
6.642314434051514 -4.991357326507568 -2.5
7.643808364868164 -3.256728410720825 -2.5
7.028173446655273 -2.3463377952575684 -2.229442596435547
8.067245483398438 -1.9884179830551147 -2.5
8.20107364654541 -1.3328124284744263 -2.5
8.28173828125 -0.6685644388198853 -2.5
-7.98681640625 0.0 -2.5
-7.754726409912109 -1.9113671779632568 -2.5
-7.575771331787109 -2.5291600227355957 -2.5
-7.347704887390137 -3.130546808242798 -2.5
-6.384999752044678 -4.798007488250732 -2.5
-5.978212833404541 -5.296230316162109 -2.5
-5.051230430603027 -6.186621189117432 -2.5
-3.4238767623901367 -7.215683460235596 -2.5
-1.597558617591858 -7.825409889221191 -2.5
-0.9627050757408142 -7.928564071655273 -2.5
-0.3216015696525574 -7.98034143447876 -2.5
0.3215917944908142 -7.980321884155273 -2.5
0.9627050757408142 -7.928574085235596 -2.5
2.832158088684082 -7.467792987823486 -2.5
3.42388653755188 -7.21569299697876 -2.5
3.993408203125 -6.916767597198486 -2.5
5.051230430603027 -6.186601638793945 -2.5
5.532665729522705 -5.760107517242432 -2.5
5.978222370147705 -5.296240329742432 -2.5
6.384999752044678 -4.798017501831055 -2.5
7.071972370147705 -3.7116503715515137 -2.5
7.347704887390137 -3.130556583404541 -2.5
7.01769495010376 -2.342841863632202 -2.3158295154571533
7.754726409912109 -1.911376953125 -2.5
7.883388519287109 -1.2811717987060547 -2.5
7.960907936096191 -0.6426659822463989 -2.5
-7.686962604522705 0.0 -2.5
-7.587421894073486 -1.2330760955810547 -2.5
-7.291357040405273 -2.434208869934082 -2.5
-6.496953010559082 -4.108417987823486 -2.5
-5.753769397735596 -5.097382545471191 -2.5
-5.324941158294678 -5.543847560882568 -2.5
-4.36669921875 -6.326240062713623 -2.5
-3.295341730117798 -6.944785118103027 -2.5
-2.725839853286743 -7.187431335449219 -2.5
-2.1386523246765137 -7.383466720581055 -2.5
-1.5375878810882568 -7.531601428985596 -2.5
-0.30953124165534973 -7.680732250213623 -2.5
0.30953124165534973 -7.680712699890137 -2.5
1.5375878810882568 -7.531620979309082 -2.5
3.295341730117798 -6.944785118103027 -2.5
4.36669921875 -6.326250076293945 -2.5
6.806464672088623 -3.5723142623901367 -2.5
7.006806373596191 -2.3391990661621094 -2.402431011199951
7.463603496551514 -1.8396190404891968 -2.5
7.587421894073486 -1.2330760955810547 -2.5
-7.406874656677246 0.0 -2.5
-7.191640377044678 -1.7725781202316284 -2.5
-6.558456897735596 -3.442128896713257 -2.5
-6.260214805603027 -3.9587109088897705 -2.5
-5.544120788574219 -4.91165018081665 -2.5
-5.130918025970459 -5.341835975646973 -2.5
-4.684433460235596 -5.737402439117432 -2.5
-3.703447103500366 -6.414540767669678 -2.5
-3.1752636432647705 -6.691738128662109 -2.5
-2.060722589492798 -7.114433288574219 -2.5
-0.8928027153015137 -7.352870941162109 -2.5
0.8928027153015137 -7.352860927581787 -2.5
2.626513719558716 -6.925546646118164 -2.5
3.703437328338623 -6.414540767669678 -2.5
4.207587718963623 -6.09573221206665 -2.5
5.130927562713623 -5.341855525970459 -2.5
5.921367168426514 -4.449609279632568 -2.5
6.260214805603027 -3.958730459213257 -2.5
6.814169883728027 -2.9032323360443115 -2.5
7.191650390625 -1.7725976705551147 -2.5
7.310956954956055 -1.188134789466858 -2.5
7.382861137390137 -0.595996081829071 -2.5
-7.144599437713623 0.0 -2.5
-7.121416091918945 -0.574902355670929 -2.5
-6.57287073135376 -2.800429582595825 -2.5
-6.326210975646973 -3.320253849029541 -2.5
-5.711689472198486 -4.292050838470459 -2.5
-5.347802639007568 -4.737734317779541 -2.5
-4.518564224243164 -5.534228324890137 -2.5
-4.05859375 -5.8798828125 -2.5
-3.062822103500366 -6.454755783081055 -2.5
4.949228286743164 -5.152695178985596 -2.5
5.347792625427246 -4.737724304199219 -2.5
6.326220512390137 -3.320244073867798 -2.5
6.776904106140137 -2.262451171875 -2.5
7.052070140838623 -1.1460741758346558 -2.5
-6.876035213470459 -0.5550780892372131 -2.5
-4.362871170043945 -5.343525409698486 -2.5
-3.9187498092651367 -5.677285194396973 -2.5
-3.449208974838257 -5.974189281463623 -2.5
-2.9572949409484863 -6.232363224029541 -2.5
-2.4462010860443115 -6.450126647949219 -2.5
-1.9192577600479126 -6.626035213470459 -2.5
-0.8315136432647705 -6.848105430603027 -2.5
-0.2777636647224426 -6.892822265625 -2.5
0.2777734398841858 -6.892802715301514 -2.5
1.3798632621765137 -6.759003639221191 -2.5
3.449208974838257 -5.974208831787109 -2.5
3.9187400341033936 -5.677285194396973 -2.5
4.362871170043945 -5.34353494644165 -2.5
5.163525104522705 -4.57449197769165 -2.5
6.346405982971191 -2.7039451599121094 -2.5
6.543388366699219 -2.184501886367798 -2.5
6.697958946228027 -1.6508984565734863 -2.5
-6.666835784912109 0.0 -2.5
-6.645224571228027 -0.5364453196525574 -2.5
-6.323740005493164 -2.1111717224121094 -2.5
-5.90319299697876 -3.098222494125366 -2.5
-5.634736061096191 -3.563183546066284 -2.5
-5.329765319824219 -4.005048751831055 -2.5
-4.216415882110596 -5.164169788360596 -2.5
-3.7871971130371094 -5.486708641052246 -2.5
-2.8580174446105957 -6.023154258728027 -2.5
-1.333535075187683 -6.53209924697876 -2.5
-0.80360347032547 -6.618232250213623 -2.5
1.333535075187683 -6.532118797302246 -2.5
2.8580174446105957 -6.023163795471191 -2.5
5.329765319824219 -4.005029201507568 -2.5
5.634746074676514 -3.563183546066284 -2.5
6.323740005493164 -2.111161947250366 -2.5
6.473114967346191 -1.5954785346984863 -2.5
-6.448574066162109 0.0 -2.5
-6.427656173706055 -0.5188866853713989 -2.5
-6.261171817779541 -1.54324209690094 -2.5
-6.116689205169678 -2.042041063308716 -2.5
-5.450253963470459 -3.446523427963257 -2.5
-3.2242772579193115 -5.584599494934082 -2.5
-2.286689519882202 -6.029491901397705 -2.5
-1.7941112518310547 -6.19396448135376 -2.5
0.25965818762779236 -6.443329811096191 -2.5
0.777294933795929 -6.401542663574219 -2.5
2.7644433975219727 -5.82595682144165 -2.5
3.663203001022339 -5.307050704956055 -2.5
4.46707010269165 -4.650712966918945 -2.5
5.155263423919678 -3.8739354610443115 -2.5
5.450263500213623 -3.446533203125 -2.5
6.261181354522705 -1.54324209690094 -2.5
6.365058422088623 -1.034423828125 -2.5
-5.921162128448486 -1.9767577648162842 -2.5
-5.742890357971191 -2.4467968940734863 -2.5
-5.527382850646973 -2.900995969772339 -2.5
-5.276025295257568 -3.336357355117798 -2.5
-4.672519207000732 -4.139492034912109 -2.5
-4.324277400970459 -4.502040863037109 -2.5
-3.5461034774780273 -5.137402057647705 -2.5
-3.121210813522339 -5.406084060668945 -2.5
-2.676074266433716 -5.639707088470459 -2.5
-1.7367479801177979 -5.995947360992432 -2.5
-1.2486425638198853 -6.116259574890137 -2.5
-0.7524316310882568 -6.196904182434082 -2.5
0.75244140625 -6.196913719177246 -2.5
1.736757755279541 -5.995947360992432 -2.5
2.2135937213897705 -5.836767673492432 -2.5
5.276034832000732 -3.3363475799560547 -2.5
5.742900371551514 -2.4468066692352295 -2.5
5.921162128448486 -1.9767577648162842 -2.5
6.222177505493164 -0.5023046731948853 -2.5
-6.047372817993164 1.9531249563442543e-05 -2.5
-5.969052791595459 -0.9700781106948853 -2.5
-5.871640682220459 -1.4472265243530273 -2.5
-5.736152172088623 -1.9149999618530273 -2.5
-4.834521293640137 -3.6329002380371094 -2.5
-4.526523113250732 -4.010146617889404 -2.5
-4.189159870147705 -4.361376762390137 -2.5
-3.824638605117798 -4.684316158294678 -2.5
-2.592460870742798 -5.463496208190918 -2.5
-2.144423723220825 -5.654394626617432 -2.5
0.24350585043430328 -6.042460918426514 -2.5
0.7289355397224426 -6.003281116485596 -2.5
1.2096385955810547 -5.92516565322876 -2.5
1.6824804544448853 -5.808613300323486 -2.5
3.023691415786743 -5.237177848815918 -2.5
4.834540843963623 -3.6329002380371094 -2.5
5.354687213897705 -2.8103418350219727 -2.5
5.969062328338623 -0.9700683355331421 -2.5
6.027773380279541 -0.4866113066673279 -2.5
-5.786601543426514 -0.9404199123382568 -2.5
-5.692158222198486 -1.402978539466858 -2.5
-4.388154029846191 -3.8875584602355957 -2.5
-3.707714796066284 -4.541132926940918 -2.5
-3.3302929401397705 -4.824746131896973 -2.5
-2.078867197036743 -5.481543064117432 -2.5
-1.631044864654541 -5.631054401397705 -2.5
-1.1726561784744263 -5.744032859802246 -2.5
-0.7066503763198853 -5.819765567779541 -2.5
1.1726561784744263 -5.744023323059082 -2.5
1.6310546398162842 -5.631054401397705 -2.5
2.5132226943969727 -5.296494007110596 -2.5
2.9312596321105957 -5.077089786529541 -2.5
3.7077245712280273 -4.541122913360596 -2.5
4.061103343963623 -4.228066444396973 -2.5
4.388164043426514 -3.8875584602355957 -2.5
4.686757564544678 -3.521855354309082 -2.5
4.954941272735596 -3.133310556411743 -2.5
5.190996170043945 -2.724443197250366 -2.5
5.56082010269165 -1.8564550876617432 -2.5
5.69216775894165 -1.4029881954193115 -2.5
-5.521767616271973 -1.360986351966858 -2.5
-5.231943130493164 -2.2291111946105957 -2.5
-4.806611061096191 -3.0395116806030273 -2.5
-3.939531087875366 -4.101493835449219 -2.5
-3.230595588684082 -4.680331707000732 -2.5
-2.437978506088257 -5.137948989868164 -2.5
-1.5822362899780273 -5.462490081787109 -2.5
-0.22899413108825684 -5.682421684265137 -2.5
0.22900390625 -5.682392597198486 -2.5
1.1375585794448853 -5.572080135345459 -2.5
2.016650438308716 -5.317451000213623 -2.5
2.437978506088257 -5.137929439544678 -2.5
2.843515634536743 -4.925107479095459 -2.5
3.5967283248901367 -4.405195236206055 -2.5
3.9395408630371094 -4.101484298706055 -2.5
4.546445369720459 -3.416435480117798 -2.5
4.806621074676514 -3.0395214557647705 -2.5
5.231953144073486 -2.2291014194488525 -2.5
5.394345760345459 -1.8008886575698853 -2.5
5.521777153015137 -1.3610057830810547 -2.5
5.613379001617432 -0.9122558236122131 -2.5
-5.236064434051514 -1.7480370998382568 -2.5
-5.078417778015137 -2.163701057434082 -2.5
-4.887851238250732 -2.5653319358825684 -2.5
-4.665575981140137 -2.950322151184082 -2.5
-4.131884574890137 -3.660537004470825 -2.5
-3.8239452838897705 -3.981132745742798 -2.5
-3.4911913871765137 -4.275937557220459 -2.5
-2.760077953338623 -4.780585765838623 -2.5
-2.366455078125 -4.987187385559082 -2.5
-1.9574706554412842 -5.161435604095459 -2.5
-1.5358006954193115 -5.302196979522705 -2.5
0.6653808355331421 -5.479911804199219 -2.5
1.1041796207427979 -5.408593654632568 -2.5
1.5358006954193115 -5.302196979522705 -2.5
2.366445302963257 -4.987187385559082 -2.5
2.760077953338623 -4.780595779418945 -2.5
3.491201162338257 -4.275947093963623 -2.5
4.887851238250732 -2.5653417110443115 -2.5
5.236073970794678 -1.7480566501617432 -2.5
5.502255916595459 -0.4441894292831421 -2.5
-5.361269474029541 9.765624781721272e-06 -2.5
-5.291835784912109 -0.8600097298622131 -2.5
-5.205488204956055 -1.2830272912979126 -2.5
-5.085351467132568 -1.6977343559265137 -2.5
-4.932246208190918 -2.101435422897339 -2.5
-4.531289100646973 -2.865410089492798 -2.5
-3.713876962661743 -3.8665525913238525 -2.5
-2.29833984375 -4.843632698059082 -2.5
-1.0723925828933716 -5.252910137176514 -2.5
-0.6462304592132568 -5.322177410125732 -2.5
-0.2158789038658142 -5.356914043426514 -2.5
0.2158789038658142 -5.356904029846191 -2.5
1.0724023580551147 -5.252910137176514 -2.5
1.491601586341858 -5.149599552154541 -2.5
3.713876962661743 -3.8665525913238525 -2.5
4.01296854019165 -3.55517578125 -2.5
4.286025524139404 -3.2207517623901367 -2.5
4.531289100646973 -2.865419864654541 -2.5
4.932265281677246 -2.101445198059082 -2.5
5.085361003875732 -1.69775390625 -2.5
