ply
format ascii 1.0
element vertex 748
property float x
property float y
property float z
end_header
15.965859413146973 -11.99755859375 5.3512749671936035
-0.6801660060882568 -16.87871551513672 4.326270580291748
-0.680712878704071 -16.89240264892578 3.9327006340026855
-0.6809862852096558 -16.89920425415039 3.7372214794158936
16.074995040893555 -14.241190910339355 4.7455058097839355
-0.6812597513198853 -16.90596580505371 3.5425407886505127
-0.6815332174301147 -16.912704467773438 3.348604679107666
16.08183479309082 -14.247241020202637 4.250457286834717
-0.6820752024650574 -16.926122665405273 2.9627702236175537
-0.6826074123382568 -16.939453125 2.579310894012451
-0.6828759908676147 -16.94609832763672 2.3883495330810547
-0.6831445097923279 -16.952709197998047 2.197829246520996
27.181127548217773 -11.580771446228027 3.827284574508667
-22.3236026763916 -11.716293334960938 2.982196092605591
-0.6834130883216858 -16.959331512451172 2.0077109336853027
-22.06891632080078 -11.582626342773438 2.3894293308258057
-0.6842089891433716 -16.97909164428711 1.439259648323059
-22.03546905517578 -11.565082550048828 1.8302825689315796
4.87539529800415 -23.88123893737793 1.792614459991455
-22.018817901611328 -11.556342124938965 1.5520596504211426
-22.002225875854492 -11.54763126373291 1.2746398448944092
-21.96915054321289 -11.5302734375 0.7219271659851074
-0.6855322122573853 -17.011903762817383 0.4953979253768921
-0.6857959032058716 -17.018461227416992 0.30673980712890625
-21.936229705810547 -11.512992858886719 0.17158354818820953
-0.6860595345497131 -17.0250244140625 0.11801086366176605
-21.91981315612793 -11.504379272460938 -0.10287398844957352
18.494482040405273 -16.384634017944336 -0.10273955762386322
-21.90340805053711 -11.495771408081055 -0.37694305181503296
-0.6865869164466858 -17.03816795349121 -0.2598399221897125
-0.6868554353713989 -17.044736862182617 -0.44905638694763184
-21.854326248168945 -11.47000503540039 -1.1975244283676147
-21.837968826293945 -11.461435317993164 -1.47073233127594
18.253496170043945 -16.171127319335938 -1.45424222946167
11.35452651977539 -19.666635513305664 -1.6069408655166626
18.205902099609375 -16.12895965576172 -1.7211309671401978
-24.24349594116211 -15.330649375915527 -2.3494620323181152
-21.077421188354492 -15.838651657104492 -2.159522294998169
-8.069311141967773 -27.858505249023438 -2.375636100769043
-4.951621055603027 -24.25459861755371 -2.0276293754577637
-3.4993162155151367 -28.819355010986328 -2.3778815269470215
0.8362792730331421 -20.753211975097656 -1.7012368440628052
3.4997215270996094 -28.822832107543945 -2.3781611919403076
12.40358829498291 -26.140018463134766 -2.369896411895752
11.445326805114746 -19.82390022277832 -1.8749337196350098
16.3790283203125 -23.72909164428711 -2.361659288406372
19.8829345703125 -20.700321197509766 -2.3509738445281982
-26.860145568847656 2.4414061044808477e-05 -2.5
-26.512313842773438 -4.308671951293945 -2.5
-25.7967472076416 -6.358344554901123 -2.4728825092315674
-23.204423904418945 -9.886484146118164 -2.347599983215332
-20.844951629638672 -10.940258979797363 -2.1911113262176514
-21.318017959594727 -13.480708122253418 -2.347599983215332
-20.164140701293945 -15.152377128601074 -2.347599983215332
-15.982284545898438 -19.57472038269043 -2.352052927017212
-8.995219230651855 -23.718456268310547 -2.361015796661377
-7.061352252960205 -24.37859344482422 -2.362297534942627
-3.061821222305298 -25.216337203979492 -2.3642404079437256
-1.0230273008346558 -25.386249542236328 -2.3647348880767822
3.062006711959839 -25.21794891357422 -2.364391326904297
4.846879959106445 -23.741561889648438 -2.255317449569702
10.857104301452637 -22.880878448486328 -2.357219696044922
11.616835594177246 -20.120946884155273 -2.1624677181243896
14.343090057373047 -20.779541015625 -2.3500449657440186
15.95201587677002 -19.537670135498047 -2.347599983215332
17.472421646118164 -18.190717697143555 -2.347599983215332
17.431278228759766 -15.442719459533691 -2.167515516281128
19.601619720458984 -14.729619026184082 -2.2821052074432373
21.420400619506836 -13.54544448852539 -2.3588740825653076
24.710790634155273 -10.528265953063965 -2.5
25.47783660888672 -8.5057373046875 -2.5
26.07964324951172 -6.428056716918945 -2.5
-23.667098999023438 -3.8462841510772705 -2.5
-23.280818939208984 -5.738227367401123 -2.5
-22.74358367919922 -7.592934608459473 -2.5
-21.43941307067871 -9.134477615356445 -2.4297943115234375
-19.93685531616211 -10.463662147521973 -2.347599983215332
-19.03020477294922 -12.033984184265137 -2.347599983215332
-12.838476181030273 -13.366264343261719 -1.9323596954345703
-11.25795841217041 -19.49931526184082 -2.347599983215332
-9.658486366271973 -20.354793548583984 -2.349079132080078
-6.275947093963623 -21.667049407958984 -2.3519558906555176
-4.514121055603027 -22.111572265625 -2.352994441986084
-2.720952033996582 -22.408964157104492 -2.353611946105957
-0.9090917706489563 -22.558916091918945 -2.353991985321045
7.991523265838623 -21.071903228759766 -2.3497400283813477
9.652392387390137 -20.342021942138672 -2.347599983215332
11.2579345703125 -19.499324798583984 -2.347599983215332
12.790488243103027 -18.530214309692383 -2.347599983215332
16.256811141967773 -14.402250289916992 -2.264568328857422
18.26692771911621 -13.726694107055664 -2.3823907375335693
20.265600204467773 -12.815190315246582 -2.5
22.74359893798828 -7.592919826507568 -2.5
23.89981460571289 -1.9293895959854126 -2.5
-21.648916244506836 1.4648437172581907e-05 -2.5
-21.36854362487793 -3.472719669342041 -2.5
-21.019813537597656 -5.18093729019165 -2.5
-19.916532516479492 -8.485644340515137 -2.5
-19.141845703125 -10.046415328979492 -2.496441602706909
-17.518808364868164 -11.07821273803711 -2.393616199493408
-16.251991271972656 -12.212587356567383 -2.347599983215332
-12.838485717773438 -13.366273880004883 -2.14021635055542
-10.16458511352539 -17.605581283569336 -2.347599983215332
-8.7149658203125 -18.36640167236328 -2.347599983215332
5.655937194824219 -19.526533126831055 -2.347599983215332
7.208827972412109 -19.008100509643555 -2.347599983215332
8.714961051940918 -18.366405487060547 -2.347599983215332
10.164579391479492 -17.605571746826172 -2.347599983215332
14.082514762878418 -14.661444664001465 -2.347599983215332
15.660375595092773 -13.873871803283691 -2.4160637855529785
18.297426223754883 -11.570585250854492 -2.5
19.169145584106445 -10.060736656188965 -2.5
19.916542053222656 -8.48563003540039 -2.5
21.36854362487793 -3.472729444503784 -2.5
21.578685760498047 -1.7420116662979126 -2.5
-19.66402244567871 -1.5874364376068115 -2.5
-19.4725284576416 -3.1645898818969727 -2.5
-19.154706954956055 -4.721210956573486 -2.5
-18.712705612182617 -6.247216701507568 -2.5
-18.149335861206055 -7.732709884643555 -2.5
-16.67389678955078 -10.543925285339355 -2.5
-15.698740005493164 -11.796850204467773 -2.488485097885132
-12.789511680603027 -13.315292358398438 -2.3396499156951904
-11.716279029846191 -14.349823951721191 -2.347599983215332
-10.523603439331055 -15.246078491210938 -2.347599983215332
-9.262690544128418 -16.04341697692871 -2.347599983215332
-3.705556631088257 -18.150970458984375 -2.347599983215332
-0.6439452767372131 -15.980077743530273 -2.0266990661621094
3.7055516242980957 -18.150976181030273 -2.347599983215332
5.154086589813232 -17.793935775756836 -2.347599983215332
7.94167947769165 -16.736753463745117 -2.347599983215332
14.766606330871582 -13.08206558227539 -2.5
15.771390914916992 -11.851425170898438 -2.5
16.673887252807617 -10.543930053710938 -2.5
18.149335861206055 -7.732709884643555 -2.5
-18.11605453491211 9.765624781721272e-06 -2.5
-18.057323455810547 -1.457729458808899 -2.5
-17.8814640045166 -2.906015634536743 -2.5
-17.589628219604492 -4.335468769073486 -2.5
-17.183740615844727 -5.736772537231445 -2.5
-16.666406631469727 -7.100883483886719 -2.5
-14.48275375366211 -10.883075714111328 -2.5
-12.400961875915527 -12.91075611114502 -2.4704222679138184
-10.894736289978027 -13.34361743927002 -2.3772242069244385
-9.663735389709473 -14.00035572052002 -2.347599983215332
-7.292788028717041 -15.369223594665527 -2.347599983215332
-6.032426834106445 -15.906210899353027 -2.347599983215332
-4.732954025268555 -16.340038299560547 -2.347599983215332
-1.9211523532867432 -15.822016716003418 -2.199465036392212
-0.6416699290275574 -15.923354148864746 -2.1991958618164062
0.6849951148033142 -16.997900009155273 -2.347599983215332
3.402778148651123 -16.667905807495117 -2.347599983215332
4.732954025268555 -16.340044021606445 -2.347599983215332
6.032436370849609 -15.906210899353027 -2.347599983215332
8.505844116210938 -14.732563018798828 -2.347599983215332
12.549433708190918 -13.06534194946289 -2.5
15.311503410339355 -9.68240737915039 -2.5
16.66639518737793 -7.100873947143555 -2.5
17.183740615844727 -5.736762523651123 -2.5
17.881454467773438 -2.9060254096984863 -2.5
-16.526933670043945 -2.6858885288238525 -2.5
-16.25721549987793 -4.007050514221191 -2.5
-15.88206958770752 -5.302221775054932 -2.5
-14.825859069824219 -7.781200885772705 -2.5
-13.385683059692383 -10.058686256408691 -2.5
-12.532880783081055 -11.103154182434082 -2.5
-11.598803520202637 -12.075629234313965 -2.5
-10.587470054626465 -12.967289924621582 -2.4995172023773193
-9.4373779296875 -13.672402381896973 -2.4805078506469727
-8.061908721923828 -13.96361255645752 -2.407435178756714
-6.740815162658691 -14.206000328063965 -2.3477652072906494
-5.57546854019165 -14.70131778717041 -2.347599983215332
-3.145024299621582 -15.405302047729492 -2.347599983215332
-1.895205020904541 -15.608407974243164 -2.347599983215332
-0.6331103444099426 -15.710302352905273 -2.347599983215332
0.6331103444099426 -15.710302352905273 -2.347599983215332
4.374428749084473 -15.102270126342773 -2.347599983215332
8.2564058303833 -14.300498008728027 -2.4655160903930664
11.598808288574219 -12.075629234313965 -2.5
12.532880783081055 -11.103163719177246 -2.5
13.3856782913208 -10.058676719665527 -2.5
14.151659965515137 -8.948959350585938 -2.5
15.882060050964355 -5.302206993103027 -2.5
-15.510634422302246 -1.2521435022354126 -2.5
-15.359589576721191 -2.496166944503784 -2.5
-15.108915328979492 -3.7240185737609863 -2.5
-14.760263442993164 -4.927700042724609 -2.5
-13.77865219116211 -7.231586933135986 -2.5
-8.839706420898438 -12.806532859802246 -2.5
-7.780561447143555 -13.476279258728027 -2.5
-6.657504558563232 -14.030414581298828 -2.4949753284454346
-5.445620059967041 -14.358935356140137 -2.4671926498413086
-1.7826025485992432 -14.681093215942383 -2.375946283340454
0.5931249856948853 -14.718110084533691 -2.3664896488189697
4.212900161743164 -14.544584274291992 -2.432742118835449
5.484013557434082 -14.460150718688965 -2.484585762023926
6.665976524353027 -14.04825210571289 -2.49814772605896
7.780537128448486 -13.476288795471191 -2.5
9.841537475585938 -12.053686141967773 -2.5
11.647631645202637 -10.318891525268555 -2.5
13.152074813842773 -8.316864967346191 -2.5
14.31588363647461 -6.099413871765137 -2.5
15.108905792236328 -3.724013566970825 -2.5
15.359575271606445 -2.496166944503784 -2.5
-14.483935356140137 -1.1692626476287842 -2.5
-13.368270874023438 -5.695683479309082 -2.5
-12.86660099029541 -6.752914905548096 -2.5
-11.616743087768555 -8.729423522949219 -2.5
-10.8766450881958 -9.6358642578125 -2.5
-10.066020011901855 -10.479828834533691 -2.5
-8.2545747756958 -11.958818435668945 -2.5
-7.265536785125732 -12.584257125854492 -2.5
-5.152778148651123 -13.586771965026855 -2.5
-2.904975414276123 -14.229511260986328 -2.498616933822632
-1.7492138147354126 -14.406034469604492 -2.496695041656494
-0.5841113328933716 -14.4945650100708 -2.4957470893859863
1.7492578029632568 -14.40648365020752 -2.496774435043335
2.9051952362060547 -14.230595588684082 -2.498807668685913
4.042797565460205 -13.9573335647583 -2.5
8.254579544067383 -11.958818435668945 -2.5
13.78323745727539 -4.601518630981445 -2.5
14.10879898071289 -3.4775097370147705 -2.5
14.483930587768555 -1.1692626476287842 -2.5
-13.581483840942383 -1.0964062213897705 -2.5
-13.229745864868164 -3.2608447074890137 -2.5
-10.198959350585938 -9.035483360290527 -2.5
-9.438822746276855 -9.826860427856445 -2.5
-7.74026346206665 -11.213706016540527 -2.5
-6.812851428985596 -11.800166130065918 -2.5
-5.841230392456055 -12.3101167678833 -2.5
-2.7254881858825684 -13.350297927856445 -2.5
-1.642397403717041 -13.526317596435547 -2.5
-0.5486474633216858 -13.6146240234375 -2.5
1.6423925161361694 -13.526317596435547 -2.5
2.7254881858825684 -13.350302696228027 -2.5
3.790898323059082 -13.087690353393555 -2.5
4.831723690032959 -12.740209579467773 -2.5
6.812827110290527 -11.8001708984375 -2.5
10.8929443359375 -8.185503005981445 -2.5
12.064926147460938 -6.332162857055664 -2.5
12.924448013305664 -4.314804553985596 -2.5
13.44921875 -2.1857128143310547 -2.5
-12.163500785827637 -4.060766696929932 -2.5
-11.797304153442383 -5.026362419128418 -2.5
-10.8382568359375 -6.853691101074219 -2.5
-10.251605987548828 -7.703583717346191 -2.5
-8.8831148147583 -9.248295783996582 -2.5
-8.110136985778809 -9.933090209960938 -2.5
-7.2845458984375 -10.553485870361328 -2.5
-6.411733150482178 -11.105429649353027 -2.5
-5.497319221496582 -11.585346221923828 -2.5
-3.5677146911621094 -12.317152976989746 -2.5
-2.5650243759155273 -12.564287185668945 -2.5
-1.5457079410552979 -12.729950904846191 -2.5
1.5456883907318115 -12.729941368103027 -2.5
2.565019369125366 -12.564287185668945 -2.5
3.5677099227905273 -12.317143440246582 -2.5
4.547250747680664 -11.990117073059082 -2.5
5.497299671173096 -11.585346221923828 -2.5
6.411713600158691 -11.105429649353027 -2.5
7.2845458984375 -10.553481101989746 -2.5
8.110121726989746 -9.933095932006836 -2.5
9.598490715026855 -8.503510475158691 -2.5
10.838252067565918 -6.853691101074219 -2.5
11.354594230651855 -5.9593505859375 -2.5
11.797308921813965 -5.026352405548096 -2.5
12.781865119934082 -1.0318554639816284 -2.5
-12.107514381408691 1.9531249563442543e-05 -2.5
-12.06826114654541 -0.9742382764816284 -2.5
-11.755693435668945 -2.897524356842041 -2.5
-11.484414100646973 -3.834057569503784 -2.5
-11.13866138458252 -4.745737075805664 -2.5
-10.72066879272461 -5.626640319824219 -2.5
-10.233149528503418 -6.471054553985596 -2.5
-9.679252624511719 -7.273490905761719 -2.5
-8.38717269897461 -8.731963157653809 -2.5
-6.877851486206055 -9.964286804199219 -2.5
-2.421821117401123 -11.862821578979492 -2.5
-1.4594091176986694 -12.019232749938965 -2.5
-0.4875195324420929 -12.09769058227539 -2.5
0.4875146448612213 -12.09769058227539 -2.5
1.4593944549560547 -12.0192232131958 -2.5
2.421811580657959 -11.86281681060791 -2.5
4.293383598327637 -11.320707321166992 -2.5
6.053754806518555 -10.4854097366333 -2.5
6.877851486206055 -9.964277267456055 -2.5
8.387163162231445 -8.73196792602539 -2.5
9.6792573928833 -7.273490905761719 -2.5
11.48440933227539 -3.834052562713623 -2.5
11.755682945251465 -2.897509813308716 -2.5
-11.464526176452637 0.0 -2.5
-11.427348136901855 -0.9225048422813416 -2.5
-11.316059112548828 -1.8390429019927979 -2.5
-10.547109603881836 -4.493705749511719 -2.5
-8.581308364868164 -7.602372646331787 -2.5
-7.250683307647705 -8.880463600158691 -2.5
-5.732260704040527 -9.92855453491211 -2.5
-4.914760589599609 -10.357617378234863 -2.5
-4.065371036529541 -10.719496726989746 -2.5
-2.293207883834839 -11.23282241821289 -2.5
-1.381899356842041 -11.380922317504883 -2.5
0.46162596344947815 -11.455209732055664 -2.5
2.2931933403015137 -11.232816696166992 -2.5
3.189624071121216 -11.011859893798828 -2.5
4.065371036529541 -10.71950626373291 -2.5
4.914745807647705 -10.357617378234863 -2.5
6.512587547302246 -9.435102462768555 -2.5
7.250673770904541 -8.88045883178711 -2.5
8.581308364868164 -7.602367877960205 -2.5
9.1652193069458 -6.887211799621582 -2.5
10.151312828063965 -5.327826976776123 -2.5
10.87451171875 -3.630434513092041 -2.5
11.13137149810791 -2.7436375617980957 -2.5
-10.84842300415039 -0.8757714629173279 -2.5
-10.74276351928711 -1.7458593845367432 -2.5
-10.5674409866333 -2.6046435832977295 -2.5
-9.63705062866211 -5.057914733886719 -2.5
-9.198798179626465 -5.816967487335205 -2.5
-8.14657211303711 -7.217221736907959 -2.5
-7.539409160614014 -7.849345684051514 -2.5
-6.883359432220459 -8.430561065673828 -2.5
-5.441864967346191 -9.425556182861328 -2.5
-4.665766716003418 -9.832880973815918 -2.5
-3.8594138622283936 -10.176430702209473 -2.5
-3.0280418395996094 -10.453984260559082 -2.5
-2.1770262718200684 -10.663744926452637 -2.5
-0.4382421672344208 -10.874868392944336 -2.5
1.3118847608566284 -10.804335594177246 -2.5
2.177016496658325 -10.663740158081055 -2.5
3.8594138622283936 -10.176430702209473 -2.5
5.441845417022705 -9.425546646118164 -2.5
8.146567344665527 -7.217226505279541 -2.5
8.700888633728027 -6.538271427154541 -2.5
9.1987886428833 -5.816962718963623 -2.5
10.323583602905273 -3.4465086460113525 -2.5
10.567436218261719 -2.6046385765075684 -2.5
10.742758750915527 -1.7458642721176147 -2.5
10.848407745361328 -0.8757714629173279 -2.5
-10.32278823852539 -0.8333349227905273 -2.5
-10.055429458618164 -2.478442430496216 -2.5
-9.823378562927246 -3.2795214653015137 -2.5
-9.527626991271973 -4.059335708618164 -2.5
-7.174106121063232 -7.46902322769165 -2.5
-6.54983377456665 -8.022074699401855 -2.5
-2.071547746658325 -10.147055625915527 -2.5
-0.41700682044029236 -10.347953796386719 -2.5
0.41700682044029236 -10.347953796386719 -2.5
1.248315453529358 -10.280839920043945 -2.5
2.071537971496582 -10.147050857543945 -2.5
2.8813133239746094 -9.947455406188965 -2.5
3.6724119186401367 -9.683359146118164 -2.5
4.439687252044678 -9.3564453125 -2.5
5.178164005279541 -8.968862533569336 -2.5
5.883076190948486 -8.52310562133789 -2.5
6.549824237823486 -8.022085189819336 -2.5
7.751835823059082 -6.867514610290527 -2.5
8.753081321716309 -5.535107135772705 -2.5
9.170092582702637 -4.812831878662109 -2.5
10.055415153503418 -2.4784374237060547 -2.5
10.222246170043945 -1.6612792015075684 -2.5
-9.84328556060791 -0.7946191430091858 -2.5
-9.747416496276855 -1.5841015577316284 -2.5
-9.588349342346191 -2.3633203506469727 -2.5
-9.367079734802246 -3.127192258834839 -2.5
-7.894741058349609 -5.932504653930664 -2.5
-7.391777038574219 -6.548534870147705 -2.5
-5.609809398651123 -8.127216339111328 -2.5
-4.233476638793945 -8.921835899353027 -2.5
-3.5018310546875 -9.233559608459473 -2.5
-2.747485399246216 -9.485395431518555 -2.5
-1.975317358970642 -9.6757173538208 -2.5
-1.1903417110443115 -9.803296089172363 -2.5
-0.3976415991783142 -9.867294311523438 -2.5
1.190332055091858 -9.803296089172363 -2.5
1.975307583808899 -9.6757173538208 -2.5
2.7474756240844727 -9.485395431518555 -2.5
3.5018310546875 -9.233559608459473 -2.5
4.233457088470459 -8.921835899353027 -2.5
4.937636375427246 -8.552255630493164 -2.5
5.609804630279541 -8.127206802368164 -2.5
6.245585918426514 -7.649447917938232 -2.5
8.346503257751465 -5.278007507324219 -2.5
8.744145393371582 -4.589277267456055 -2.5
9.588339805603027 -2.3633055686950684 -2.5
-9.434598922729492 1.4648437172581907e-05 -2.5
-9.404008865356445 -0.7591650485992432 -2.5
-9.312426567077637 -1.5134130716323853 -2.5
-9.160444259643555 -2.2578465938568115 -2.5
-7.974032878875732 -5.042460918426514 -2.5
-7.542426586151123 -5.667763710021973 -2.5
-4.044545650482178 -8.523686408996582 -2.5
-3.3455517292022705 -8.82149887084961 -2.5
-1.887172818183899 -9.243926048278809 -2.5
-1.1372216939926147 -9.365805625915527 -2.5
1.1372119188308716 -9.365800857543945 -2.5
4.044536113739014 -8.523686408996582 -2.5
7.061894416809082 -6.256289005279541 -2.5
7.542421817779541 -5.66775369644165 -2.5
7.974023342132568 -5.042460918426514 -2.5
8.35391616821289 -4.384472370147705 -2.5
8.679633140563965 -3.6980369091033936 -2.5
-9.029287338256836 1.4648437172581907e-05 -2.5
-9.0 -0.7265576124191284 -2.5
-8.912358283996582 -1.44839346408844 -2.5
-8.766899108886719 -2.1608495712280273 -2.5
-8.564594268798828 -2.8592822551727295 -2.5
-8.306753158569336 -3.5391697883605957 -2.5
-7.631454944610596 -4.82583475112915 -2.5
-7.218398094177246 -5.424262523651123 -2.5
-6.758520126342773 -5.987519264221191 -2.5
-5.710527420043945 -6.994121074676514 -2.5
-5.129209041595459 -7.430947303771973 -2.5
-3.87078595161438 -8.157500267028809 -2.5
-3.2018213272094727 -8.442514419555664 -2.5
-2.5121092796325684 -8.672778129577637 -2.5
2.5121045112609863 -8.672773361206055 -2.5
3.2018213272094727 -8.442519187927246 -2.5
5.129209041595459 -7.430942058563232 -2.5
5.710522174835205 -6.994121074676514 -2.5
6.758510589599609 -5.987504959106445 -2.5
7.2183837890625 -5.424247741699219 -2.5
7.631454944610596 -4.82583475112915 -2.5
7.995019435882568 -4.196113109588623 -2.5
8.912353515625 -1.44839346408844 -2.5
8.999995231628418 -0.7265527248382568 -2.5
-8.655165672302246 1.4648437172581907e-05 -2.5
-8.627094268798828 -0.6964501738548279 -2.5
-8.543070793151855 -1.3883788585662842 -2.5
-8.40365219116211 -2.0713133811950684 -2.5
-8.209726333618164 -2.7408056259155273 -2.5
-7.663759708404541 -4.022250652313232 -2.5
-5.473916053771973 -6.704316139221191 -2.5
-4.327592849731445 -7.495575904846191 -2.5
-2.408017635345459 -8.313427925109863 -2.5
-1.7312597036361694 -8.480229377746582 -2.5
-1.0432665348052979 -8.592041015625 -2.5
-0.3485107421875 -8.6481294631958 -2.5
1.7312450408935547 -8.480234146118164 -2.5
2.408012628555298 -8.313422203063965 -2.5
3.069155216217041 -8.092704772949219 -2.5
3.710390567779541 -7.819491863250732 -2.5
4.327573299407959 -7.495575904846191 -2.5
4.916684627532959 -7.123046875 -2.5
5.473910808563232 -6.704320907592773 -2.5
6.478476524353027 -5.739418983459473 -2.5
6.919296741485596 -5.199506759643555 -2.5
7.962563514709473 -3.392519474029541 -2.5
8.209731101989746 -2.740800619125366 -2.5
8.543066024780273 -1.3883837461471558 -2.5
-8.28173828125 -0.6685693264007568 -2.5
-8.201088905334473 -1.332802653312683 -2.5
-8.067240715026855 -1.9884033203125 -2.5
-7.881083965301514 -2.6310887336730957 -2.5
-7.022417068481445 -4.440698146820068 -2.5
-6.642314434051514 -4.991366863250732 -2.5
-6.219130516052246 -5.509653091430664 -2.5
-5.755629539489746 -5.992236137390137 -2.5
-4.154345512390137 -7.195522308349609 -2.5
-2.946298837661743 -7.768740177154541 -2.5
-2.3116209506988525 -7.980629920959473 -2.5
0.33455565571784973 -8.3019380569458 -2.5
1.0014941692352295 -8.248095512390137 -2.5
1.6619433164596558 -8.140756607055664 -2.5
4.154335975646973 -7.195517539978027 -2.5
5.755624771118164 -5.992236137390137 -2.5
6.642304420471191 -4.99136209487915 -2.5
7.022411823272705 -4.440688610076904 -2.5
8.067240715026855 -1.9883886575698853 -2.5
8.20108413696289 -1.332802653312683 -2.5
8.28173828125 -0.6685693264007568 -2.5
-7.960917949676514 -0.6426708698272705 -2.5
-7.754726409912109 -1.9113622903823853 -2.5
-7.575780868530273 -2.5291600227355957 -2.5
-7.071977615356445 -3.7116551399230957 -2.5
-5.978212833404541 -5.296230316162109 -2.5
-5.532660961151123 -5.760102272033691 -2.5
-5.051235198974609 -6.186621189117432 -2.5
-3.993412971496582 -6.91677713394165 -2.5
-3.423891544342041 -7.215683460235596 -2.5
-0.9627099633216858 -7.928574085235596 -2.5
-0.3216015696525574 -7.980331897735596 -2.5
0.3215917944908142 -7.980327129364014 -2.5
1.597558617591858 -7.825395107269287 -2.5
2.2220702171325684 -7.671469688415527 -2.5
4.537021160125732 -6.573007583618164 -2.5
5.051215648651123 -6.186615943908691 -2.5
5.532656192779541 -5.760097503662109 -2.5
5.978208065032959 -5.296230316162109 -2.5
6.384990215301514 -4.79800271987915 -2.5
7.071962833404541 -3.711664915084839 -2.5
7.347704887390137 -3.13055157661438 -2.5
-7.686957836151123 4.882812390860636e-06 -2.5
-7.291362285614014 -2.434213876724243 -2.5
-6.4969482421875 -4.108417987823486 -2.5
-6.145287990570068 -4.617885589599609 -2.5
-5.75377893447876 -5.097387790679932 -2.5
-4.366694450378418 -6.326240062713623 -2.5
-3.8434910774230957 -6.65709924697876 -2.5
-2.725839853286743 -7.187431335449219 -2.5
-1.53759765625 -7.53161096572876 -2.5
-0.30952635407447815 -7.680727481842041 -2.5
0.3095166087150574 -7.680732250213623 -2.5
2.1386473178863525 -7.383461952209473 -2.5
3.2953367233276367 -6.944780349731445 -2.5
3.8434765338897705 -6.657094478607178 -2.5
4.366689205169678 -6.326244831085205 -2.5
4.861581802368164 -5.954350471496582 -2.5
6.806459903717041 -3.5723047256469727 -2.5
7.587416648864746 -1.233071208000183 -2.5
-7.382856369018555 -0.5960058569908142 -2.5
-7.310956954956055 -1.1881396770477295 -2.5
-7.191640377044678 -1.7725830078125 -2.5
-7.025683403015137 -2.345522403717041 -2.5
-6.814174652099609 -2.9032421112060547 -2.5
-6.5584716796875 -3.442143440246582 -2.5
-5.130922794342041 -5.341855525970459 -2.5
-3.175283193588257 -6.691738128662109 -2.5
-1.4815624952316284 -7.257182598114014 -2.5
2.626518487930298 -6.925537109375 -2.5
3.703432559967041 -6.414531230926514 -2.5
4.207578182220459 -6.095727443695068 -2.5
4.684443473815918 -5.737392425537109 -2.5
5.130922794342041 -5.341845512390137 -2.5
6.260210037231445 -3.9587109088897705 -2.5
6.558461666107178 -3.442138671875 -2.5
6.814169883728027 -2.9032373428344727 -2.5
7.191640377044678 -1.7725732326507568 -2.5
7.310952186584473 -1.188149333000183 -2.5
7.382856369018555 -0.595996081829071 -2.5
-7.144589900970459 1.4648437172581907e-05 -2.5
-6.936982154846191 -1.7098095417022705 -2.5
-6.776904106140137 -2.262460947036743 -2.5
-6.326220512390137 -3.32024884223938 -2.5
-6.038535118103027 -3.818535089492798 -2.5
-5.711684226989746 -4.292055606842041 -2.5
-4.949233055114746 -5.152695178985596 -2.5
-4.518569469451904 -5.534223556518555 -2.5
-4.05859375 -5.8798828125 -2.5
-3.5722997188568115 -6.187387466430664 -2.5
-3.0628368854522705 -6.454780101776123 -2.5
-1.9877538681030273 -6.862504959106445 -2.5
-1.429101586341858 -7.000195026397705 -2.5
-0.2876953184604645 -7.13878870010376 -2.5
0.8611865043640137 -7.092485427856445 -2.5
1.9877489805221558 -6.862494945526123 -2.5
2.533500909805298 -6.6802978515625 -2.5
3.0628271102905273 -6.454775333404541 -2.5
3.5722899436950684 -6.187387466430664 -2.5
4.058583736419678 -5.87987756729126 -2.5
4.949228286743164 -5.152685642242432 -2.5
6.326220512390137 -3.320244073867798 -2.5
6.57287073135376 -2.800429582595825 -2.5
6.776904106140137 -2.262460947036743 -2.5
6.936972618103027 -1.7097997665405273 -2.5
-6.898417949676514 4.882812390860636e-06 -2.5
-6.697948932647705 -1.6508984565734863 -2.5
-6.543393611907959 -2.184501886367798 -2.5
-6.108242034912109 -3.2058496475219727 -2.5
-5.163539886474609 -4.574487209320068 -2.5
-4.778696060180664 -4.975146293640137 -2.5
-4.362875938415527 -5.34353494644165 -2.5
-3.9187450408935547 -5.677270412445068 -2.5
-3.449213743209839 -5.974199295043945 -2.5
-1.3798632621765137 -6.758989334106445 -2.5
-0.8315234184265137 -6.848095417022705 -2.5
-0.2777734398841858 -6.892812252044678 -2.5
0.2777685523033142 -6.892812252044678 -2.5
0.8315087556838989 -6.848110198974609 -2.5
1.9192577600479126 -6.626039981842041 -2.5
2.4462108612060547 -6.450117111206055 -2.5
3.9187450408935547 -5.677270412445068 -2.5
4.362861156463623 -5.34353494644165 -2.5
4.778691291809082 -4.975141525268555 -2.5
5.514882564544678 -4.144155025482178 -2.5
5.830468654632568 -3.68694806098938 -2.5
6.346391677856445 -2.703935384750366 -2.5
6.543388366699219 -2.184501886367798 -2.5
6.80908203125 -1.1065771579742432 -2.5
6.876039981842041 -0.5550829768180847 -2.5
-6.666845321655273 4.882812390860636e-06 -2.5
-6.645224571228027 -0.536450207233429 -2.5
-6.580512523651123 -1.0694384574890137 -2.5
-6.133359432220459 -2.613173723220825 -2.5
-5.903203010559082 -3.0982372760772705 -2.5
-3.7872021198272705 -5.486699104309082 -2.5
-2.3640966415405273 -6.233603477478027 -2.5
-1.3335399627685547 -6.532109260559082 -2.5
-0.8035986423492432 -6.618232250213623 -2.5
0.8035986423492432 -6.618227481842041 -2.5
1.8548290729522705 -6.403608322143555 -2.5
3.3334081172943115 -5.773647308349609 -2.5
3.7872021198272705 -5.4866943359375 -2.5
4.990204811096191 -4.42092752456665 -2.5
5.329760551452637 -4.005038738250732 -2.5
5.634746074676514 -3.5631933212280273 -2.5
6.473110198974609 -1.5954736471176147 -2.5
6.580492973327637 -1.0694286823272705 -2.5
6.645224571228027 -0.5364550948143005 -2.5
-6.448564529418945 9.765624781721272e-06 -2.5
-6.365058422088623 -1.034423828125 -2.5
-5.932553768157959 -2.5276172161102295 -2.5
-5.709921836853027 -2.9967870712280273 -2.5
-5.450258731842041 -3.446537971496582 -2.5
-4.467074871063232 -4.650712966918945 -2.5
-4.078369140625 -4.995087623596191 -2.5
-3.663203001022339 -5.307094573974609 -2.5
-2.764453172683716 -5.825952053070068 -2.5
-2.286694288253784 -6.029506683349609 -2.5
-1.794106364250183 -6.193954944610596 -2.5
-0.777294933795929 -6.401542663574219 -2.5
-0.2596533000469208 -6.443329811096191 -2.5
0.2596533000469208 -6.443329811096191 -2.5
0.7772851586341858 -6.401537895202637 -2.5
2.286689519882202 -6.029501914978027 -2.5
3.6632080078125 -5.307050704956055 -2.5
4.078369140625 -4.995082855224609 -2.5
4.826816082000732 -4.276181697845459 -2.5
5.155258655548096 -3.8739209175109863 -2.5
6.11669397354126 -2.042041063308716 -2.5
6.365048885345459 -1.0344140529632568 -2.5
-6.061025142669678 -1.4939111471176147 -2.5
-5.921162128448486 -1.9767773151397705 -2.5
-5.742900371551514 -2.4468212127685547 -2.5
-4.324272155761719 -4.502045631408691 -2.5
-3.5461082458496094 -5.137407302856445 -2.5
-2.676084041595459 -5.639716625213623 -2.5
-2.2135937213897705 -5.836762428283691 -2.5
0.2513525187969208 -6.237353324890137 -2.5
1.2486474514007568 -6.116254806518555 -2.5
2.676074266433716 -5.639711856842041 -2.5
3.5461034774780273 -5.137402057647705 -2.5
4.672519207000732 -4.139487266540527 -2.5
4.990454196929932 -3.750077962875366 -2.5
5.27603006362915 -3.3363523483276367 -2.5
5.527387619018555 -2.9009861946105957 -2.5
5.742900371551514 -2.4468114376068115 -2.5
5.921162128448486 -1.9767626523971558 -2.5
6.061025142669678 -1.4939062595367432 -2.5
6.161581993103027 -1.0013574361801147 -2.5
6.222182273864746 -0.5022948980331421 -2.5
-5.969062328338623 -0.9700634479522705 -2.5
-5.563461780548096 -2.370371103286743 -2.5
-5.354692459106445 -2.8103466033935547 -2.5
-5.111181735992432 -3.232109308242798 -2.5
-4.526523113250732 -4.010141372680664 -2.5
-4.189159870147705 -4.361371994018555 -2.5
-2.592465877532959 -5.4635009765625 -2.5
-2.1444334983825684 -5.654394626617432 -2.5
-0.7289355397224426 -6.003276348114014 -2.5
-0.24350585043430328 -6.042460918426514 -2.5
2.144423723220825 -5.654384613037109 -2.5
3.023681640625 -5.237172603607178 -2.5
3.435292959213257 -4.976884841918945 -2.5
3.8246335983276367 -4.684321403503418 -2.5
4.189155101776123 -4.361376762390137 -2.5
4.52651834487915 -4.010136604309082 -2.5
4.834526062011719 -3.6329150199890137 -2.5
5.563461780548096 -2.370361328125 -2.5
5.736152172088623 -1.9150097370147705 -2.5
5.871645450592041 -1.4472265243530273 -2.5
6.027753829956055 -0.4866015613079071 -2.5
-5.843515396118164 -0.4717382788658142 -2.5
-5.786601543426514 -0.9404101371765137 -2.5
-5.69216775894165 -1.4029979705810547 -2.5
-5.393398284912109 -2.297905206680298 -2.5
-4.954946041107178 -3.133305549621582 -2.5
-4.388164043426514 -3.887563467025757 -2.5
-2.931269407272339 -5.077079772949219 -2.5
-2.0788817405700684 -5.481552600860596 -2.5
-0.7066552639007568 -5.819770336151123 -2.5
-0.23605956137180328 -5.857753753662109 -2.5
0.2360546886920929 -5.857758522033691 -2.5
2.5132129192352295 -5.296489238739014 -2.5
2.9312498569488525 -5.077085018157959 -2.5
3.3302879333496094 -4.824746131896973 -2.5
3.707714796066284 -4.541127681732178 -2.5
4.061108112335205 -4.22805643081665 -2.5
4.388154029846191 -3.8875536918640137 -2.5
4.954941272735596 -3.133305549621582 -2.5
5.190996170043945 -2.724443197250366 -2.5
5.560805320739746 -1.8564696311950684 -2.5
5.843505859375 -0.47172850370407104 -2.5
-5.687026023864746 9.765624781721272e-06 -2.5
-5.613379001617432 -0.9122558236122131 -2.5
-5.231943130493164 -2.229120969772339 -2.5
-5.035610198974609 -2.642880916595459 -2.5
-4.806611061096191 -3.039506673812866 -2.5
-4.546454906463623 -3.41644024848938 -2.5
-4.256801605224609 -3.771186351776123 -2.5
-3.9395458698272705 -4.101489067077637 -2.5
-2.43798828125 -5.137939453125 -2.5
-2.0166454315185547 -5.317455768585205 -2.5
-1.1375536918640137 -5.572089672088623 -2.5
0.22899413108825684 -5.682406902313232 -2.5
0.6854882836341858 -5.645551681518555 -2.5
1.137548804283142 -5.572084903717041 -2.5
1.582216739654541 -5.462485313415527 -2.5
2.016650438308716 -5.317451000213623 -2.5
2.843500852584839 -4.925097465515137 -2.5
3.5967235565185547 -4.405185222625732 -2.5
3.9395458698272705 -4.101484298706055 -2.5
4.256796836853027 -3.771186351776123 -2.5
4.546445369720459 -3.4164304733276367 -2.5
4.806616306304932 -3.0395116806030273 -2.5
5.231943130493164 -2.229116201400757 -2.5
5.52175760269165 -1.3609912395477295 -2.5
5.613379001617432 -0.9122509360313416 -2.5
-5.502260684967041 -0.4441894292831421 -2.5
-5.448676586151123 -0.8854931592941284 -2.5
-5.359755516052246 -1.321069359779358 -2.5
-5.236073970794678 -1.7480566501617432 -2.5
-4.887861251831055 -2.5653369426727295 -2.5
-4.665580749511719 -2.950331926345825 -2.5
-4.131904125213623 -3.660537004470825 -2.5
-3.491205930709839 -4.275942325592041 -2.5
-3.135805606842041 -4.543002605438232 -2.5
-2.760082960128784 -4.780590534210205 -2.5
-2.366455078125 -4.9871826171875 -2.5
-1.9574804306030273 -5.161435604095459 -2.5
-1.5358006954193115 -5.302211761474609 -2.5
-1.1041796207427979 -5.40859842300415 -2.5
-0.22227539122104645 -5.515673637390137 -2.5
0.6653759479522705 -5.479907035827637 -2.5
1.104164958000183 -5.408588886260986 -2.5
1.5358104705810547 -5.302206993103027 -2.5
3.135805606842041 -4.542988300323486 -2.5
4.131894588470459 -3.660537004470825 -2.5
5.236073970794678 -1.748046875 -2.5
5.359745979309082 -1.3210546970367432 -2.5
5.448671817779541 -0.8854882717132568 -2.5
5.502255916595459 -0.4441845715045929 -2.5
-5.361269474029541 4.882812390860636e-06 -2.5
-5.343881607055664 -0.431396484375 -2.5
-4.932255744934082 -2.101435422897339 -2.5
-4.747172832489014 -2.491503953933716 -2.5
-4.531293869018555 -2.865410089492798 -2.5
-4.286025524139404 -3.2207372188568115 -2.5
-1.4915966987609863 -5.149589538574219 -2.5
-0.2158789038658142 -5.356918811798096 -2.5
0.21587401628494263 -5.356914043426514 -2.5
0.6462206840515137 -5.322177410125732 -2.5
1.0723876953125 -5.252910137176514 -2.5
1.491601586341858 -5.149584770202637 -2.5
1.9011279344558716 -5.012870788574219 -2.5
3.713881731033325 -3.8665428161621094 -2.5
4.747162818908691 -2.4914989471435547 -2.5
5.205478191375732 -1.2830272912979126 -2.5
5.343886375427246 -0.431396484375 -2.5
