ply
format ascii 1.0
element vertex 703
property float x
property float y
property float z
end_header
-5.640463829040527 -14.872694969177246 4.073721408843994
-25.5869140625 -8.542158126831055 1.683626413345337
-9.424257278442383 -24.849775314331055 1.3633019924163818
-25.54252815246582 -8.527334213256836 0.7835323810577393
-25.52779197692871 -8.522401809692383 0.48467862606048584
-25.513065338134766 -8.517499923706055 0.18628844618797302
-25.48369026184082 -8.507695198059082 -0.4093937575817108
-25.469022750854492 -8.502802848815918 -0.706833004951477
-7.699028015136719 -16.22530174255371 -0.4727655053138733
-25.454364776611328 -8.49789047241211 -1.0041097402572632
-7.691474437713623 -16.209394454956055 -0.6713274717330933
-25.439697265625 -8.492987632751465 -1.3012869358062744
-18.818920135498047 4.882812390860636e-06 -1.1222350597381592
-17.551942825317383 -1.416933536529541 -1.0500857830047607
-27.206045150756836 -11.59139633178711 -1.76349937915802
-7.676401138305664 -16.177616119384766 -1.0678216218948364
21.64546012878418 -16.265478134155273 -1.6146116256713867
23.26818084716797 -12.212080001831055 -1.5670560598373413
-24.27747917175293 -8.104999542236328 -1.8111296892166138
-11.40494155883789 -19.75395393371582 -1.614073395729065
11.560155868530273 -20.022783279418945 -1.6360397338867188
23.268817901611328 -12.212411880493164 -1.8595484495162964
-17.483257293701172 -1.4113867282867432 -1.4366775751113892
-24.27747917175293 -8.104999542236328 -2.096414804458618
-25.391366958618164 -13.326435089111328 -2.3488011360168457
-24.297664642333984 -15.364921569824219 -2.354712963104248
-16.99028205871582 -12.7673921585083 -1.7407690286636353
-21.582988739013672 -19.120868682861328 -2.361790418624878
-16.42520523071289 -17.10042953491211 -1.9421275854110718
-10.948251724243164 -18.962968826293945 -1.7935068607330322
-7.661332607269287 -16.145877838134766 -1.4638077020645142
-5.794736385345459 -28.384462356567383 -2.3728766441345215
-0.83766108751297 -20.78658103942871 -1.7039724588394165
1.1680614948272705 -28.98503875732422 -2.3760383129119873
1.8660937547683716 -15.36864185333252 -1.2680623531341553
8.064218521118164 -27.840898513793945 -2.374134063720703
12.40938949584961 -26.152225494384766 -2.370995044708252
11.364253044128418 -19.6834659576416 -1.86165189743042
21.522010803222656 -19.066835403442383 -2.3551125526428223
22.940433502197266 -17.23861312866211 -2.350400447845459
26.36784553527832 -11.234296798706055 -2.347599983215332
-18.63643455505371 9.765624781721272e-06 -1.7345796823501587
-17.473846435546875 -1.4106298685073853 -1.63166344165802
-26.495361328125 -4.305898189544678 -2.4983999729156494
-23.924707412719727 -7.987246036529541 -2.347599983215332
-23.204402923583984 -9.886484146118164 -2.347599983215332
-16.99089813232422 -12.767861366271973 -1.9781577587127686
-16.880722045898438 -17.574687957763672 -2.2681007385253906
-11.095541954040527 -19.21806526184082 -2.0654280185699463
-7.65380859375 -16.13001823425293 -1.661733627319336
-8.988754272460938 -23.701454162597656 -2.3593204021453857
-5.765995979309082 -19.906532287597656 -1.9289525747299194
-5.074902057647705 -24.858495712280273 -2.361417770385742
-3.0594286918640137 -25.19675636291504 -2.3624045848846436
-1.0223095417022705 -25.36863136291504 -2.3630919456481934
1.0224756002426147 -25.372343063354492 -2.363438606262207
2.086494207382202 -10.220293045043945 -0.9708698987960815
7.057504653930664 -24.365291595458984 -2.361009359359741
12.654545783996582 -21.918291091918945 -2.355633020401001
14.361620903015137 -20.806377410888672 -2.3530795574188232
12.487890243530273 -15.29482364654541 -1.8377933502197266
13.82193374633789 -14.390116691589355 -1.857116460800171
18.879512786865234 -16.725780487060547 -2.347599983215332
22.333654403686523 -11.72159194946289 -2.347599983215332
26.07965087890625 -6.428075790405273 -2.5
26.5123233795166 -4.308671951293945 -2.5
26.77306365966797 -2.1613378524780273 -2.5
-18.6285400390625 4.882812390860636e-06 -1.9422857761383057
-23.280818939208984 -5.738212585449219 -2.5
-22.56305694580078 -7.532656192779541 -2.4801547527313232
-19.93685531616211 -10.4636812210083 -2.347599983215332
-19.030208587646484 -12.033984184265137 -2.347599983215332
-15.59731388092041 -16.238525390625 -2.347599983215332
-12.790478706359863 -18.530223846435547 -2.347599983215332
-7.646279335021973 -16.114160537719727 -1.8596752882003784
-5.685283184051514 -14.990878105163574 -1.6716396808624268
-4.513120174407959 -22.106698989868164 -2.3524773120880127
-0.9088378548622131 -22.553016662597656 -2.3533785343170166
0.9088525176048279 -22.552988052368164 -2.353372812271118
1.2187206745147705 -10.037109375 -1.054195523262024
2.0427098274230957 -10.005839347839355 -1.0647653341293335
2.9830615520477295 -10.298701286315918 -1.1179226636886597
9.652949333190918 -20.34315299987793 -2.3477301597595215
11.25796890258789 -19.49935531616211 -2.347599983215332
12.790497779846191 -18.530223846435547 -2.347599983215332
18.00016975402832 -13.526249885559082 -2.347599983215332
19.03023338317871 -12.0339937210083 -2.347599983215332
22.058876037597656 -9.398417472839355 -2.5
22.743648529052734 -7.592919826507568 -2.5
9.613383293151855 -2.369501829147339 -1.0323278903961182
23.667070388793945 -3.8462791442871094 -2.5
23.89982032775879 -1.9293798208236694 -2.5
-17.369829177856445 -1.4022314548492432 -2.012382745742798
-21.368539810180664 -3.472724437713623 -2.5
-21.019819259643555 -5.180927753448486 -2.5
-18.680683135986328 -9.804404258728027 -2.4362974166870117
-16.25200653076172 -12.212607383728027 -2.347599983215332
-12.857074737548828 -15.747098922729492 -2.347599983215332
-7.201767444610596 -15.177440643310547 -1.9399808645248413
-5.65591287612915 -19.52654266357422 -2.347599983215332
-0.8185546398162842 -20.312685012817383 -2.347599983215332
2.032529354095459 -9.956015586853027 -1.1734265089035034
7.208832740783691 -19.00810432434082 -2.347599983215332
11.548300743103027 -16.7305850982666 -2.347599983215332
15.2166109085083 -13.480741500854492 -2.347599983215332
16.34209442138672 -12.2802734375 -2.3606104850769043
19.916540145874023 -8.485644340515137 -2.5
20.53476333618164 -6.855507850646973 -2.5
9.55367660522461 -1.5526269674301147 -1.1177256107330322
-19.727983474731445 0.0 -2.5
-19.66400909423828 -1.5874218940734863 -2.5
-19.15471649169922 -4.721230506896973 -2.5
-18.14933967590332 -7.732724666595459 -2.5
-17.4682559967041 -9.168066024780273 -2.5
-15.20263671875 -11.42406177520752 -2.409846067428589
-12.832963943481445 -13.360536575317383 -2.347599983215332
-11.716264724731445 -14.34984302520752 -2.347599983215332
-10.52359390258789 -15.24608325958252 -2.347599983215332
-8.595170974731445 -14.887235641479492 -2.178410530090332
-5.672666072845459 -14.95760726928711 -2.0272164344787598
0.7459521293640137 -18.51034164428711 -2.347599983215332
1.2027294635772705 -9.905370712280273 -1.2644613981246948
2.0210986137390137 -9.900019645690918 -1.2804406881332397
6.569199085235596 -17.321523666381836 -2.347599983215332
9.262704849243164 -16.043426513671875 -2.347599983215332
11.716283798217773 -14.34984302520752 -2.347599983215332
14.516498565673828 -12.860487937927246 -2.4576542377471924
15.771401405334473 -11.851435661315918 -2.5
18.149335861206055 -7.732724666595459 -2.5
18.712724685668945 -6.247216701507568 -2.5
9.458261489868164 -1.5371289253234863 -1.2143081426620483
-18.116044998168945 9.765624781721272e-06 -2.5
-17.589624404907227 -4.335458755493164 -2.5
-17.183740615844727 -5.736767292022705 -2.5
-9.66373062133789 -14.000361442565918 -2.347599983215332
-7.170615196228027 -15.111699104309082 -2.3082590103149414
-5.666069030761719 -14.940224647521973 -2.2050235271453857
-4.732949256896973 -16.34004783630371 -2.347599983215332
-0.684985339641571 -16.997909545898438 -2.347599983215332
0.42259764671325684 -10.486533164978027 -1.4483067989349365
2.0105321407318115 -9.848222732543945 -1.3870773315429688
9.69900894165039 -14.05141544342041 -2.3561618328094482
11.207289695739746 -13.726435661315918 -2.445420742034912
12.539711952209473 -13.0552339553833 -2.498063564300537
8.681977272033691 -2.8984668254852295 -1.2631088495254517
9.36446762084961 -1.521875023841858 -1.3092416524887085
18.057313919067383 -1.4577343463897705 -2.5
-16.689496994018555 -1.3473632335662842 -2.5
-15.403905868530273 -6.56301736831665 -2.5
-14.825859069824219 -7.781230449676514 -2.5
-13.385668754577637 -10.058700561523438 -2.5
-9.247031211853027 -13.396659851074219 -2.4304797649383545
-7.923789024353027 -13.7244234085083 -2.3661949634552
-6.740341663360596 -14.204999923706055 -2.347599983215332
-4.374423503875732 -15.10228443145752 -2.347599983215332
-3.145009756088257 -15.405302047729492 -2.347599983215332
-1.8952001333236694 -15.608417510986328 -2.347599983215332
0.39860349893569946 -9.891044616699219 -1.4780235290527344
2.0032031536102295 -9.812334060668945 -1.4952905178070068
6.866103172302246 -14.469989776611328 -2.391392946243286
8.24112319946289 -14.27401351928711 -2.4609484672546387
9.501371383666992 -13.765107154846191 -2.4973251819610596
11.598808288574219 -12.075663566589355 -2.5
12.532885551452637 -11.103163719177246 -2.5
14.151659965515137 -8.948984146118164 -2.5
14.8258638381958 -7.781220436096191 -2.5
15.403915405273438 -6.562997817993164 -2.5
8.51308536529541 -2.8420801162719727 -1.3400460481643677
8.343667030334473 -2.0565428733825684 -1.2830700874328613
9.267313957214355 -1.5060839653015137 -1.4018480777740479
10.667543411254883 -0.8611816167831421 -1.5979448556900024
-15.561083793640137 4.882812390860636e-06 -2.5
-15.51064395904541 -1.2521679401397705 -2.5
-14.760258674621582 -4.927704811096191 -2.5
-14.315878868103027 -6.099443435668945 -2.5
-13.77865219116211 -7.231611251831055 -2.5
-11.647626876831055 -10.318915367126465 -2.5
-10.779536247253418 -11.222704887390137 -2.5
-8.839692115783691 -12.806532859802246 -2.5
-6.628847599029541 -13.970019340515137 -2.48423433303833
-4.166420936584473 -14.384208679199219 -2.405914783477783
-2.9668407440185547 -14.532577514648438 -2.3829193115234375
-1.7780126333236694 -14.643388748168945 -2.369843006134033
-0.5932031273841858 -14.720712661743164 -2.3669073581695557
0.3957275450229645 -9.819990158081055 -1.5789300203323364
2.001298666000366 -9.803027153015137 -1.607408881187439
2.8337695598602295 -9.78329086303711 -1.6363613605499268
5.504091739654541 -14.513094902038574 -2.493680715560913
7.780551433563232 -13.476298332214355 -2.5
8.839716911315918 -12.806523323059082 -2.5
9.841547966003418 -12.05370044708252 -2.5
11.647650718688965 -10.318915367126465 -2.5
13.778666496276855 -7.231591701507568 -2.5
14.31588363647461 -6.099433422088623 -2.5
10.57680606842041 -0.8538427352905273 -1.7047680616378784
-14.531054496765137 -4.882812390860636e-06 -2.5
-14.342890739440918 -2.330947160720825 -2.5
-14.108803749084473 -3.4775195121765137 -2.5
-13.78322696685791 -4.601513385772705 -2.5
-13.368261337280273 -5.695693016052246 -2.5
-12.281498908996582 -7.766366958618164 -2.5
-11.616738319396973 -8.729423522949219 -2.5
-10.876640319824219 -9.635869026184082 -2.5
-10.06600570678711 -10.479833602905273 -2.5
-9.190077781677246 -11.255829811096191 -2.5
-8.254565238952637 -11.95882797241211 -2.5
-7.265522480010986 -12.584267616271973 -2.5
-6.229335784912109 -13.12808609008789 -2.5
-4.042138576507568 -13.955117225646973 -2.499600887298584
-1.748779296875 -14.402626991271973 -2.496103286743164
1.1900146007537842 -9.800673484802246 -1.6985447406768799
2.829946279525757 -9.77010726928711 -1.7499924898147583
6.229360103607178 -13.128095626831055 -2.5
7.265542030334473 -12.584267616271973 -2.5
9.190112113952637 -11.255829811096191 -2.5
12.281503677368164 -7.766366958618164 -2.5
8.227251052856445 -2.746659994125366 -1.4922561645507812
-12.06493091583252 -6.332177639007568 -2.5
-11.516274452209473 -7.282470703125 -2.5
-10.892934799194336 -8.185526847839355 -2.5
-10.198954582214355 -9.035497665405273 -2.5
-5.84121561050415 -12.3101167678833 -2.5
-2.725478410720825 -13.350312232971191 -2.5
-0.5486474633216858 -13.614628791809082 -2.5
1.1890233755111694 -9.792470932006836 -1.8098886013031006
1.9986181259155273 -9.78988265991211 -1.8332678079605103
7.740273475646973 -11.21371078491211 -2.5
8.617494583129883 -10.554521560668945 -2.5
9.438833236694336 -9.826884269714355 -2.5
12.06494140625 -6.332167625427246 -2.5
8.152050971984863 -2.721562385559082 -1.576865792274475
8.014389038085938 -1.97537100315094 -1.5144649744033813
8.943647384643555 -1.4534863233566284 -1.6624834537506104
10.576181411743164 -0.8537988066673279 -1.9468004703521729
-12.823436737060547 0.0 -2.5
-12.657387733459473 -2.0570311546325684 -2.5
-12.450819969177246 -3.0688672065734863 -2.5
-12.163515090942383 -4.060781002044678 -2.5
-11.797304153442383 -5.026376724243164 -2.5
-11.354598999023438 -5.959364891052246 -2.5
-7.28454065322876 -10.553495407104492 -2.5
-6.411713600158691 -11.105429649353027 -2.5
-3.567690372467041 -12.317157745361328 -2.5
-2.565014600753784 -12.56429672241211 -2.5
1.1888720989227295 -9.791278839111328 -1.9228811264038086
2.817446231842041 -9.726943016052246 -1.9742668867111206
4.547260761260986 -11.99013614654541 -2.5
5.497323989868164 -11.58536148071289 -2.5
6.411728382110596 -11.105429649353027 -2.5
8.110136985778809 -9.93310546875 -2.5
11.35460376739502 -5.95934534072876 -2.5
8.13631820678711 -2.71630859375 -1.6722804307937622
10.569852828979492 -0.8532909750938416 -2.067352533340454
-12.068246841430664 -0.9742431640625 -2.5
-11.950712203979492 -1.942177653312683 -2.5
-11.755682945251465 -2.897538900375366 -2.5
-11.484414100646973 -3.834062337875366 -2.5
-10.233144760131836 -6.471054553985596 -2.5
-9.679266929626465 -7.273505687713623 -2.5
-6.053744792938232 -10.485419273376465 -2.5
-5.190390586853027 -10.938544273376465 -2.5
-4.29336404800415 -11.320722579956055 -2.5
-3.3685107231140137 -11.62948226928711 -2.5
-2.421801805496216 -11.862821578979492 -2.5
-0.48749998211860657 -12.097695350646973 -2.5
2.8182079792022705 -9.729598999023438 -2.091578960418701
4.293383598327637 -11.320722579956055 -2.5
5.190405368804932 -10.938544273376465 -2.5
6.053759574890137 -10.485419273376465 -2.5
7.65734338760376 -9.378544807434082 -2.5
8.387177467346191 -8.731972694396973 -2.5
9.679272651672363 -7.273505687713623 -2.5
10.720678329467773 -5.626640319824219 -2.5
8.127846717834473 -2.7134764194488525 -1.769319772720337
7.959389686584473 -1.9618260860443115 -1.6926672458648682
8.892597198486328 -1.4451953172683716 -1.860262155532837
-11.42733383178711 -0.9225097298622131 -2.5
-11.131376266479492 -2.74365234375 -2.5
-10.87451171875 -3.630449056625366 -2.5
-10.547114372253418 -4.493720531463623 -2.5
-9.689697265625 -6.127392292022705 -2.5
-9.165214538574219 -6.88723611831665 -2.5
-7.250669002532959 -8.880477905273438 -2.5
-6.51256799697876 -9.435107231140137 -2.5
-5.732250690460205 -9.928564071655273 -2.5
-2.2931883335113525 -11.232831954956055 -2.5
-1.381874918937683 -11.380927085876465 -2.5
1.998012661933899 -9.786884307861328 -2.178187131881714
2.818373918533325 -9.73012638092041 -2.2090063095092773
4.914751052856445 -10.357626914978027 -2.5
5.732265472412109 -9.92855453491211 -2.5
9.1652193069458 -6.887226581573486 -2.5
9.689697265625 -6.127402305603027 -2.5
10.15133285522461 -5.327822208404541 -2.5
10.547119140625 -4.493710994720459 -2.5
10.722783088684082 -0.8656298518180847 -2.345860719680786
-10.5674409866333 -2.6046483516693115 -2.5
-10.012787818908691 -4.266054630279541 -2.5
-9.198783874511719 -5.816972732543945 -2.5
-8.146562576293945 -7.217236042022705 -2.5
-7.539413928985596 -7.849365234375 -2.5
-6.182636737823486 -8.957109451293945 -2.5
-3.8593993186950684 -10.176445007324219 -2.5
-3.028027296066284 -10.453993797302246 -2.5
-2.177006721496582 -10.663740158081055 -2.5
-0.4382373094558716 -10.874882698059082 -2.5
1.188417911529541 -9.78750991821289 -2.2647125720977783
2.177016496658325 -10.663749694824219 -2.5
2.8176074028015137 -9.727519035339355 -2.3262696266174316
4.665771484375 -9.832900047302246 -2.5
5.441860198974609 -9.425565719604492 -2.5
8.700907707214355 -6.538300514221191 -2.5
9.198803901672363 -5.816972732543945 -2.5
9.637045860290527 -5.057909965515137 -2.5
10.012787818908691 -4.266054630279541 -2.5
-10.322768211364746 -0.8333495855331421 -2.5
-10.055415153503418 -2.478447198867798 -2.5
-9.527636528015137 -4.05935525894165 -2.5
-7.751840591430664 -6.867528915405273 -2.5
-7.17410135269165 -7.469033241271973 -2.5
-6.549824237823486 -8.022089958190918 -2.5
-4.439682483673096 -9.3564453125 -2.5
-3.6724071502685547 -9.683359146118164 -2.5
-1.2483105659484863 -10.28084945678711 -2.5
0.39198729395866394 -9.726855278015137 -2.349945068359375
2.071542978286743 -10.147069931030273 -2.5
2.816845655441284 -9.724853515625 -2.4440524578094482
3.67242169380188 -9.683368682861328 -2.5
8.279315948486328 -6.221503734588623 -2.5
8.75308609008789 -5.535136699676514 -2.5
8.895639419555664 -1.4456787109375 -2.1755595207214355
-9.875297546386719 4.882812390860636e-06 -2.5
-9.843271255493164 -0.7946240305900574 -2.5
-9.747416496276855 -1.5841015577316284 -2.5
-9.58834457397461 -2.3633203506469727 -2.5
-9.085067749023438 -3.870790958404541 -2.5
-8.744145393371582 -4.589286804199219 -2.5
-7.894731044769287 -5.932519435882568 -2.5
-7.391777038574219 -6.548534870147705 -2.5
-6.840859413146973 -7.122089862823486 -2.5
-6.245581150054932 -7.649462699890137 -2.5
-5.609804630279541 -8.127226829528809 -2.5
-3.5018162727355957 -9.233573913574219 -2.5
-2.7474706172943115 -9.4854097366333 -2.5
-0.39762693643569946 -9.867294311523438 -2.5
0.3918749988079071 -9.724287033081055 -2.4637656211853027
2.747495174407959 -9.4854097366333 -2.5
4.233476638793945 -8.921854972839355 -2.5
4.937661170959473 -8.552275657653809 -2.5
6.245595455169678 -7.649462699890137 -2.5
6.840864181518555 -7.122109413146973 -2.5
7.391777038574219 -6.548544883728027 -2.5
8.346508979797363 -5.278017520904541 -2.5
9.085078239440918 -3.870800733566284 -2.5
7.933002948760986 -1.9553124904632568 -2.068397045135498
9.843290328979492 -0.794628918170929 -2.5
-9.434598922729492 0.0 -2.5
-9.312417030334473 -1.5134081840515137 -2.5
-8.94906234741211 -2.9876365661621094 -2.5
-8.679628372192383 -3.69805645942688 -2.5
-8.353920936584473 -4.384482383728027 -2.5
-7.542421817779541 -5.667773246765137 -2.5
-7.061903953552246 -6.256308555603027 -2.5
-6.535575866699219 -6.804257869720459 -2.5
-5.359453201293945 -7.76452112197876 -2.5
-4.717299461364746 -8.170605659484863 -2.5
-2.6248631477355957 -9.062108993530273 -2.5
-1.1371972560882568 -9.36581039428711 -2.5
-0.3798779249191284 -9.426953315734863 -2.5
0.37989744544029236 -9.426942825317383 -2.5
1.1372216939926147 -9.365819931030273 -2.5
1.8871679306030273 -9.243935585021973 -2.5
2.6248779296875 -9.06209945678711 -2.5
4.717304706573486 -8.170605659484863 -2.5
5.359467506408691 -7.76452112197876 -2.5
5.966879844665527 -7.308095455169678 -2.5
6.535581111907959 -6.804267406463623 -2.5
8.353935241699219 -4.384482383728027 -2.5
8.949067115783691 -2.9876365661621094 -2.5
7.957860946655273 -1.9614452123641968 -2.171797513961792
9.312426567077637 -1.5134179592132568 -2.5
-9.029287338256836 0.0 -2.5
-8.912348747253418 -1.4483838081359863 -2.5
-8.306747436523438 -3.539179563522339 -2.5
-7.631444931030273 -4.825839519500732 -2.5
-7.218388557434082 -5.424267292022705 -2.5
-6.758510589599609 -5.987519264221191 -2.5
-6.254794597625732 -6.511943340301514 -2.5
-5.710527420043945 -6.994121074676514 -2.5
-4.514624118804932 -7.819589614868164 -2.5
-2.512099504470825 -8.672792434692383 -2.5
0.3635839819908142 -9.021952629089355 -2.5
1.8060985803604126 -8.846796989440918 -2.5
2.5121142864227295 -8.672782897949219 -2.5
3.2018308639526367 -8.44252872467041 -2.5
5.129228591918945 -7.430947303771973 -2.5
5.710527420043945 -6.994121074676514 -2.5
6.254809379577637 -6.511943340301514 -2.5
7.218388557434082 -5.424277305603027 -2.5
8.306757926940918 -3.539189338684082 -2.5
8.564604759216309 -2.8592870235443115 -2.5
8.912358283996582 -1.44839346408844 -2.5
-8.627084732055664 -0.6964355111122131 -2.5
-8.543070793151855 -1.3884081840515137 -2.5
-8.40365219116211 -2.0713183879852295 -2.5
-8.209731101989746 -2.7408201694488525 -2.5
-6.478476524353027 -5.739433288574219 -2.5
-4.916694164276123 -7.123066425323486 -2.5
-4.327563285827637 -7.495585918426514 -2.5
-1.043251872062683 -8.592050552368164 -2.5
-0.34849119186401367 -8.648144721984863 -2.5
1.7312548160552979 -8.480243682861328 -2.5
2.408027172088623 -8.313437461853027 -2.5
3.069169759750366 -8.092714309692383 -2.5
3.710405111312866 -7.819501876831055 -2.5
4.916694164276123 -7.123066425323486 -2.5
5.995639324188232 -6.242128849029541 -2.5
6.478486061096191 -5.739433288574219 -2.5
7.315253734588623 -4.625888347625732 -2.5
7.663769245147705 -4.022265434265137 -2.5
-8.308676719665527 0.0 -2.5
-8.281733512878418 -0.6685742139816284 -2.5
-7.881078720092773 -2.631093740463257 -2.5
-7.643808364868164 -3.256728410720825 -2.5
-7.35696268081665 -3.8612303733825684 -2.5
-7.022417068481445 -4.44070291519165 -2.5
-6.642304420471191 -4.991376876831055 -2.5
-6.219125747680664 -5.509687423706055 -2.5
-5.755629539489746 -5.992236137390137 -2.5
-5.254775047302246 -6.435946941375732 -2.5
-4.154335975646973 -7.195527076721191 -2.5
-3.5618553161621094 -7.506484031677246 -2.5
-2.9462890625 -7.768759727478027 -2.5
-1.0014843940734863 -8.248095512390137 -2.5
1.001503825187683 -8.2481050491333 -2.5
1.661953091621399 -8.14077091217041 -2.5
2.9463086128234863 -7.768749713897705 -2.5
3.5618748664855957 -7.506474494934082 -2.5
4.154345512390137 -7.195537090301514 -2.5
4.719872951507568 -6.837910175323486 -2.5
5.755624771118164 -5.992246150970459 -2.5
6.219150066375732 -5.509677410125732 -2.5
7.022411823272705 -4.440712928771973 -2.5
8.20108413696289 -1.3328075408935547 -2.5
8.281743049621582 -0.6685742139816284 -2.5
-7.98681640625 4.882812390860636e-06 -2.5
-7.960922718048096 -0.6426708698272705 -2.5
-7.883388519287109 -1.2811766862869263 -2.5
-7.575780868530273 -2.529169797897339 -2.5
-7.071972370147705 -3.711669921875 -2.5
-6.75036096572876 -4.268681526184082 -2.5
-5.978212833404541 -5.296240329742432 -2.5
-5.532656192779541 -5.760107517242432 -2.5
-4.537026405334473 -6.573017597198486 -2.5
-3.4238719940185547 -7.21569299697876 -2.5
-2.832158088684082 -7.467812538146973 -2.5
-2.2220654487609863 -7.671483993530273 -2.5
-0.3215869069099426 -7.98034143447876 -2.5
0.32160642743110657 -7.980331897735596 -2.5
2.2220799922943115 -7.671483993530273 -2.5
2.832163095474243 -7.46780252456665 -2.5
3.423891544342041 -7.21569299697876 -2.5
4.537040710449219 -6.573017597198486 -2.5
5.051225662231445 -6.186630725860596 -2.5
5.532660961151123 -5.760117053985596 -2.5
5.978222370147705 -5.296230316162109 -2.5
6.750380516052246 -4.268681526184082 -2.5
7.347704887390137 -3.130566358566284 -2.5
7.883393287658691 -1.2811717987060547 -2.5
7.960922718048096 -0.6426708698272705 -2.5
-7.686957836151123 0.0 -2.5
-7.662040710449219 -0.6185449361801147 -2.5
-7.587421894073486 -1.2330760955810547 -2.5
-7.291362285614014 -2.434218645095825 -2.5
-6.806469440460205 -3.5723142623901367 -2.5
-6.4969482421875 -4.10842752456665 -2.5
-5.324955940246582 -5.543857097625732 -2.5
-3.295341730117798 -6.944794654846191 -2.5
-2.725830078125 -7.187441349029541 -2.5
-2.1386425495147705 -7.383466720581055 -2.5
-1.5375829935073853 -7.531620979309082 -2.5
-0.3095166087150574 -7.680732250213623 -2.5
1.5376025438308716 -7.531620979309082 -2.5
2.725844621658325 -7.187441349029541 -2.5
3.8434910774230957 -6.65709924697876 -2.5
5.75377893447876 -5.097392559051514 -2.5
6.496953010559082 -4.10842752456665 -2.5
6.806479454040527 -3.5723142623901367 -2.5
7.29137659072876 -2.434218645095825 -2.5
-7.025688171386719 -2.345527410507202 -2.5
-6.260214805603027 -3.958730459213257 -2.5
-5.921367168426514 -4.449628829956055 -2.5
-5.544120788574219 -4.911660194396973 -2.5
-3.703437328338623 -6.414531230926514 -2.5
-2.6265039443969727 -6.925546646118164 -2.5
-2.0607128143310547 -7.114443302154541 -2.5
-0.8927831649780273 -7.352870941162109 -2.5
1.4815771579742432 -7.257177352905273 -2.5
3.1752734184265137 -6.691747665405273 -2.5
3.7034521102905273 -6.414540767669678 -2.5
4.6844482421875 -5.737411975860596 -2.5
5.130922794342041 -5.341855525970459 -2.5
5.921371936798096 -4.449628829956055 -2.5
6.260219573974609 -3.958740234375 -2.5
6.55846643447876 -3.442148447036743 -2.5
6.814174652099609 -2.903251886367798 -2.5
7.382856369018555 -0.5960107445716858 -2.5
-6.936977386474609 -1.709814429283142 -2.5
-6.776899337768555 -2.2624707221984863 -2.5
-5.347802639007568 -4.737753868103027 -2.5
-4.949228286743164 -5.152705192565918 -2.5
-4.518564224243164 -5.534238338470459 -2.5
-3.5722899436950684 -6.187402248382568 -2.5
-3.0628318786621094 -6.454784870147705 -2.5
-2.5334911346435547 -6.680302619934082 -2.5
-1.9877440929412842 -6.862499713897705 -2.5
-0.8611816167831421 -7.092509746551514 -2.5
0.2876953184604645 -7.13878870010376 -2.5
0.8612011671066284 -7.092499732971191 -2.5
3.0628368854522705 -6.454784870147705 -2.5
3.5723047256469727 -6.187392234802246 -2.5
4.05859375 -5.8798828125 -2.5
4.518564224243164 -5.534238338470459 -2.5
5.711694240570068 -4.292060375213623 -2.5
6.572880744934082 -2.8004393577575684 -2.5
6.936986923217773 -1.7098193168640137 -2.5
7.121430397033691 -0.574902355670929 -2.5
-6.898412704467773 4.882812390860636e-06 -2.5
-6.876039981842041 -0.5550927519798279 -2.5
-6.809072017669678 -1.1065771579742432 -2.5
-6.697958946228027 -1.6508984565734863 -2.5
-6.543393611907959 -2.184511661529541 -2.5
-6.346396446228027 -2.7039451599121094 -2.5
-5.830458641052246 -3.686962842941284 -2.5
-5.514882564544678 -4.144169807434082 -2.5
-5.163535118103027 -4.57449197769165 -2.5
-4.778700828552246 -4.975156307220459 -2.5
-3.9187450408935547 -5.67727518081665 -2.5
-2.4462010860443115 -6.450126647949219 -2.5
-1.9192577600479126 -6.626054763793945 -2.5
-0.8314989805221558 -6.848114967346191 -2.5
-0.2777636647224426 -6.892822265625 -2.5
0.2777783274650574 -6.892822265625 -2.5
1.3798730373382568 -6.759003639221191 -2.5
1.9192675352096558 -6.626035213470459 -2.5
3.918754816055298 -5.677285194396973 -2.5
4.362875938415527 -5.343544960021973 -2.5
4.778706073760986 -4.975156307220459 -2.5
5.163539886474609 -4.57449197769165 -2.5
6.543398380279541 -2.184511661529541 -2.5
6.697963714599609 -1.65090811252594 -2.5
6.876039981842041 -0.5550878643989563 -2.5
-6.645219802856445 -0.5364599227905273 -2.5
-6.473119735717773 -1.595483422279358 -2.5
-6.323735237121582 -2.1111717224121094 -2.5
-5.903188228607178 -3.0982420444488525 -2.5
-5.329760551452637 -4.005058288574219 -2.5
-4.990204811096191 -4.420937538146973 -2.5
-4.618281364440918 -4.80813455581665 -2.5
-3.7871971130371094 -5.486708641052246 -2.5
-1.854833960533142 -6.403632640838623 -2.5
-0.8035888671875 -6.618232250213623 -2.5
0.2684570252895355 -6.661435604095459 -2.5
1.8548437356948853 -6.403623104095459 -2.5
3.3334226608276367 -5.773652076721191 -2.5
4.216420650482178 -5.164169788360596 -2.5
4.6182861328125 -4.808154106140137 -2.5
5.329765319824219 -4.005048751831055 -2.5
6.133359432220459 -2.6131834983825684 -2.5
6.323750019073486 -2.1111814975738525 -2.5
6.580522537231445 -1.0694433450698853 -2.5
6.645234107971191 -0.5364599227905273 -2.5
-6.261167049407959 -1.5432226657867432 -2.5
-5.932538986206055 -2.5276269912719727 -2.5
-5.155253887176514 -3.8739354610443115 -2.5
-3.2242870330810547 -5.584619045257568 -2.5
-2.7644481658935547 -5.82595682144165 -2.5
-2.286689519882202 -6.029511451721191 -2.5
-1.2898778915405273 -6.318242073059082 -2.5
0.2596728503704071 -6.443339824676514 -2.5
1.7941161394119263 -6.19396448135376 -2.5
2.764457941055298 -5.82595682144165 -2.5
3.663212776184082 -5.307070255279541 -2.5
4.467074871063232 -4.650732517242432 -2.5
5.709931373596191 -2.9968066215515137 -2.5
6.116708755493164 -2.042060613632202 -2.5
6.261186599731445 -1.543251872062683 -2.5
-6.222177505493164 -0.5023046731948853 -2.5
-6.06102991104126 -1.4939111471176147 -2.5
-5.527387619018555 -2.901005744934082 -2.5
-4.672519207000732 -4.139492034912109 -2.5
-4.324267387390137 -4.502050876617432 -2.5
-3.947988271713257 -4.835410118103027 -2.5
-3.121206045150757 -5.406103610992432 -2.5
1.7367675304412842 -5.995956897735596 -2.5
2.676088809967041 -5.639726638793945 -2.5
3.121220588684082 -5.406103610992432 -2.5
4.990458965301514 -3.750077962875366 -2.5
5.276034832000732 -3.336367130279541 -2.5
5.527397155761719 -2.901005744934082 -2.5
5.742905139923096 -2.446826219558716 -2.5
6.06103515625 -1.4939111471176147 -2.5
6.161591529846191 -1.0013623237609863 -2.5
-6.047377586364746 -4.882812390860636e-06 -2.5
-5.969062328338623 -0.9700683355331421 -2.5
-5.871650218963623 -1.447241187095642 -2.5
-5.563461780548096 -2.3703808784484863 -2.5
-3.435297727584839 -4.976894378662109 -2.5
-3.023686408996582 -5.237177848815918 -2.5
-2.1444334983825684 -5.654394626617432 -2.5
-1.209633708000183 -5.92516565322876 -2.5
-0.7289355397224426 -6.003281116485596 -2.5
-0.2434960901737213 -6.042470455169678 -2.5
0.24350585043430328 -6.04248046875 -2.5
1.6824902296066284 -5.808613300323486 -2.5
2.592460870742798 -5.463505744934082 -2.5
3.023691415786743 -5.237187385559082 -2.5
3.435312509536743 -4.976894378662109 -2.5
3.82464337348938 -4.684326171875 -2.5
4.189165115356445 -4.361396312713623 -2.5
4.834536075592041 -3.6329197883605957 -2.5
5.969072341918945 -0.9700683355331421 -2.5
6.027763366699219 -0.4866113066673279 -2.5
-5.862524509429932 0.0 -2.5
-5.843515396118164 -0.4717431664466858 -2.5
-5.786596775054932 -0.9404101371765137 -2.5
-5.560810565948486 -1.8564647436141968 -2.5
-5.393388748168945 -2.297919988632202 -2.5
-4.954941272735596 -3.1333203315734863 -2.5
-3.3302831649780273 -4.824765682220459 -2.5
-2.9312596321105957 -5.077089786529541 -2.5
-1.6310595273971558 -5.631054401397705 -2.5
-0.7066454887390137 -5.819775104522705 -2.5
-0.2360546886920929 -5.857773303985596 -2.5
1.631069302558899 -5.631054401397705 -2.5
2.931264638900757 -5.077089786529541 -2.5
3.3303027153015137 -4.824755668640137 -2.5
3.7077293395996094 -4.541142463684082 -2.5
4.686752796173096 -3.5218749046325684 -2.5
5.191010475158691 -2.7244529724121094 -2.5
5.560824871063232 -1.85647451877594 -2.5
5.69216775894165 -1.4030077457427979 -2.5
5.786611080169678 -0.9404247999191284 -2.5
5.843515396118164 -0.4717382788658142 -2.5
-5.6685791015625 -0.4576123058795929 -2.5
-5.613379001617432 -0.9122704863548279 -2.5
-5.521762371063232 -1.361000895500183 -2.5
-5.394355297088623 -1.8009130954742432 -2.5
-5.035610198974609 -2.642900228500366 -2.5
-4.806611061096191 -3.0395214557647705 -2.5
-4.546450138092041 -3.416445255279541 -2.5
-3.230595588684082 -4.680331707000732 -2.5
-2.0166406631469727 -5.317470550537109 -2.5
0.6855077743530273 -5.645566463470459 -2.5
2.016655206680298 -5.317461013793945 -2.5
2.43798828125 -5.137948989868164 -2.5
3.59673810005188 -4.405204772949219 -2.5
4.256801605224609 -3.7712011337280273 -2.5
4.546459674835205 -3.4164257049560547 -2.5
5.231947898864746 -2.229130744934082 -2.5
5.394355297088623 -1.8009033203125 -2.5
5.521772384643555 -1.361000895500183 -2.5
-5.448671817779541 -0.885498046875 -2.5
-4.887851238250732 -2.5653514862060547 -2.5
-4.665580749511719 -2.9503417015075684 -2.5
-4.413051605224609 -3.3161914348602295 -2.5
-4.131889343261719 -3.660537004470825 -2.5
-3.8239402770996094 -3.981152296066284 -2.5
-3.4911863803863525 -4.275957107543945 -2.5
-3.135805606842041 -4.543007850646973 -2.5
-2.760077953338623 -4.780595779418945 -2.5
-2.366445302963257 -4.987196922302246 -2.5
-1.9574706554412842 -5.161445140838623 -2.5
-1.1041747331619263 -5.408613204956055 -2.5
-0.6653759479522705 -5.479911804199219 -2.5
0.6653759479522705 -5.479911804199219 -2.5
1.1041796207427979 -5.408603191375732 -2.5
1.5358153581619263 -5.302206993103027 -2.5
2.366459846496582 -4.987187385559082 -2.5
3.135815382003784 -4.543007850646973 -2.5
3.8239500522613525 -3.981152296066284 -2.5
4.131904125213623 -3.6605565547943115 -2.5
4.887866020202637 -2.5653417110443115 -2.5
5.359760761260986 -1.3210644721984863 -2.5
5.448681354522705 -0.8855078220367432 -2.5
5.502275466918945 -0.4441894292831421 -2.5
-5.361274242401123 0.0 -2.5
-5.343876838684082 -0.4314013719558716 -2.5
-5.291840553283691 -0.8600097298622131 -2.5
-5.08535623550415 -1.6977441310882568 -2.5
-4.747162818908691 -2.491513729095459 -2.5
-4.531283855438232 -2.865410089492798 -2.5
-3.3907127380371094 -4.15286111831665 -2.5
-2.298330068588257 -4.843642234802246 -2.5
-1.9011279344558716 -5.012880802154541 -2.5
-1.0723925828933716 -5.2529296875 -2.5
-0.6462255716323853 -5.322177410125732 -2.5
1.9011377096176147 -5.012880802154541 -2.5
2.298344612121582 -4.843642234802246 -2.5
3.0455615520477295 -4.412236213684082 -2.5
3.3907225131988525 -4.152871131896973 -2.5
3.713881731033325 -3.866572141647339 -2.5
5.205483436584473 -1.2830517292022705 -2.5
