ply
format ascii 1.0
element vertex 883
property float x
property float y
property float z
end_header
17.565893173217773 15.562040328979492 3.8369908332824707
15.1968994140625 15.821674346923828 3.58685040473938
15.50228500366211 22.45893096923828 4.461862087249756
9.197455406188965 15.930459022521973 3.0075714588165283
1.9650781154632568 16.183866500854492 2.6655004024505615
-0.6418114900588989 15.926459312438965 2.6060924530029297
-1.8925830125808716 15.586752891540527 2.567155122756958
-3.038691282272339 14.884462356567383 2.4838104248046875
-14.794499397277832 21.433490753173828 4.2581467628479
-12.61205768585205 15.44698715209961 3.260479688644409
-14.292277336120605 14.87984848022461 3.3733508586883545
-17.515419006347656 15.517313957214355 3.8259642124176025
-27.96215057373047 6.892050743103027 4.708590030670166
25.897933959960938 13.59228515625 4.449889659881592
23.28748893737793 14.7261323928833 4.191983699798584
17.646562576293945 15.633505821228027 3.58685040473938
15.303793907165527 15.932953834533691 3.36116623878479
13.00808048248291 15.932016372680664 3.129258871078491
10.996508598327637 15.931196212768555 2.945155620574951
9.197455406188965 15.930459022521973 2.7986536026000977
0.6521582007408142 16.183340072631836 2.464174747467041
-0.9492871165275574 23.55644416809082 3.58685040473938
-1.8925830125808716 15.586752891540527 2.3888282775878906
-3.038691282272339 14.884462356567383 2.3112761974334717
-9.01934814453125 23.782081604003906 3.869741201400757
-7.24319314956665 15.264716148376465 2.570605754852295
-3.5323779582977295 6.118266582489014 1.0748525857925415
-14.794486999511719 21.433490753173828 3.9623546600341797
-12.652318954467773 15.49630355834961 3.043677806854248
-13.876510620117188 14.446991920471191 3.04769229888916
-19.798498153686523 14.877607345581055 3.7679052352905273
17.6962890625 15.677562713623047 3.329348564147949
10.996513366699219 15.931200981140137 2.726038694381714
6.0411376953125 15.929179191589355 2.3991034030914307
-3.038691282272339 14.884462356567383 2.1393144130706787
-9.34435749053955 24.63908576965332 3.710909366607666
-7.243190765380859 15.264716148376465 2.3793563842773438
-3.5330564975738525 6.119443416595459 0.9950762987136841
-13.877768516540527 14.448295593261719 2.821201801300049
-18.154680252075195 16.08365249633789 3.41558837890625
-24.08372688293457 15.229647636413574 4.0127716064453125
-27.94093132019043 6.886816024780273 4.052485466003418
26.037513732910156 13.665546417236328 3.80920147895813
17.6962890625 15.677562713623047 3.062570810317993
13.008075714111328 15.932021141052246 2.664353609085083
10.996513366699219 15.931200981140137 2.5076019763946533
9.197455406188965 15.930459022521973 2.382863759994507
5.900102615356445 15.557299613952637 2.1553432941436768
1.8887988328933716 15.5556640625 2.029869318008423
-1.8886229991912842 15.554130554199219 2.0296695232391357
-3.5337352752685547 6.120615005493164 0.9155160188674927
-13.874897003173828 14.445307731628418 2.594602108001709
-24.159868240356445 15.277792930603027 3.7028961181640625
17.6962890625 15.677562713623047 2.7965588569641113
10.996508598327637 15.931200981140137 2.2897937297821045
8.982733726501465 15.558554649353027 2.1250925064086914
7.382304668426514 15.557900428771973 2.036975145339966
5.900102615356445 15.557294845581055 1.9681316614151
4.506064414978027 15.55672836303711 1.9158077239990234
1.8887988328933716 15.5556640625 1.853556513786316
-0.6268310546875 15.554637908935547 1.8414148092269897
-1.8886181116104126 15.554125785827637 1.8533740043640137
-3.038691282272339 14.884462356567383 1.7969671487808228
-3.5344090461730957 6.121782302856445 0.8361544609069824
-13.869853019714355 14.4400634765625 2.368377685546875
-24.22959327697754 15.321874618530273 3.3910253047943115
4.506064414978027 15.55672836303711 1.734047770500183
0.6268457174301147 15.555146217346191 1.6667672395706177
-3.038691282272339 14.884462356567383 1.626476764678955
-7.196938514709473 15.167236328125 1.7974249124526978
-14.794499397277832 21.433490753173828 2.7883684635162354
-12.370851516723633 15.151561737060547 2.094235420227051
-27.909400939941406 6.879042625427246 3.077545166015625
14.946513175964355 15.560980796813965 2.0685222148895264
12.704394340515137 15.560068130493164 1.9258025884628296
8.982733726501465 15.558554649353027 1.7223412990570068
7.382304668426514 15.557900428771973 1.6509246826171875
5.900107383728027 15.557294845581055 1.5951284170150757
3.1758251190185547 15.556185722351074 1.5221258401870728
-8.59122085571289 22.653209686279297 2.322690486907959
-7.196667194366455 15.166665077209473 1.6094118356704712
-14.794499397277832 21.433490753173828 2.4967970848083496
-13.87076187133789 14.44100570678711 1.9196468591690063
-24.330934524536133 15.385961532592773 2.75984787940979
-27.89896011352539 6.876474380493164 2.7546722888946533
17.565898895263672 15.562040328979492 1.9876683950424194
14.946503639221191 15.560980796813965 1.8274730443954468
12.704394340515137 15.560072898864746 1.7013849020004272
8.982733726501465 15.558554649353027 1.5216336250305176
3.1758251190185547 15.556185722351074 1.344749093055725
1.8888037204742432 15.5556640625 1.3272051811218262
-0.6268261671066284 15.554637908935547 1.3185110092163086
-7.196396350860596 15.166098594665527 1.4218120574951172
-3.5364255905151367 6.12527322769165 0.5990551710128784
-14.794501304626465 21.433490753173828 2.2058467864990234
-12.463090896606445 15.264535903930664 1.6690611839294434
-18.103805541992188 16.038578033447266 2.048535108566284
-19.79849624633789 14.877607345581055 2.0975563526153564
-27.888545989990234 6.873906135559082 2.4327244758605957
14.946508407592773 15.560980796813965 1.586875557899475
12.704394340515137 15.560068130493164 1.4773876667022705
8.982733726501465 15.558554649353027 1.3213015794754028
7.382304668426514 15.557905197143555 1.2665135860443115
5.900102615356445 15.557294845581055 1.2237097024917603
4.506064414978027 15.55672836303711 1.191176414489746
3.1758251190185547 15.556185722351074 1.1677054166793823
1.8888037204742432 15.5556640625 1.1524709463119507
0.6268457174301147 15.555150985717773 1.1449590921401978
-0.6268310546875 15.554637908935547 1.1449215412139893
-3.038691282272339 14.884462356567383 1.117281198501587
-8.722006797790527 22.99805450439453 1.8089815378189087
-7.196123123168945 15.16552734375 1.2345763444900513
-3.5370945930480957 6.126435279846191 0.5202844142913818
-14.79448413848877 21.433490753173828 1.9154406785964966
-13.88084888458252 14.451508522033691 1.4737359285354614
-18.183805465698242 16.10945701599121 1.786694884300232
-27.878164291381836 6.871347427368164 2.111680746078491
21.402212142944336 16.08272361755371 1.6709100008010864
17.565902709960938 15.562040328979492 1.4647189378738403
14.946513175964355 15.560980796813965 1.3466699123382568
12.704389572143555 15.560068130493164 1.2537554502487183
8.982733726501465 15.558554649353027 1.1212958097457886
7.382304668426514 15.557900428771973 1.0748013257980347
4.506064414978027 15.55672836303711 1.010867953300476
3.1758251190185547 15.556191444396973 0.9909490942955017
0.6268457174301147 15.555146217346191 0.9716464281082153
-0.6268310546875 15.554643630981445 0.97161465883255
-3.038691282272339 14.884462356567383 0.9481613039970398
-7.19585657119751 15.164960861206055 1.0476586818695068
-14.79448413848877 21.433490753173828 1.6254891157150269
-12.463876724243164 15.265482902526855 1.2300243377685547
-18.184234619140625 16.109832763671875 1.5162780284881592
-23.95256996154785 15.14669418334961 1.7688066959381104
23.287485122680664 14.726127624511719 1.4133727550506592
21.402212142944336 16.08272361755371 1.3732818365097046
14.946508407592773 15.560980796813965 1.1067965030670166
10.739785194396973 15.559267044067383 0.9698089361190796
7.382299423217773 15.557889938354492 0.8833535313606262
4.506059646606445 15.556718826293945 0.8308081030845642
1.8887988328933716 15.55565357208252 0.8038122653961182
0.6268457174301147 15.55514144897461 0.7985729575157166
-1.8886229991912842 15.554116249084473 0.8037328720092773
-7.195588111877441 15.16439437866211 0.8610143661499023
-14.794499397277832 21.433490753173828 1.3359500169754028
-19.79849624633789 14.877607345581055 1.270367980003357
-23.950998306274414 15.145708084106445 1.453646183013916
-27.85746955871582 6.866244792938232 1.4717528820037842
25.89791488647461 13.59227466583252 1.1755343675613403
21.402206420898438 16.08272933959961 1.075991153717041
14.946494102478027 15.5609712600708 0.8671948313713074
12.70438003540039 15.560053825378418 0.8073617219924927
8.982728958129883 15.558544158935547 0.722064197063446
1.8887988328933716 15.55565357208252 0.6298016309738159
-0.6268261671066284 15.554628372192383 0.6256759762763977
-7.195317268371582 15.163827896118164 0.674595296382904
-3.5391016006469727 6.12991189956665 0.284485787153244
-14.794504165649414 21.433490753173828 1.0467517375946045
-12.464716911315918 15.266523361206055 0.7921350002288818
-14.292280197143555 14.87984848022461 0.8292534947395325
-19.798498153686523 14.877607345581055 0.9953634142875671
-27.847150802612305 6.863696098327637 1.1526747941970825
25.89790916442871 13.59227466583252 0.8510308861732483
23.287479400634766 14.7261323928833 0.8017071485519409
12.704374313354492 15.560053825378418 0.5844912528991699
10.739774703979492 15.559257507324219 0.5501040816307068
8.9827241897583 15.558544158935547 0.522739827632904
7.382294654846191 15.557889938354492 0.5010644197463989
3.1758203506469727 15.55617618560791 0.46197324991226196
1.8887939453125 15.55565357208252 0.45594632625579834
-0.6268310546875 15.554633140563965 0.4529595971107483
-3.038691282272339 14.884462356567383 0.44202879071235657
-3.5397703647613525 6.131064414978027 0.20599365234375
-14.794499397277832 21.433490753173828 0.7577905058860779
-12.465136528015137 15.267040252685547 0.5734909176826477
-18.18552017211914 16.110971450805664 0.706927478313446
-19.798492431640625 14.877607345581055 0.7206063866615295
-23.9478759765625 15.143730163574219 0.824442446231842
-27.836849212646484 6.861166954040527 0.8341891169548035
21.402212142944336 16.08272361755371 0.4821322560310364
7.382294654846191 15.557894706726074 0.3101281523704529
5.900097370147705 15.557284355163574 0.29964691400527954
4.506059646606445 15.556718826293945 0.29168060421943665
0.6268457174301147 15.555136680603027 0.28036314249038696
-0.6268310546875 15.554628372192383 0.28035399317741394
-3.038691282272339 14.884462356567383 0.27358824014663696
-8.718069076538086 22.987680435180664 0.4427688419818878
-7.194785118103027 15.162699699401855 0.30225157737731934
-3.5404345989227295 6.132221698760986 0.12752166390419006
-14.79448413848877 21.433490753173828 0.46902647614479065
-12.465556144714355 15.267548561096191 0.35497528314590454
-14.292280197143555 14.87984848022461 0.3715652525424957
-19.79849624633789 14.877607345581055 0.4460250735282898
-23.946317672729492 15.142744064331055 0.5102572441101074
24.91212272644043 15.753496170043945 0.20414306223392487
14.946503639221191 15.5609712600708 0.14943663775920868
10.739785194396973 15.559257507324219 0.1309405416250229
8.982728958129883 15.558544158935547 0.1244271844625473
4.506064414978027 15.556718826293945 0.11217346042394638
1.8887988328933716 15.55565357208252 0.10852844268083572
0.6268457174301147 15.555136680603027 0.1078210398554802
-1.8886181116104126 15.554116249084473 0.10851806402206421
-8.71728229522705 22.98560333251953 0.17026519775390625
-7.19451379776001 15.16213321685791 0.11623534560203552
-3.5411033630371094 6.133378982543945 0.04905197024345398
-14.79448413848877 21.433490753173828 0.18035888671875
-14.292282104492188 14.87984848022461 0.14289824664592743
-18.1863956451416 16.11174774169922 0.16827788949012756
-23.944759368896484 15.141762733459473 0.1962139904499054
-27.816287994384766 6.856093406677246 0.19837340712547302
12.798686027526855 15.675565719604492 -0.08409331738948822
3.2770800590515137 16.052186965942383 -0.06808333843946457
-1.8925830125808716 15.586762428283691 -0.0652490183711052
-7.194247722625732 15.161566734313965 -0.0697384625673294
-3.5417723655700684 6.134535789489746 -0.029436340555548668
-12.46639347076416 15.26857852935791 -0.08191131055355072
-14.292280197143555 14.87984848022461 -0.08571929484605789
-23.943201065063477 15.140780448913574 -0.11773284524679184
-27.80602264404297 6.853569030761719 -0.11904281377792358
15.5501070022583 16.18939971923828 -0.342061311006546
0.830493152141571 20.60871696472168 -0.3142938017845154
-8.715704917907715 22.981441497802734 -0.3745425343513489
-7.193979263305664 15.161005973815918 -0.2557147145271301
-14.79448413848877 21.433490753173828 -0.39685165882110596
-19.79849624633789 14.877607345581055 -0.3774055540561676
-23.9416446685791 15.13979434967041 -0.431640625
25.89791488647461 13.59227466583252 -0.7699280977249146
15.303783416748047 15.932944297790527 -0.5815626382827759
3.2517383098602295 15.928031921386719 -0.4279441833496094
0.6418359279632568 15.92696762084961 -0.4196096658706665
-0.6418114900588989 15.9264497756958 -0.419594407081604
-1.8925830125808716 15.58675765991211 -0.41332700848579407
-7.193713188171387 15.160439491271973 -0.44173598289489746
-14.794482231140137 21.433490753173828 -0.6855581402778625
-12.467233657836914 15.269609451293945 -0.5189300179481506
-18.18779182434082 16.112993240356445 -0.6396499276161194
-19.79849624633789 14.877607345581055 -0.6519361734390259
25.89791488647461 13.59227466583252 -1.094395399093628
15.5501070022583 16.18939971923828 -0.8399354219436646
3.2770800590515137 16.052186965942383 -0.6130213737487793
0.6521582007408142 16.183330535888672 -0.606028139591217
-0.6521435379981995 16.182798385620117 -0.6060085892677307
-3.038691282272339 14.884462356567383 -0.5684240460395813
-7.193442344665527 15.159873008728027 -0.6278582811355591
-3.543774366378784 6.138002872467041 -0.26519638299942017
-14.794499397277832 21.433490753173828 -0.974480390548706
-12.4676513671875 15.270121574401855 -0.737621009349823
-14.292277336120605 14.87984848022461 -0.7719952464103699
-18.18825912475586 16.1133975982666 -0.9092135429382324
-23.93852996826172 15.137822151184082 -1.059786081314087
-27.77525520324707 6.845981121063232 -1.0703784227371216
25.89790916442871 13.59227466583252 -1.419095754623413
23.28748893737793 14.7261323928833 -1.336850881576538
15.303778648376465 15.932944297790527 -1.0718982219696045
2.4660398960113525 20.309633255004883 -0.9926480054855347
0.6418310403823853 15.92696762084961 -0.7733935117721558
-3.038691282272339 14.884462356567383 -0.7370797395706177
-7.19317102432251 15.159306526184082 -0.8141201734542847
-23.936979293823242 15.136836051940918 -1.3741320371627808
-27.764999389648438 6.843451976776123 -1.3874566555023193
25.89791488647461 13.59227466583252 -1.7441622018814087
21.402212142944336 16.082719802856445 -1.5964715480804443
12.798690795898438 15.675565719604492 -1.2067887783050537
2.460151195526123 20.26115608215332 -1.2171145677566528
0.600146472454071 14.892573356628418 -0.8888145089149475
-0.9040722250938416 22.434465408325195 -1.3389277458190918
-1.8925830125808716 15.586752891540527 -0.9363163709640503
-3.038691282272339 14.884462356567383 -0.9059122800827026
-8.712555885314941 22.97313690185547 -1.4651809930801392
-14.79448413848877 21.433490753173828 -1.5530749559402466
-12.468493461608887 15.271151542663574 -1.175649642944336
-27.754743576049805 6.840927600860596 -1.704641342163086
23.28748893737793 14.7261323928833 -1.9497026205062866
17.565887451171875 15.562040328979492 -1.6606286764144897
12.704374313354492 15.560053825378418 -1.421447515487671
6.460102558135986 17.033893585205078 -1.289124846458435
4.933158874511719 17.031230926513672 -1.2547023296356201
0.6017822027206421 14.933241844177246 -1.0575637817382812
-1.8925830125808716 15.586752891540527 -1.1110504865646362
-8.658151626586914 22.829687118530273 -1.727750301361084
-7.192629337310791 15.158159255981445 -1.1872472763061523
-14.292280197143555 14.87984848022461 -1.459951400756836
-19.798492431640625 14.877607345581055 -1.752460241317749
-23.843969345092773 15.07802677154541 -1.9962942600250244
27.828510284423828 6.859135627746582 -2.347599983215332
27.186317443847656 9.07613754272461 -2.347599983215332
26.367835998535156 11.234301567077637 -2.347599983215332
25.37834930419922 13.319589614868164 -2.347599983215332
23.28748893737793 14.7261323928833 -2.25681471824646
14.94649887084961 15.5609712600708 -1.76728355884552
16.221372604370117 23.500709533691406 -2.33892822265625
14.277729034423828 24.729753494262695 -2.338927984237671
1.9650732278823853 16.183856964111328 -1.335327386856079
0.6017822027206421 14.933241844177246 -1.2241482734680176
-1.8925830125808716 15.586762428283691 -1.286061406135559
-3.0386962890625 14.884462356567383 -1.244303822517395
-7.974096298217773 27.52973175048828 -2.347599983215332
-8.657362937927246 22.8276309967041 -1.9997260570526123
-7.192358016967773 15.157588005065918 -1.3742098808288574
-14.79448413848877 21.433490753173828 -2.1331820487976074
-12.469338417053223 15.272187232971191 -1.614896297454834
-25.37835693359375 13.319575309753418 -2.347599983215332
-26.36783790588379 11.234267234802246 -2.347599983215332
-28.290212631225586 4.597626686096191 -2.347599983215332
26.86015510559082 9.765624781721272e-06 -2.5
26.773056030273438 2.1613574028015137 -2.5
26.5123291015625 4.308691501617432 -2.5
24.48983383178711 6.036215782165527 -2.347599983215332
23.20442771911621 9.886469841003418 -2.347599983215332
21.318017959594727 13.480688095092773 -2.347599983215332
17.565887451171875 15.56203556060791 -2.1842565536499023
14.94649887084961 15.5609712600708 -2.0082173347473145
12.70438003540039 15.560053825378418 -1.8696575164794922
12.581610679626465 21.79197883605957 -2.342057943344116
7.000937461853027 24.170053482055664 -2.342089891433716
3.1758203506469727 15.556180953979492 -1.4777500629425049
1.8887988328933716 15.55565357208252 -1.4584707021713257
-0.6268310546875 15.554628372192383 -1.4489169120788574
-3.038691282272339 14.884462356567383 -1.4139422178268433
-7.017428874969482 24.226919174194336 -2.347599983215332
-3.547133684158325 6.143823146820068 -0.6602972149848938
-19.79849624633789 14.877607345581055 -2.305048704147339
-22.33365249633789 11.72159194946289 -2.347599983215332
-23.204425811767578 9.886465072631836 -2.347599983215332
-24.489835739135742 6.036201000213623 -2.347599983215332
-26.773056030273438 2.1613378524780273 -2.5
23.977567672729492 9.765624781721272e-06 -2.5
23.899818420410156 1.9293944835662842 -2.5
23.667070388793945 3.8462889194488525 -2.5
21.35714340209961 7.130063533782959 -2.347599983215332
20.714155197143555 8.825483322143555 -2.347599983215332
19.93683624267578 10.463662147521973 -2.347599983215332
19.03020477294922 12.033988952636719 -2.347599983215332
16.853378295898438 14.930814743041992 -2.347599983215332
14.946494102478027 15.5609712600708 -2.249645233154297
12.70438003540039 15.560053825378418 -2.094425678253174
12.743237495422363 18.461769104003906 -2.338927984237671
9.616727828979492 20.26685905456543 -2.338927984237671
6.249614238739014 21.576141357421875 -2.342087984085083
3.1758203506469727 15.55617618560791 -1.6554049253463745
0.6017822027206421 14.933241844177246 -1.5582643747329712
-0.6268310546875 15.554633140563965 -1.6231038570404053
-1.8886181116104126 15.554121017456055 -1.6336474418640137
-6.264323711395264 21.62692642211914 -2.347599983215332
-3.2334375381469727 6.814335823059082 -0.7864179611206055
-14.292282104492188 14.87984848022461 -2.1511762142181396
-19.030208587646484 12.034042358398438 -2.347599983215332
-19.93683624267578 10.463651657104492 -2.347599983215332
-23.899816513061523 1.9293895959854126 -2.5
21.578691482543945 1.7420165538787842 -2.5
21.36854362487793 3.472734212875366 -2.5
19.738447189331055 4.865097522735596 -2.347599983215332
15.727900505065918 5.250746726989746 -1.914790153503418
15.41420841217041 6.56737756729126 -1.9348506927490234
17.1820068359375 10.86526870727539 -2.347599983215332
16.252012252807617 12.212592124938965 -2.347599983215332
15.216596603393555 13.480751991271973 -2.347599983215332
14.082504272460938 14.661459922790527 -2.347599983215332
11.505629539489746 16.66878318786621 -2.338927984237671
10.12704086303711 17.54054832458496 -2.338927984237671
7.182197093963623 18.937894821166992 -2.338927984237671
5.63503885269165 19.454410552978516 -2.338927984237671
3.1758203506469727 15.55617618560791 -1.8334695100784302
1.8887988328933716 15.55565357208252 -1.809550166130066
0.6017822027206421 14.933241844177246 -1.7258801460266113
-3.038691282272339 14.884462356567383 -1.754303216934204
-3.5484912395477295 6.146171569824219 -0.81955486536026
-11.54830551147461 16.730573654174805 -2.347599983215332
-12.410905838012695 15.2006196975708 -2.2661309242248535
-14.082511901855469 14.661459922790527 -2.347599983215332
-18.000593185424805 9.447431564331055 -2.347599983215332
-21.368547439575195 3.4727392196655273 -2.5
-21.578693389892578 1.7420116662979126 -2.5
19.72798728942871 9.765624781721272e-06 -2.5
19.664012908935547 1.587441325187683 -2.5
19.472518920898438 3.164599657058716 -2.5
14.809965133666992 11.128973960876465 -2.347599983215332
9.228471755981445 15.984179496765137 -2.338927984237671
7.912338733673096 16.674930572509766 -2.338927984237671
3.1758203506469727 15.55617618560791 -2.011993885040283
1.8887988328933716 15.55565357208252 -1.9857451915740967
0.6017822027206421 14.933241844177246 -1.8939287662506104
-1.8886181116104126 15.554116249084473 -1.9855495691299438
-6.569184303283691 17.321517944335938 -2.347599983215332
-3.231391429901123 6.810024261474609 -0.9552149772644043
-10.523612976074219 15.246078491210938 -2.347599983215332
-11.716269493103027 14.349848747253418 -2.347599983215332
-13.866435050964355 12.284594535827637 -2.347599983215332
-15.657448768615723 9.901176452636719 -2.347599983215332
-19.664011001586914 1.587441325187683 -2.5
18.116058349609375 4.882812390860636e-06 -2.5
17.086444854736328 4.211440563201904 -2.4284815788269043
15.502333641052246 5.17544412612915 -2.2553789615631104
15.311762809753418 6.523730278015137 -2.2968015670776367
14.378114700317383 9.092182159423828 -2.347599983215332
10.758959770202637 13.17735767364502 -2.347599983215332
6.010136604309082 15.847465515136719 -2.338927984237671
1.8887988328933716 15.55565357208252 -2.162432909011841
-0.6268359422683716 15.554628372192383 -2.1482677459716797
-3.0386962890625 14.884462356567383 -2.0964086055755615
-6.032426834106445 15.90621566772461 -2.347599983215332
-3.230361223220825 6.807861328125 -1.0398776531219482
-3.5498533248901367 6.148530006408691 -0.9797532558441162
-12.733437538146973 11.280854225158691 -2.347599983215332
-15.063115119934082 7.905727386474609 -2.347599983215332
-15.65041446685791 6.668007850646973 -2.347599983215332
-17.08636474609375 4.211415767669678 -2.4284706115722656
16.743764877319336 4.882812390860636e-06 -2.5
16.689462661743164 1.3473193645477295 -2.5
16.526933670043945 2.6858983039855957 -2.5
16.229639053344727 4.000258922576904 -2.4957587718963623
14.464892387390137 6.162914752960205 -2.347599983215332
13.288959503173828 8.403447151184082 -2.347599983215332
11.768866539001465 10.4263277053833 -2.347599983215332
9.9439697265625 12.17916488647461 -2.347599983215332
7.861527919769287 13.6165771484375 -2.347599983215332
6.740346431732178 14.205009460449219 -2.347599983215332
5.575473308563232 14.701322555541992 -2.347599983215332
3.14501953125 15.405302047729492 -2.347599983215332
0.6017822027206421 14.933241844177246 -2.2314820289611816
-0.6268310546875 15.554633140563965 -2.3243367671966553
-3.038691282272339 14.884462356567383 -2.26823091506958
-3.2293310165405273 6.805688381195068 -1.1247462034225464
-3.550532102584839 6.149716854095459 -1.060257077217102
-10.89174747467041 11.339516639709473 -2.347599983215332
-11.768878936767578 10.426318168640137 -2.347599983215332
-12.569682121276855 9.445508003234863 -2.347599983215332
-13.922077178955078 7.306869983673096 -2.347599983215332
-14.464889526367188 6.162900447845459 -2.347599983215332
-16.689464569091797 1.3473095893859863 -2.5
15.510629653930664 1.2521532773971558 -2.5
15.359575271606445 2.4961912631988525 -2.5
15.10891056060791 3.7240233421325684 -2.5
13.8604736328125 4.627309322357178 -2.347599983215332
13.443187713623047 5.727602481842041 -2.347599983215332
12.350317001342773 7.809882640838623 -2.347599983215332
11.681836128234863 8.778339385986328 -2.347599983215332
9.241596221923828 11.318915367126465 -2.347599983215332
8.300834655761719 12.02584457397461 -2.347599983215332
6.264252662658691 13.201664924621582 -2.347599983215332
5.181660175323486 13.662914276123047 -2.347599983215332
4.065449237823486 14.03555679321289 -2.347599983215332
-0.5883886814117432 14.600629806518555 -2.347599983215332
-2.9228758811950684 14.317177772521973 -2.347599983215332
-5.181654930114746 13.662909507751465 -2.347599983215332
-10.122419357299805 10.538564682006836 -2.347599983215332
-6.48074197769165 4.869960784912109 -1.3023792505264282
-15.10891056060791 3.724013566970825 -2.5
-15.359577178955078 2.4961767196655273 -2.5
14.483940124511719 1.1692675352096558 -2.5
14.342875480651855 2.3309569358825684 -2.5
12.943012237548828 4.321015357971191 -2.347599983215332
12.553339958190918 5.348476409912109 -2.347599983215332
12.082260131835938 6.341264724731445 -2.347599983215332
10.908588409423828 8.197275161743164 -2.347599983215332
10.213603019714355 9.048480987548828 -2.347599983215332
9.452383041381836 9.840991020202637 -2.347599983215332
7.751381874084473 11.229819297790527 -2.347599983215332
6.822621822357178 11.81712818145752 -2.347599983215332
5.849599361419678 12.327802658081055 -2.347599983215332
0.5494287014007568 13.634174346923828 -2.347599983215332
-1.6447607278823853 13.545751571655273 -2.347599983215332
-2.7294092178344727 13.369482040405273 -2.347599983215332
-3.7963523864746094 13.106498718261719 -2.347599983215332
-3.2272655963897705 6.801332950592041 -1.295186161994934
-3.5519092082977295 6.152104377746582 -1.2221810817718506
-7.751391410827637 11.229809761047363 -2.347599983215332
-10.213610649108887 9.048476219177246 -2.347599983215332
-6.383752346038818 4.797080039978027 -1.373826265335083
-12.943015098571777 4.321015357971191 -2.347599983215332
-14.342878341674805 2.3309569358825684 -2.5
-14.483935356140137 1.1692675352096558 -2.5
13.581488609313965 1.0964159965515137 -2.5
11.771191596984863 5.015229225158691 -2.347599983215332
11.32945728302002 5.946156978607178 -2.347599983215332
10.81424331665039 6.83853006362915 -2.347599983215332
10.228900909423828 7.686532974243164 -2.347599983215332
9.577231407165527 8.484697341918945 -2.347599983215332
8.86343765258789 9.227831840515137 -2.347599983215332
8.0921630859375 9.911117553710938 -2.347599983215332
7.268417835235596 10.530121803283691 -2.347599983215332
3.559814453125 12.289877891540527 -2.347599983215332
2.5593457221984863 12.536469459533691 -2.347599983215332
-0.5152050852775574 12.784687042236328 -2.347599983215332
-2.5593457221984863 12.536469459533691 -2.347599983215332
-4.537187576293945 11.963579177856445 -2.347599983215332
-3.552607297897339 6.153300762176514 -1.3036452531814575
-8.092164993286133 9.911117553710938 -2.347599983215332
-8.863439559936523 9.227831840515137 -2.347599983215332
-9.577231407165527 8.484692573547363 -2.347599983215332
-6.383752346038818 4.797080039978027 -1.4651120901107788
-7.358767032623291 4.653408050537109 -1.5974706411361694
-11.32945728302002 5.946152210235596 -2.347599983215332
-11.771188735961914 5.015234470367432 -2.347599983215332
-13.22973346710205 3.2608397006988525 -2.5
-13.581488609313965 1.0964159965515137 -2.5
12.781865119934082 1.0318652391433716 -2.5
12.657387733459473 2.0570311546325684 -2.5
11.07814884185791 4.719955921173096 -2.347599983215332
10.662421226501465 5.596074104309082 -2.347599983215332
9.013359069824219 7.985151290893555 -2.347599983215332
8.341596603393555 8.684531211853027 -2.347599983215332
3.3502197265625 11.566298484802246 -2.347599983215332
-0.4848730266094208 12.031962394714355 -2.347599983215332
-1.4514745473861694 11.953930854797363 -2.347599983215332
-3.350224494934082 11.566298484802246 -2.347599983215332
-4.270053386688232 11.259218215942383 -2.347599983215332
-3.2251806259155273 6.796947956085205 -1.4667108058929443
-3.553300619125366 6.154506683349609 -1.3854714632034302
-7.615729808807373 9.327588081359863 -2.347599983215332
-8.341596603393555 8.684531211853027 -2.347599983215332
-9.0133638381958 7.985146522521973 -2.347599983215332
-7.338671684265137 4.640697956085205 -1.6927719116210938
-10.662421226501465 5.5960693359375 -2.347599983215332
-12.138571739196777 4.052446365356445 -2.4948737621307373
-12.781867027282715 1.0318603515625 -2.5
12.068251609802246 0.97425776720047 -2.5
11.950722694396973 1.9421874284744263 -2.5
11.755693435668945 2.897524356842041 -2.5
10.4596529006958 4.456440448760986 -2.347599983215332
9.609335899353027 6.076581954956055 -2.347599983215332
9.089213371276855 6.83010721206665 -2.347599983215332
7.190541744232178 8.806830406188965 -2.347599983215332
5.684716701507568 9.846230506896973 -2.347599983215332
4.873984336853027 10.271728515625 -2.347599983215332
2.274179697036743 11.139667510986328 -2.347599983215332
1.3704394102096558 11.286538124084473 -2.347599983215332
0.4577978551387787 11.36021900177002 -2.347599983215332
-0.4578027129173279 11.36021900177002 -2.347599983215332
-2.2741894721984863 11.13967227935791 -2.347599983215332
-3.224135637283325 6.794741153717041 -1.5529356002807617
-7.190541744232178 8.806836128234863 -2.347599983215332
-7.87588357925415 8.199667930603027 -2.347599983215332
-8.510144233703613 7.539330959320068 -2.347599983215332
-10.459648132324219 4.456435680389404 -2.347599983215332
-11.755688667297363 2.897524356842041 -2.5
-11.950722694396973 1.9421923160552979 -2.5
11.46451187133789 4.882812390860636e-06 -2.5
9.923588752746582 4.228032112121582 -2.352193593978882
9.532499313354492 5.003046989440918 -2.347599983215332
8.606508255004883 6.467377662658691 -2.347599983215332
8.058188438415527 7.13894510269165 -2.347599983215332
7.457612037658691 7.764208793640137 -2.347599983215332
6.808671951293945 8.339120864868164 -2.347599983215332
6.115581035614014 8.85995101928711 -2.347599983215332
5.382817268371582 9.323320388793945 -2.347599983215332
3.8175487518310547 10.066044807434082 -2.347599983215332
2.995185375213623 10.340580940246582 -2.347599983215332
0.43348631262779236 10.756909370422363 -2.347599983215332
-0.43349120020866394 10.756909370422363 -2.347599983215332
-2.1534130573272705 10.548075675964355 -2.347599983215332
-2.995195150375366 10.340590476989746 -2.347599983215332
-3.8175487518310547 10.066054344177246 -2.347599983215332
-3.223085880279541 6.792529106140137 -1.6394988298416138
-3.554702043533325 6.156933307647705 -1.5503079891204834
-6.115583419799805 8.859941482543945 -2.347599983215332
-6.808674335479736 8.339120864868164 -2.347599983215332
-7.457612037658691 7.764208793640137 -2.347599983215332
-9.53249740600586 5.003036975860596 -2.347599983215332
-11.13137149810791 2.743642568588257 -2.5
-11.427335739135742 0.9225146174430847 -2.5
10.88370132446289 4.882812390860636e-06 -2.5
10.74276351928711 1.74587881565094 -2.5
10.5674409866333 2.6046483516693115 -2.5
8.638036727905273 5.462378025054932 -2.347599983215332
8.170488357543945 6.139736175537109 -2.347599983215332
7.649950981140137 6.777275085449219 -2.347599983215332
6.463730335235596 7.916645526885986 -2.347599983215332
5.805751800537109 8.411088943481445 -2.347599983215332
5.110116958618164 8.85097599029541 -2.347599983215332
4.381328105926514 9.233471870422363 -2.347599983215332
2.843447208404541 9.816718101501465 -2.347599983215332
2.044306516647339 10.013690948486328 -2.347599983215332
1.231909155845642 10.145712852478027 -2.347599983215332
-0.4115283191204071 10.211942672729492 -2.347599983215332
-1.2319189310073853 10.14571762084961 -2.347599983215332
-2.044316291809082 10.013686180114746 -2.347599983215332
-2.9591503143310547 7.802685260772705 -1.916848063468933
-3.2220311164855957 6.790307521820068 -1.726426601409912
-3.555410146713257 6.158154010772705 -1.6333653926849365
-6.463732719421387 7.916640281677246 -2.347599983215332
-7.337158203125 4.639746189117432 -1.9940545558929443
-9.869084358215332 4.204819202423096 -2.464120388031006
-10.56744384765625 2.6046435832977295 -2.5
-10.742755889892578 1.74587881565094 -2.5
10.356351852416992 9.765624781721272e-06 -2.5
10.222241401672363 1.66128408908844 -2.5
9.280405044555664 3.9540088176727295 -2.4351282119750977
8.219496726989746 5.197704792022705 -2.347599983215332
7.774609088897705 5.842246055603027 -2.347599983215332
7.279286861419678 6.448891639709473 -2.347599983215332
6.736767292022705 7.013720512390137 -2.347599983215332
4.862514495849609 8.422128677368164 -2.347599983215332
4.169037818908691 8.786084175109863 -2.347599983215332
2.7056736946105957 9.341069221496582 -2.347599983215332
1.945253849029541 9.528491020202637 -2.347599983215332
0.39158201217651367 9.717143058776855 -2.347599983215332
-1.1722314357757568 9.654120445251465 -2.347599983215332
-1.9452636241912842 9.528491020202637 -2.347599983215332
-2.705683469772339 9.341073989868164 -2.347599983215332
-3.2209765911102295 6.788071155548096 -1.8137398958206177
-5.524450778961182 8.0035400390625 -2.347599983215332
-6.736762523651123 7.013720512390137 -2.347599983215332
-7.27929162979126 6.448891639709473 -2.347599983215332
-8.611090660095215 4.519453048706055 -2.347599983215332
-9.823381423950195 3.2795262336730957 -2.5
-10.055419921875 2.478442430496216 -2.5
9.8753023147583 0.0 -2.5
9.843280792236328 0.7946386337280273 -2.5
9.58834457397461 2.3633153438568115 -2.5
9.367079734802246 3.127197265625 -2.5
7.413476467132568 5.570868968963623 -2.347599983215332
6.941166877746582 6.149345397949219 -2.347599983215332
6.423837661743164 6.687934398651123 -2.347599983215332
4.636650085449219 8.030913352966309 -2.347599983215332
3.9753856658935547 8.377968788146973 -2.347599983215332
1.8549022674560547 9.085893630981445 -2.347599983215332
1.117773413658142 9.205693244934082 -2.347599983215332
0.37339353561401367 9.265786170959473 -2.347599983215332
-0.37339842319488525 9.26578140258789 -2.347599983215332
-3.219912052154541 6.785834789276123 -1.9014643430709839
-5.267839431762695 7.631782054901123 -2.347599983215332
-4.437753677368164 5.435327053070068 -1.7763727903366089
-6.423837661743164 6.687929630279541 -2.347599983215332
-6.941166877746582 6.149345397949219 -2.347599983215332
-6.333427429199219 4.759267330169678 -2.0055856704711914
-7.337158203125 4.639746189117432 -2.1976735591888428
-8.211105346679688 4.309516429901123 -2.347599983215332
-9.367082595825195 3.127192258834839 -2.5
-9.58834171295166 2.3633203506469727 -2.5
9.404008865356445 0.7591747641563416 -2.5
9.312426567077637 1.5134228467941284 -2.5
9.160449028015137 2.2578563690185547 -2.5
8.949057579040527 2.9876415729522705 -2.5
8.581274032592773 3.656137704849243 -2.471667528152466
7.487939357757568 4.735087871551514 -2.347599983215332
6.631406307220459 5.874921798706055 -2.347599983215332
5.032748699188232 7.291196346282959 -2.347599983215332
3.797983407974243 8.004091262817383 -2.347599983215332
2.464853525161743 8.509682655334473 -2.347599983215332
1.77212393283844 8.680424690246582 -2.347599983215332
-1.77212393283844 8.680424690246582 -2.347599983215332
-2.4648680686950684 8.50967788696289 -2.347599983215332
-2.5022215843200684 6.597870826721191 -1.8698220252990723
-3.557548761367798 6.161870002746582 -1.8853771686553955
-4.456630706787109 5.458417892456055 -1.8672479391098022
-6.63140869140625 5.874917030334473 -2.347599983215332
-6.333427429199219 4.759267330169678 -2.099269151687622
-7.328920841217041 4.634531021118164 -2.2977473735809326
-8.679640769958496 3.6980466842651367 -2.5
-8.94905948638916 2.9876365661621094 -2.5
-9.312426567077637 1.513427734375 -2.5
9.029276847839355 0.0 -2.5
8.766894340515137 2.1608593463897705 -2.5
8.249198913574219 3.5146484375 -2.482677698135376
7.166244983673096 4.531669616699219 -2.347599983215332
6.778359413146973 5.093608379364014 -2.347599983215332
6.346503734588623 5.622529029846191 -2.347599983215332
3.6348142623901367 7.660224437713623 -2.347599983215332
3.0066356658935547 7.927861213684082 -2.347599983215332
2.358964681625366 8.144091606140137 -2.347599983215332
1.695986270904541 8.3074951171875 -2.347599983215332
1.022011637687683 8.417031288146973 -2.347599983215332
0.3414013683795929 8.471977233886719 -2.347599983215332
-1.0220214128494263 8.417036056518555 -2.347599983215332
-2.3589696884155273 8.144091606140137 -2.347599983215332
-2.5022215843200684 6.597870826721191 -1.9537580013275146
-3.217763662338257 6.781313419342041 -2.078242540359497
-4.456630706787109 5.458417892456055 -1.9510688781738281
-5.8735032081604 6.114970684051514 -2.347599983215332
-7.166240215301514 4.531660079956055 -2.347599983215332
-7.971516132354736 4.183769226074219 -2.492647886276245
-8.306750297546387 3.5391650199890137 -2.5
-8.766908645629883 2.1608543395996094 -2.5
-8.912348747253418 1.448403239250183 -2.5
-8.999995231628418 0.7265527248382568 -2.5
8.543075561523438 1.388393521308899 -2.5
8.209731101989746 2.7408154010772705 -2.5
7.476020336151123 3.923710823059082 -2.4387564659118652
6.497495174407959 4.882558345794678 -2.347599983215332
6.083549499511719 5.389560222625732 -2.347599983215332
4.616962909698486 6.688827991485596 -2.347599983215332
4.063769340515137 7.038652420043945 -2.347599983215332
2.8820605278015137 7.599374771118164 -2.347599983215332
1.6257177591323853 7.963281154632568 -2.347599983215332
0.32726073265075684 8.120946884155273 -2.347599983215332
-0.3272656202316284 8.120946884155273 -2.347599983215332
-0.9796728491783142 8.068276405334473 -2.347599983215332
-1.6257226467132568 7.963281154632568 -2.347599983215332
-2.261235237121582 7.806645393371582 -2.347599983215332
-2.5022215843200684 6.597870826721191 -2.038209915161133
-3.1817235946655273 5.510947227478027 -1.8380606174468994
-4.456630706787109 5.458417892456055 -2.035404920578003
-6.083544731140137 5.38955545425415 -2.347599983215332
-6.333427429199219 4.759267330169678 -2.288320541381836
-7.649987697601318 4.015024185180664 -2.4955081939697266
-7.962568283081055 3.392529249191284 -2.5
-8.209729194641113 2.7408103942871094 -2.5
-8.40365219116211 2.0713133811950684 -2.5
8.308676719665527 4.882812390860636e-06 -2.5
8.067240715026855 1.9884033203125 -2.5
7.629037857055664 3.25042462348938 -2.4951674938201904
6.237397193908691 4.687104225158691 -2.347599983215332
5.840019226074219 5.173803806304932 -2.347599983215332
5.404760837554932 5.626962661743164 -2.347599983215332
4.9344482421875 6.04360818862915 -2.347599983215332
4.432138442993164 6.421064376831055 -2.347599983215332
3.344731330871582 7.048881530761719 -2.347599983215332
2.7666893005371094 7.295166015625 -2.347599983215332
0.3141552805900574 7.795854091644287 -2.347599983215332
-2.170712947845459 7.494130611419678 -2.347599983215332
-2.6258201599121094 5.533847332000732 -1.8430200815200806
-3.1817235946655273 5.510947227478027 -1.9147084951400757
-3.7867088317871094 5.486020565032959 -2.00573468208313
-4.456630706787109 5.458417892456055 -2.120281934738159
-5.404755592346191 5.62694787979126 -2.347599983215332
-5.840014457702637 5.173803806304932 -2.347599983215332
-7.3515625 3.8583984375 -2.4981627464294434
-7.643810749053955 3.256718635559082 -2.5
-8.067245483398438 1.9883984327316284 -2.5
-8.201086044311523 1.3328075408935547 -2.5
7.98681116104126 4.882812390860636e-06 -2.5
7.960912704467773 0.6426757574081421 -2.5
7.883388519287109 1.2811815738677979 -2.5
5.995771408081055 4.505532264709473 -2.347599983215332
5.613783836364746 4.973378658294678 -2.347599983215332
5.195385456085205 5.408969402313232 -2.347599983215332
4.743305683135986 5.809492111206055 -2.347599983215332
2.086611270904541 7.203827857971191 -2.347599983215332
1.5001806020736694 7.348363876342773 -2.347599983215332
0.9040136337280273 7.445253849029541 -2.347599983215332
-1.5001903772354126 7.348373889923096 -2.347599983215332
-2.4852635860443115 6.553164005279541 -2.1938023567199707
-2.6252148151397705 5.532563209533691 -1.916848063468933
-3.1817283630371094 5.510947227478027 -1.991870403289795
-3.7867138385772705 5.486020565032959 -2.0865652561187744
-4.432534217834473 5.428905963897705 -2.1938023567199707
-5.195385456085205 5.408974647521973 -2.347599983215332
-5.613781452178955 4.973383903503418 -2.347599983215332
-6.649785041809082 4.205073356628418 -2.462747097015381
-7.071972370147705 3.711660146713257 -2.5
-7.347707271575928 3.130561351776123 -2.5
-7.575780868530273 2.529165029525757 -2.5
-7.754735946655273 1.9113720655441284 -2.5
-7.883386135101318 1.2811815738677979 -2.5
7.071855545043945 3.0130369663238525 -2.5
6.755263328552246 3.5454344749450684 -2.481191873550415
5.000341892242432 5.205903053283691 -2.347599983215332
4.565224647521973 5.591391563415527 -2.347599983215332
4.100502967834473 5.940600395202637 -2.347599983215332
3.6091747283935547 6.251293659210205 -2.347599983215332
3.0944578647613525 6.521430492401123 -2.347599983215332
2.0082714557647705 6.933373928070068 -2.347599983215332
1.4438623189926147 7.072484970092773 -2.347599983215332
0.8700780868530273 7.165737152099609 -2.347599983215332
0.2906494140625 7.21251916885376 -2.347599983215332
-0.2906591594219208 7.212514400482178 -2.347599983215332
-0.8700829744338989 7.165737152099609 -2.347599983215332
-1.4438672065734863 7.072484970092773 -2.347599983215332
-2.0082859992980957 6.933369159698486 -2.347599983215332
-2.395209789276123 6.315722465515137 -2.1967856884002686
-3.1817283630371094 5.510947227478027 -2.069568395614624
-3.7867138385772705 5.486020565032959 -2.1679563522338867
-5.000336647033691 5.205903053283691 -2.347599983215332
-5.403022289276123 4.786669731140137 -2.347599983215332
-5.770671367645264 4.336381912231445 -2.347599983215332
-6.806469440460205 3.5723094940185547 -2.5
-7.587419033050537 1.2330809831619263 -2.5
-7.662033557891846 0.6185449361801147 -2.5
7.310961723327637 1.1881542205810547 -2.5
6.814174652099609 2.903251886367798 -2.5
6.122665882110596 3.8717429637908936 -2.4450695514678955
5.618305683135986 4.221889495849609 -2.372044324874878
2.981699228286743 6.2838134765625 -2.347599983215332
1.935097575187683 6.680737018585205 -2.347599983215332
1.3912451267242432 6.814789772033691 -2.347599983215332
0.8383740186691284 6.904638290405273 -2.347599983215332
-0.2800634801387787 6.949711799621582 -2.347599983215332
-0.8383837938308716 6.904638290405273 -2.347599983215332
-1.3912549018859863 6.814789772033691 -2.347599983215332
-1.9351122379302979 6.680742263793945 -2.347599983215332
-3.1817283630371094 5.510947227478027 -2.1478285789489746
-4.818134784698486 5.016220569610596 -2.347599983215332
-6.558461666107178 3.442148447036743 -2.5
-6.814174652099609 2.903247117996216 -2.5
-7.025688171386719 2.345522403717041 -2.5
-7.191642761230469 1.7725830078125 -2.5
-7.310956954956055 1.1881542205810547 -2.5
6.936977386474609 1.7098193168640137 -2.5
6.776904106140137 2.262465715408325 -2.5
6.306787014007568 3.310053586959839 -2.4923202991485596
4.243110179901123 5.196875095367432 -2.347599983215332
3.8111815452575684 5.521440505981445 -2.347599983215332
2.3790624141693115 6.273076057434082 -2.347599983215332
1.8665722608566284 6.444169998168945 -2.347599983215332
1.341982364654541 6.573471546173096 -2.347599983215332
0.8086816072463989 6.660136699676514 -2.347599983215332
-0.2701513469219208 6.703618049621582 -2.347599983215332
-0.8086962699890137 6.660136699676514 -2.347599983215332
-1.8665869235992432 6.444164752960205 -2.347599983215332
-2.3790674209594727 6.273076057434082 -2.347599983215332
-2.6258201599121094 5.533847332000732 -2.143308401107788
-4.243105411529541 5.196869850158691 -2.347599983215332
-5.021799087524414 4.448925495147705 -2.347599983215332
-5.598918437957764 4.207319259643555 -2.450641393661499
-6.936977386474609 1.709814429283142 -2.5
-7.052065372467041 1.1460790634155273 -2.5
6.898412704467773 9.765624781721272e-06 -2.5
6.543393611907959 2.184511661529541 -2.5
6.101899147033691 3.202519416809082 -2.4974043369293213
4.487387657165527 4.671870231628418 -2.347599983215332
4.096909046173096 5.017797946929932 -2.347599983215332
3.679863214492798 5.331191062927246 -2.347599983215332
2.7770214080810547 5.852450847625732 -2.347599983215332
2.2970898151397705 6.056928634643555 -2.347599983215332
0.7808203101158142 6.430654048919678 -2.347599983215332
-0.2608398497104645 6.472626686096191 -2.347599983215332
-1.8022656440734863 6.222118854522705 -2.347599983215332
-2.2970848083496094 6.056928634643555 -2.347599983215332
-3.1196093559265137 5.40334939956665 -2.2611148357391357
-4.487382888793945 4.671864986419678 -2.347599983215332
-5.50054931640625 4.133398532867432 -2.493501901626587
-5.830466270446777 3.686967611312866 -2.5
-6.108237266540527 3.2058496475219727 -2.5
-6.346396446228027 2.7039451599121094 -2.5
6.666845321655273 9.765624781721272e-06 -2.5
6.580512523651123 1.0694433450698853 -2.5
6.473119735717773 1.595483422279358 -2.5
6.133354187011719 2.6131885051727295 -2.5
5.9031982421875 3.0982420444488525 -2.5
5.593212604522705 3.536938428878784 -2.4815714359283447
5.202661037445068 3.909540891647339 -2.4403815269470215
3.55633282661438 5.152231216430664 -2.347599983215332
3.1302146911621094 5.421689510345459 -2.347599983215332
2.6837987899780273 5.655991077423096 -2.347599983215332
1.741762638092041 6.013256549835205 -2.347599983215332
1.2522509098052979 6.1339111328125 -2.347599983215332
0.7546142339706421 6.214780330657959 -2.347599983215332
0.2520751953125 6.255351543426514 -2.347599983215332
-1.2522509098052979 6.1339111328125 -2.347599983215332
-1.741762638092041 6.013256549835205 -2.347599983215332
-3.1196141242980957 5.40334939956665 -2.339653730392456
-3.55633282661438 5.152226448059082 -2.347599983215332
-6.133359432220459 2.613173723220825 -2.5
-6.645219802856445 0.5364599227905273 -2.5
6.448564529418945 4.882812390860636e-06 -2.5
6.427656173706055 0.5188964605331421 -2.5
6.365058422088623 1.0344287157058716 -2.5
6.261181354522705 1.543251872062683 -2.5
6.11669921875 2.042060613632202 -2.5
5.42129373550415 3.428217649459839 -2.4867119789123535
4.612568378448486 4.086386680603027 -2.3890321254730225
3.439897298812866 4.983544826507568 -2.347599983215332
3.0277295112609863 5.244179725646973 -2.347599983215332
2.5959277153015137 5.470810413360596 -2.347599983215332
2.147294759750366 5.661952972412109 -2.347599983215332
0.729907214641571 6.011308670043945 -2.347599983215332
0.24382323026657104 6.050551414489746 -2.347599983215332
-0.24382811784744263 6.050546646118164 -2.347599983215332
-0.729907214641571 6.011313438415527 -2.347599983215332
-1.211245059967041 5.933081150054932 -2.347599983215332
-1.6847362518310547 5.816381931304932 -2.347599983215332
-2.5745506286621094 5.425805568695068 -2.32828426361084
-3.0277295112609863 5.244184494018555 -2.347599983215332
-3.439897298812866 4.983540058135986 -2.347599983215332
-3.8297412395477295 4.690590858459473 -2.347599983215332
-4.194760799407959 4.367211818695068 -2.347599983215332
-4.747358322143555 4.205795764923096 -2.458846092224121
-6.261178970336914 1.5432469844818115 -2.5
-6.365056037902832 1.0344287157058716 -2.5
-6.427648544311523 0.5188964605331421 -2.5
6.161581993103027 1.0013623237609863 -2.5
6.06102991104126 1.4939160346984863 -2.5
5.742895603179932 2.4468212127685547 -2.5
5.527392387390137 2.9010009765625 -2.5
5.258276462554932 3.325136661529541 -2.491586446762085
4.530995845794678 4.014121055603027 -2.424281120300293
2.9309473037719727 5.0765380859375 -2.347599983215332
2.512939453125 5.295922756195068 -2.347599983215332
2.0786523818969727 5.48095703125 -2.347599983215332
1.6308789253234863 5.630444049835205 -2.347599983215332
1.1725341081619263 5.743412971496582 -2.347599983215332
0.23603026568889618 5.857128620147705 -2.347599983215332
-0.7065722346305847 5.819140434265137 -2.347599983215332
