ply
format ascii 1.0
element vertex 725
property float x
property float y
property float z
end_header
22.83282470703125 -17.157752990722656 6.978326797485352
21.69687271118164 -19.221757888793945 6.069046497344971
22.699420928955078 -17.0574893951416 5.617266654968262
23.064205169677734 -17.33161163330078 5.376033782958984
23.341886520385742 -17.540283203125 5.106644153594971
22.069992065429688 -19.552303314208984 4.820833206176758
16.940656661987305 -17.6370792388916 0.7115691900253296
16.916545867919922 -17.611963272094727 0.43979063630104065
19.670862197875977 -17.426836013793945 0.47328245639801025
19.64462661743164 -17.403623580932617 0.18177062273025513
17.863889694213867 -18.59827995300293 -0.10716567933559418
20.731061935424805 -18.36610221862793 -0.4220457375049591
19.68008041381836 -17.435009002685547 -0.6921300888061523
19.680084228515625 -17.435009002685547 -0.9837887287139893
23.395681381225586 -17.580732345581055 -1.0950180292129517
-1.17291259765625 -29.105897903442383 -1.413344383239746
23.599811553955078 -17.73409080505371 -1.4323067665100098
25.21137809753418 -15.942733764648438 -1.4472967386245728
17.881032943725586 -18.616113662719727 -1.5392913818359375
23.48640251159668 -17.64885711669922 -1.7519351243972778
-23.290170669555664 -14.7278413772583 -1.9499297142028809
15.086691856384277 -18.477861404418945 -1.6879955530166626
19.92034339904785 -20.73921775817871 -2.034865617752075
19.603038787841797 -17.36676788330078 -1.8532131910324097
23.50253677368164 -17.660985946655273 -2.0803067684173584
25.21137809753418 -15.942733764648438 -2.1107797622680664
-28.634008407592773 -4.653505802154541 -2.3761258125305176
-27.82851791381836 -6.859150409698486 -2.347599983215332
-27.18630599975586 -9.076151847839355 -2.347599983215332
-26.367820739746094 -11.234296798706055 -2.347599983215332
-23.38625144958496 -14.788583755493164 -2.266388177871704
-18.24266815185547 -22.343252182006836 -2.3626115322113037
-10.271733283996582 -27.084394454956055 -2.3726136684417725
-4.100424766540527 -20.085262298583984 -1.6790814399719238
-3.4767894744873047 -28.634042739868164 -2.3625895977020264
-1.161501407623291 -28.822723388671875 -2.36273193359375
2.463495969772339 -20.288944244384766 -1.674034595489502
8.028854370117188 -27.718759536743164 -2.3637194633483887
10.232379913330078 -26.98053741455078 -2.363520383834839
14.41508960723877 -24.9676456451416 -2.3614251613616943
16.36640739440918 -23.710819244384766 -2.3598382472991943
15.182994842529297 -18.59579086303711 -1.966349482536316
19.921476364135742 -20.740447998046875 -2.3555307388305664
22.93398666381836 -17.233749389648438 -2.349736452102661
24.224328994750977 -15.318534851074219 -2.347599983215332
25.378429412841797 -13.319628715515137 -2.347599983215332
26.367843627929688 -11.234296798706055 -2.347599983215332
27.186325073242188 -9.076112747192383 -2.347599983215332
-26.773054122924805 -2.1613476276397705 -2.5
-26.512313842773438 -4.308681488037109 -2.5
-23.92469596862793 -7.987265586853027 -2.347599983215332
-23.20442008972168 -9.886493682861328 -2.347599983215332
-22.333637237548828 -11.721620559692383 -2.347599983215332
-21.318021774291992 -13.480722427368164 -2.347599983215332
-17.01255989074707 -17.71198272705078 -2.285813570022583
-15.980866432189941 -19.573036193847656 -2.3518474102020264
-10.864206314086914 -22.89583969116211 -2.3587584495544434
-8.9941987991333 -23.715810775756836 -2.3607513904571533
-7.059296607971191 -24.371591567993164 -2.3616185188293457
-1.0192382335662842 -25.292509078979492 -2.35600209236145
2.4771337509155273 -20.401269912719727 -1.9127863645553589
5.063986778259277 -24.804988861083984 -2.356336832046509
7.04180383682251 -24.311073303222656 -2.355755567550659
12.639806747436523 -21.89278221130371 -2.352890968322754
14.350739479064941 -20.79061508178711 -2.3512964248657227
17.472429275512695 -18.19072151184082 -2.347599983215332
21.318038940429688 -13.48070240020752 -2.347599983215332
23.204431533813477 -9.886493682861328 -2.347599983215332
25.185617446899414 -8.408173561096191 -2.4713246822357178
26.512346267700195 -4.308671951293945 -2.5
-23.97759246826172 -2.9296874345163815e-05 -2.5
-23.667089462280273 -3.8462889194488525 -2.5
-22.74359130859375 -7.592948913574219 -2.5
-15.597311973571777 -16.238544464111328 -2.347599983215332
-14.24007797241211 -17.44096565246582 -2.347599983215332
-12.7904634475708 -18.53023338317871 -2.347599983215332
-8.265803337097168 -14.31680679321289 -1.723654866218567
-9.659423828125 -20.356836318969727 -2.349310874938965
-7.99523401260376 -21.081777572631836 -2.350837469100952
-6.276359558105469 -21.66859245300293 -2.352121591567993
-2.717414379119873 -22.38001823425293 -2.3505699634552
2.5591650009155273 -21.076854705810547 -2.2136952877044678
4.509055137634277 -22.086767196655273 -2.3503575325012207
6.270011901855469 -21.64655303955078 -2.3497304916381836
7.988674163818359 -21.064374923706055 -2.3488998413085938
11.257956504821777 -19.49933624267578 -2.347599983215332
15.597335815429688 -16.238534927368164 -2.347599983215332
18.000186920166016 -13.526249885559082 -2.347599983215332
19.030231475830078 -12.033984184265137 -2.347599983215332
22.058879852294922 -9.398407936096191 -2.5
23.280866622924805 -5.738232135772705 -2.5
23.89982032775879 -1.9293944835662842 -2.5
-21.648916244506836 -2.9296874345163815e-05 -2.5
-21.57868766784668 -1.7420214414596558 -2.5
-17.496562957763672 -11.064169883728027 -2.390577793121338
-15.216596603393555 -13.480751991271973 -2.347599983215332
-12.857072830200195 -15.747098922729492 -2.347599983215332
-11.548274040222168 -16.73060417175293 -2.347599983215332
-8.29952335357666 -14.375205039978027 -1.9168484210968018
-7.208808422088623 -19.008134841918945 -2.347599983215332
-4.066354751586914 -19.9183292388916 -2.347599983215332
0.8185815215110779 -20.312685012817383 -2.347599983215332
2.4504175186157227 -20.180946350097656 -2.347599983215332
5.65594482421875 -19.52654266357422 -2.347599983215332
7.2088303565979 -19.00810432434082 -2.347599983215332
8.714970588684082 -18.366405487060547 -2.347599983215332
12.857101440429688 -15.74705982208252 -2.347599983215332
19.916540145874023 -8.485634803771973 -2.5
21.019826889038086 -5.180927753448486 -2.5
21.36855697631836 -3.4727439880371094 -2.5
21.578702926635742 -1.7420214414596558 -2.5
-19.727983474731445 -2.9296874345163815e-05 -2.5
-19.66400909423828 -1.5874511003494263 -2.5
-19.472509384155273 -3.164599657058716 -2.5
-19.154706954956055 -4.721259593963623 -2.5
-17.46825408935547 -9.168075561523438 -2.5
-16.67388916015625 -10.543954849243164 -2.5
-15.65343952178955 -11.762822151184082 -2.481304168701172
-13.962433815002441 -12.369668006896973 -2.3638548851013184
-12.832958221435547 -13.360556602478027 -2.347599983215332
-8.236257553100586 -14.265634536743164 -2.0874581336975098
-7.941677093505859 -16.73674774169922 -2.347599983215332
-6.569164752960205 -17.321523666381836 -2.347599983215332
-2.232980966567993 -18.39029312133789 -2.347599983215332
-0.7459301352500916 -18.51034164428711 -2.347599983215332
0.7459545731544495 -18.51034164428711 -2.347599983215332
5.154094219207764 -17.793935775756836 -2.347599983215332
6.569191932678223 -17.321523666381836 -2.347599983215332
7.941686630249023 -16.736766815185547 -2.347599983215332
12.83298110961914 -13.360546112060547 -2.347599983215332
15.771408081054688 -11.851435661315918 -2.5
17.468265533447266 -9.16805648803711 -2.5
19.15473747253418 -4.72122049331665 -2.5
19.472517013549805 -3.1645898818969727 -2.5
19.664020538330078 -1.5874511003494263 -2.5
-18.11605453491211 -2.9296874345163815e-05 -2.5
-18.05730438232422 -1.4577441215515137 -2.5
-17.881452560424805 -2.9060254096984863 -2.5
-17.58962631225586 -4.335488319396973 -2.5
-16.040958404541016 -8.418974876403809 -2.5
-13.559343338012695 -12.012557983398438 -2.4998698234558105
-12.339777946472168 -12.847089767456055 -2.4582366943359375
-10.834677696228027 -13.270097732543945 -2.364121913909912
-8.212942123413086 -14.22525405883789 -2.2667601108551025
-6.032419204711914 -15.906220436096191 -2.347599983215332
-4.73293924331665 -16.340038299560547 -2.347599983215332
-0.6849828958511353 -16.997900009155273 -2.347599983215332
0.6850000023841858 -16.997900009155273 -2.347599983215332
8.505851745605469 -14.732558250427246 -2.347599983215332
9.673368453979492 -14.014286994934082 -2.3499343395233154
11.187140464782715 -13.70174789428711 -2.4410243034362793
14.482768058776855 -10.883075714111328 -2.5
15.311518669128418 -9.682412147521973 -2.5
17.183744430541992 -5.736747741699219 -2.5
18.057281494140625 -1.457763671875 -2.5
-16.743751525878906 -2.9296874345163815e-05 -2.5
-16.689456939697266 -1.347314476966858 -2.5
-14.82585620880127 -7.781220436096191 -2.5
-14.151652336120605 -8.948984146118164 -2.5
-11.598798751831055 -12.075654029846191 -2.5
-4.374416351318359 -15.10228443145752 -2.347599983215332
0.6331152319908142 -15.710311889648438 -2.347599983215332
3.145026683807373 -15.405292510986328 -2.347599983215332
4.374435901641846 -15.10228443145752 -2.347599983215332
5.575470924377441 -14.70131778717041 -2.347599983215332
8.213446617126465 -14.226093292236328 -2.4526877403259277
11.598811149597168 -12.075624465942383 -2.5
12.532893180847168 -11.10317325592041 -2.5
13.385692596435547 -10.058691024780273 -2.5
14.825868606567383 -7.781210899353027 -2.5
15.403918266296387 -6.562997817993164 -2.5
-15.561080932617188 -2.9296874345163815e-05 -2.5
-15.108905792236328 -3.7240331172943115 -2.5
-14.315878868103027 -6.099433422088623 -2.5
-13.152070045471191 -8.316884994506836 -2.5
-10.779545783996582 -11.222704887390137 -2.5
-9.841523170471191 -12.0537109375 -2.5
-8.83969497680664 -12.806523323059082 -2.5
-6.654567718505859 -14.0242280960083 -2.4938745498657227
-4.188466548919678 -14.460322380065918 -2.4186465740203857
-0.5935229063034058 -14.728300094604492 -2.368126630783081
0.5946142673492432 -14.7546968460083 -2.372370481491089
3.0038914680480957 -14.71395492553711 -2.4126620292663574
5.502356052398682 -14.508515357971191 -2.4928927421569824
10.779525756835938 -11.222695350646973 -2.5
13.778664588928223 -7.231601238250732 -2.5
14.315885543823242 -6.099433422088623 -2.5
15.108915328979492 -3.724013566970825 -2.5
15.510631561279297 -1.2521483898162842 -2.5
-14.531046867370605 -1.9531249563442543e-05 -2.5
-13.783231735229492 -4.601523399353027 -2.5
-13.368268966674805 -5.695693016052246 -2.5
-11.616743087768555 -8.729423522949219 -2.5
-10.065993309020996 -10.479843139648438 -2.5
-6.229355335235596 -13.128095626831055 -2.5
-5.152780532836914 -13.586767196655273 -2.5
-4.042778015136719 -13.957343101501465 -2.5
-1.7490966320037842 -14.40517520904541 -2.4965438842773438
-0.5841454863548279 -14.495673179626465 -2.495936393737793
0.5842577815055847 -14.498065948486328 -2.4963507652282715
1.749977946281433 -14.412333488464355 -2.497786283493042
4.042805194854736 -13.9573335647583 -2.5
6.229357719421387 -13.128095626831055 -2.5
7.265534400939941 -12.584247589111328 -2.5
9.190109252929688 -11.255829811096191 -2.5
10.066024780273438 -10.479833602905273 -2.5
12.866621017456055 -6.752919673919678 -2.5
13.368270874023438 -5.695693016052246 -2.5
14.34288501739502 -2.330947160720825 -2.5
-13.581486701965332 -1.0964159965515137 -2.5
-13.44921588897705 -2.185722589492798 -2.5
-12.5353364944458 -5.340810298919678 -2.5
-12.064926147460938 -6.332167625427246 -2.5
-11.516283988952637 -7.282451152801514 -2.5
-9.438830375671387 -9.826865196228027 -2.5
-6.812836647033691 -11.800175666809082 -2.5
-2.7254834175109863 -13.350302696228027 -2.5
-1.642397403717041 -13.526317596435547 -2.5
-0.5486376881599426 -13.614619255065918 -2.5
0.5486523509025574 -13.614619255065918 -2.5
2.7255029678344727 -13.350302696228027 -2.5
5.841225624084473 -12.3101167678833 -2.5
6.812836647033691 -11.800185203552246 -2.5
8.617499351501465 -10.554511070251465 -2.5
9.438844680786133 -9.826865196228027 -2.5
11.5162935256958 -7.282460689544678 -2.5
12.06494140625 -6.332167625427246 -2.5
12.535348892211914 -5.340810298919678 -2.5
12.924460411071777 -4.314814567565918 -2.5
13.229750633239746 -3.2608397006988525 -2.5
13.581491470336914 -1.0964062213897705 -2.5
-12.7818603515625 -1.0318554639816284 -2.5
-12.16350269317627 -4.060791015625 -2.5
-11.7972993850708 -5.0263671875 -2.5
-11.354592323303223 -5.959364891052246 -2.5
-10.838252067565918 -6.853701114654541 -2.5
-10.251604080200195 -7.703593730926514 -2.5
-8.883097648620605 -9.248300552368164 -2.5
-5.497312068939209 -11.58536148071289 -2.5
-3.567700147628784 -12.317157745361328 -2.5
-0.5163476467132568 -12.8130464553833 -2.5
0.5163647532463074 -12.813055992126465 -2.5
1.5457055568695068 -12.729950904846191 -2.5
2.5650267601013184 -12.56429672241211 -2.5
3.5677146911621094 -12.317157745361328 -2.5
4.547265529632568 -11.99013614654541 -2.5
5.497319221496582 -11.585331916809082 -2.5
7.284560203552246 -10.553485870361328 -2.5
8.883122444152832 -9.248310089111328 -2.5
9.598495483398438 -8.503515243530273 -2.5
10.83828353881836 -6.853759765625 -2.5
11.354606628417969 -5.959364891052246 -2.5
12.163517951965332 -4.060771465301514 -2.5
12.45083236694336 -3.06884765625 -2.5
-12.107514381408691 -9.765624781721272e-06 -2.5
-12.068249702453613 -0.97425776720047 -2.5
-11.484411239624023 -3.8340818881988525 -2.5
-10.23315143585205 -6.471025466918945 -2.5
-9.67926025390625 -7.273505687713623 -2.5
-8.387158393859863 -8.731972694396973 -2.5
-3.3685107231140137 -11.62948226928711 -2.5
-0.4875170886516571 -12.097704887390137 -2.5
0.48753172159194946 -12.097684860229492 -2.5
1.4594042301177979 -12.019238471984863 -2.5
2.421828508377075 -11.862832069396973 -2.5
3.368537425994873 -11.62948226928711 -2.5
6.053759574890137 -10.4854097366333 -2.5
6.877861022949219 -9.964286804199219 -2.5
7.657351016998291 -9.378535270690918 -2.5
8.387177467346191 -8.731963157653809 -2.5
9.062612533569336 -8.028769493103027 -2.5
9.679272651672363 -7.273486137390137 -2.5
10.233154296875 -6.471044540405273 -2.5
10.720670700073242 -5.626640319824219 -2.5
11.75570297241211 -2.897529125213623 -2.5
-11.131376266479492 -2.743642568588257 -2.5
-10.87451171875 -3.6304588317871094 -2.5
-10.547114372253418 -4.493700981140137 -2.5
-10.151323318481445 -5.327831745147705 -2.5
-9.1652193069458 -6.88723611831665 -2.5
-7.941738128662109 -8.268241882324219 -2.5
-7.25067138671875 -8.880477905273438 -2.5
-6.512570858001709 -9.4351167678833 -2.5
-4.065363883972168 -10.719511032104492 -2.5
-3.1896166801452637 -11.011884689331055 -2.5
-2.2931933403015137 -11.232831954956055 -2.5
-1.3818895816802979 -11.380927085876465 -2.5
-0.46162840723991394 -11.455204963684082 -2.5
1.38189697265625 -11.380927085876465 -2.5
3.189638614654541 -11.01186466217041 -2.5
4.065375804901123 -10.719511032104492 -2.5
5.732265472412109 -9.928564071655273 -2.5
6.512595176696777 -9.4351167678833 -2.5
9.689699172973633 -6.127402305603027 -2.5
10.547125816345215 -4.493710994720459 -2.5
10.874513626098633 -3.630439281463623 -2.5
-10.012773513793945 -4.266064167022705 -2.5
-9.198793411254883 -5.816982269287109 -2.5
-8.700898170471191 -6.538310527801514 -2.5
-8.146564483642578 -7.217236042022705 -2.5
-7.539403915405273 -7.849355220794678 -2.5
-6.182639122009277 -8.95711898803711 -2.5
-5.441840648651123 -9.425576210021973 -2.5
-4.665759086608887 -9.832890510559082 -2.5
-2.177016496658325 -10.663759231567383 -2.5
-1.3118749856948853 -10.80434513092041 -2.5
-0.4382421672344208 -10.874873161315918 -2.5
0.4382568299770355 -10.874882698059082 -2.5
2.1770286560058594 -10.663740158081055 -2.5
3.0280542373657227 -10.45400333404541 -2.5
3.854787588119507 -10.16420841217041 -2.496999979019165
5.441857814788818 -9.425576210021973 -2.5
6.182651042938232 -8.957109451293945 -2.5
6.883351802825928 -8.43057632446289 -2.5
7.539413928985596 -7.849365234375 -2.5
8.14657974243164 -7.217226505279541 -2.5
9.637042999267578 -5.057909965515137 -2.5
10.323598861694336 -3.446523427963257 -2.5
10.56744384765625 -2.6046483516693115 -2.5
10.742768287658691 -1.7458593845367432 -2.5
10.848417282104492 -0.8757910132408142 -2.5
-10.322772979736328 -0.8333398103713989 -2.5
-10.055415153503418 -2.478447198867798 -2.5
-9.170087814331055 -4.812841892242432 -2.5
-8.75308609008789 -5.535126686096191 -2.5
-6.549824237823486 -8.022099494934082 -2.5
-5.883066177368164 -8.523115158081055 -2.5
-5.178173542022705 -8.968876838684082 -2.5
-3.6724119186401367 -9.683359146118164 -2.5
-2.8813061714172363 -9.947470664978027 -2.5
-1.2483251094818115 -10.280839920043945 -2.5
-0.41700682044029236 -10.347949028015137 -2.5
0.4170239269733429 -10.347968101501465 -2.5
2.8813328742980957 -9.947470664978027 -2.5
5.178183555603027 -8.968856811523438 -2.5
7.751855373382568 -6.867528915405273 -2.5
9.527641296386719 -4.059345722198486 -2.5
9.82339096069336 -3.2795214653015137 -2.5
-9.843274116516113 -0.7946386337280273 -2.5
-8.346506118774414 -5.278017520904541 -2.5
-7.894731044769287 -5.932528972625732 -2.5
-7.391767501831055 -6.548534870147705 -2.5
-6.245583534240723 -7.649453163146973 -2.5
-2.7474803924560547 -9.4854097366333 -2.5
1.975319743156433 -9.675732612609863 -2.5
4.233474254608154 -8.921845436096191 -2.5
4.937658786773682 -8.552255630493164 -2.5
5.609816551208496 -8.127206802368164 -2.5
6.245590686798096 -7.64944314956665 -2.5
6.840864181518555 -7.122079849243164 -2.5
7.391791820526123 -6.548534870147705 -2.5
7.894748210906982 -5.932528972625732 -2.5
8.744145393371582 -4.589286804199219 -2.5
9.588346481323242 -2.3633203506469727 -2.5
9.747424125671387 -1.5841113328933716 -2.5
9.843278884887695 -0.7946191430091858 -2.5
-9.404006004333496 -0.75916987657547 -2.5
-9.160444259643555 -2.257871150970459 -2.5
-8.94905948638916 -2.9876365661621094 -2.5
-8.679633140563965 -3.6980466842651367 -2.5
-7.542424201965332 -5.667773246765137 -2.5
-6.535571098327637 -6.804267406463623 -2.5
-3.3455493450164795 -8.821513175964355 -2.5
-2.6248583793640137 -9.062108993530273 -2.5
-1.137209415435791 -9.365829467773438 -2.5
0.37989988923072815 -9.426953315734863 -2.5
1.88717520236969 -9.243935585021973 -2.5
2.624885082244873 -9.062118530273438 -2.5
4.717309474945068 -8.170605659484863 -2.5
7.974038124084473 -5.042470455169678 -2.5
8.353930473327637 -4.384482383728027 -2.5
8.679643630981445 -3.6980466842651367 -2.5
8.949067115783691 -2.9876365661621094 -2.5
-8.766889572143555 -2.1608593463897705 -2.5
-8.564594268798828 -2.8592870235443115 -2.5
-8.306745529174805 -3.5391697883605957 -2.5
-7.995019435882568 -4.196123123168945 -2.5
-7.218390941619873 -5.424277305603027 -2.5
-6.254787445068359 -6.511933326721191 -2.5
-5.129199028015137 -7.430966854095459 -2.5
-4.514633655548096 -7.819580078125 -2.5
-3.2018139362335205 -8.442509651184082 -2.5
-2.512094736099243 -8.672802925109863 -2.5
-1.8060888051986694 -8.846796989440918 -2.5
1.0883715152740479 -8.963457107543945 -2.5
3.201835870742798 -8.442519187927246 -2.5
3.87078857421875 -8.157509803771973 -2.5
4.514643669128418 -7.819589614868164 -2.5
6.758520126342773 -5.987519264221191 -2.5
7.631472110748291 -4.825839519500732 -2.5
7.995031356811523 -4.196123123168945 -2.5
9.000012397766113 -0.7265527248382568 -2.5
-8.655153274536133 -1.9531249563442543e-05 -2.5
-8.627084732055664 -0.6964550614356995 -2.5
-8.209723472595215 -2.7408201694488525 -2.5
-7.962558269500732 -3.3925390243530273 -2.5
-7.315253734588623 -4.625888347625732 -2.5
-6.919296741485596 -5.199521541595459 -2.5
-6.478476524353027 -5.739443302154541 -2.5
-5.995627403259277 -6.242128849029541 -2.5
-4.327573299407959 -7.495585918426514 -2.5
-3.710390567779541 -7.819511413574219 -2.5
-2.4080004692077637 -8.313427925109863 -2.5
-1.731240153312683 -8.480254173278809 -2.5
-0.3485058546066284 -8.648134231567383 -2.5
1.731264591217041 -8.480234146118164 -2.5
3.710402727127075 -7.819511413574219 -2.5
4.327587604522705 -7.495595455169678 -2.5
4.91668701171875 -7.123056411743164 -2.5
5.473923206329346 -6.704326152801514 -2.5
5.995646953582764 -6.242118835449219 -2.5
7.962573051452637 -3.392529249191284 -2.5
8.20974063873291 -2.740800619125366 -2.5
8.543078422546387 -1.388369083404541 -2.5
-8.308684349060059 -9.765624781721272e-06 -2.5
-8.281740188598633 -0.6685644388198853 -2.5
-8.20107650756836 -1.3328124284744263 -2.5
-8.06723403930664 -1.9884082078933716 -2.5
-7.881086349487305 -2.631103515625 -2.5
-7.643805980682373 -3.256728410720825 -2.5
-7.356960296630859 -3.8612499237060547 -2.5
-7.0224289894104 -4.440693378448486 -2.5
-6.642309188842773 -4.991376876831055 -2.5
-5.755624771118164 -5.992255687713623 -2.5
-5.254772663116455 -6.435956954956055 -2.5
-4.719858169555664 -6.837910175323486 -2.5
-3.5618603229522705 -7.506494045257568 -2.5
-2.94628643989563 -7.768759727478027 -2.5
-2.3116087913513184 -7.980634689331055 -2.5
-1.001499056816101 -8.248095512390137 -2.5
1.001499056816101 -8.248085975646973 -2.5
1.661962866783142 -8.14077091217041 -2.5
2.311633348464966 -7.980634689331055 -2.5
2.946303606033325 -7.768749713897705 -2.5
3.5618724822998047 -7.506484031677246 -2.5
5.254785060882568 -6.435946941375732 -2.5
6.219140529632568 -5.509677410125732 -2.5
6.642319202423096 -4.991366863250732 -2.5
7.022426605224609 -4.440693378448486 -2.5
7.881088733673096 -2.631093740463257 -2.5
8.067251205444336 -1.9883984327316284 -2.5
8.201090812683105 -1.332802653312683 -2.5
8.28173828125 -0.6685742139816284 -2.5
-7.9609055519104 -0.6426757574081421 -2.5
-7.7547287940979 -1.911376953125 -2.5
-7.575786113739014 -2.529179573059082 -2.5
-7.347700119018555 -3.130566358566284 -2.5
-6.750368595123291 -4.268681526184082 -2.5
-6.38500452041626 -4.798017501831055 -2.5
-5.978208065032959 -5.296249866485596 -2.5
-5.051215648651123 -6.186630725860596 -2.5
-3.42388653755188 -7.215683460235596 -2.5
-2.832155704498291 -7.467782974243164 -2.5
-2.2220654487609863 -7.671474456787109 -2.5
-1.59756338596344 -7.825400352478027 -2.5
-0.962695300579071 -7.92858362197876 -2.5
-0.32158446311950684 -7.98034143447876 -2.5
0.32160887122154236 -7.98034143447876 -2.5
1.5975756645202637 -7.825409889221191 -2.5
2.832165479660034 -7.467792987823486 -2.5
3.423891544342041 -7.21569299697876 -2.5
3.993408203125 -6.916787147521973 -2.5
4.537028789520264 -6.573017597198486 -2.5
5.532663345336914 -5.760107517242432 -2.5
6.385007381439209 -4.798017501831055 -2.5
7.754738807678223 -1.911376953125 -2.5
-7.686955451965332 -9.765624781721272e-06 -2.5
-7.463593482971191 -1.8396190404891968 -2.5
-7.291362285614014 -2.434218645095825 -2.5
-7.071850299835205 -3.0130467414855957 -2.5
-6.145273208618164 -4.617890357971191 -2.5
-5.753771781921387 -5.097412109375 -2.5
-5.324951171875 -5.543857097625732 -2.5
-4.861577033996582 -5.954365253448486 -2.5
-3.8434789180755615 -6.657109260559082 -2.5
-2.1386351585388184 -7.383466720581055 -2.5
-1.5375829935073853 -7.53161096572876 -2.5
-0.30952391028404236 -7.680732250213623 -2.5
0.30953124165534973 -7.680741786956787 -2.5
1.5375927686691284 -7.531620979309082 -2.5
2.725837230682373 -7.187431335449219 -2.5
3.29534649848938 -6.944794654846191 -2.5
3.8434836864471436 -6.65709924697876 -2.5
4.861591815948486 -5.954365253448486 -2.5
5.324953556060791 -5.543847560882568 -2.5
5.753786563873291 -5.097392559051514 -2.5
6.145300388336182 -4.617890357971191 -2.5
6.806471824645996 -3.5723047256469727 -2.5
7.071855545043945 -3.0130369663238525 -2.5
7.463603496551514 -1.8396093845367432 -2.5
-7.406872272491455 -9.765624781721272e-06 -2.5
-7.382858753204346 -0.5960058569908142 -2.5
-7.310946941375732 -1.1881542205810547 -2.5
-7.025693416595459 -2.345527410507202 -2.5
-6.558456897735596 -3.442148447036743 -2.5
-6.260210037231445 -3.958730459213257 -2.5
-5.921367168426514 -4.449618816375732 -2.5
-5.130918025970459 -5.341865062713623 -2.5
-4.207575798034668 -6.095742225646973 -2.5
-0.8927929401397705 -7.352870941162109 -2.5
-0.29823729395866394 -7.40087890625 -2.5
0.29825925827026367 -7.400868892669678 -2.5
0.8928051590919495 -7.352870941162109 -2.5
2.06072998046875 -7.114443302154541 -2.5
3.1752758026123047 -6.691757678985596 -2.5
3.703444719314575 -6.414560317993164 -2.5
4.207587718963623 -6.095742225646973 -2.5
4.684450626373291 -5.737402439117432 -2.5
5.921384334564209 -4.449618816375732 -2.5
6.260224342346191 -3.9587206840515137 -2.5
7.025707721710205 -2.345517635345459 -2.5
7.310952186584473 -1.188134789466858 -2.5
7.382856369018555 -0.5960058569908142 -2.5
-7.121420860290527 -0.5749120712280273 -2.5
-7.052070140838623 -1.146083950996399 -2.5
-6.9369797706604 -1.709814429283142 -2.5
-6.326215744018555 -3.320263624191284 -2.5
-6.038535118103027 -3.818544864654541 -2.5
-5.711687088012695 -4.292070388793945 -2.5
-5.347797870635986 -4.737743854522705 -2.5
-4.949228286743164 -5.152695178985596 -2.5
-4.518559455871582 -5.534228324890137 -2.5
-4.058578968048096 -5.8798828125 -2.5
-3.5722875595092773 -6.187392234802246 -2.5
-3.0628294944763184 -6.454765319824219 -2.5
-1.9877392053604126 -6.862499713897705 -2.5
-0.8611791729927063 -7.092509746551514 -2.5
-0.28767332434654236 -7.138798713684082 -2.5
1.4291112422943115 -7.000214576721191 -2.5
2.533518075942993 -6.680302619934082 -2.5
3.0628318786621094 -6.454784870147705 -2.5
4.058591365814209 -5.879892349243164 -2.5
5.711703777313232 -4.292060375213623 -2.5
6.326225280761719 -3.320263624191284 -2.5
6.936984539031982 -1.709814429283142 -2.5
7.052074909210205 -1.1460741758346558 -2.5
7.121420860290527 -0.5749120712280273 -2.5
-6.876035213470459 -0.5550976395606995 -2.5
-6.809074401855469 -1.106601595878601 -2.5
-6.543398380279541 -2.184511661529541 -2.5
-6.346391677856445 -2.7039451599121094 -2.5
-5.830463886260986 -3.6869726181030273 -2.5
-5.514877796173096 -4.144169807434082 -2.5
-5.163525104522705 -4.574501991271973 -2.5
-3.9187376499176025 -5.67727518081665 -2.5
-2.957287549972534 -6.232392311096191 -2.5
-1.9192479848861694 -6.626054763793945 -2.5
-0.8315136432647705 -6.848105430603027 -2.5
0.27778807282447815 -6.892822265625 -2.5
1.3798656463623047 -6.759003639221191 -2.5
2.9572997093200684 -6.232363224029541 -2.5
4.362878322601318 -5.343544960021973 -2.5
5.83047342300415 -3.686953067779541 -2.5
6.543398380279541 -2.184501886367798 -2.5
6.876042366027832 -0.5550878643989563 -2.5
-6.666840553283691 0.0 -2.5
-6.473117351531982 -1.59548819065094 -2.5
-5.903188228607178 -3.098222494125366 -2.5
-5.329755783081055 -4.005068302154541 -2.5
-4.990195274353027 -4.420937538146973 -2.5
-3.7871899604797363 -5.486708641052246 -2.5
-3.3334155082702637 -5.773671627044678 -2.5
-2.858020067214966 -6.023154258728027 -2.5
-1.8548216819763184 -6.403623104095459 -2.5
-0.2684399485588074 -6.661435604095459 -2.5
0.26845213770866394 -6.661435604095459 -2.5
0.8036083579063416 -6.618251800537109 -2.5
1.3335497379302979 -6.53209924697876 -2.5
4.216420650482178 -5.164169788360596 -2.5
4.618293285369873 -4.808144569396973 -2.5
5.329762935638428 -4.005068302154541 -2.5
5.63476037979126 -3.5631933212280273 -2.5
5.903200626373291 -3.0982420444488525 -2.5
6.323752403259277 -2.1111814975738525 -2.5
6.473122596740723 -1.5954785346984863 -2.5
-6.448556900024414 -9.765624781721272e-06 -2.5
-6.427648544311523 -0.5189062356948853 -2.5
-6.116691589355469 -2.042060613632202 -2.5
-5.932541370391846 -2.5276269912719727 -2.5
-5.709914207458496 -2.9967968463897705 -2.5
-5.45025634765625 -3.446542978286743 -2.5
-5.155258655548096 -3.8739354610443115 -2.5
-4.82681131362915 -4.276191234588623 -2.5
-4.467077732086182 -4.650722503662109 -2.5
-4.078354358673096 -4.995097637176514 -2.5
-0.7772876024246216 -6.401552677154541 -2.5
0.2596679627895355 -6.443329811096191 -2.5
1.2898876667022705 -6.318242073059082 -2.5
1.7941161394119263 -6.193954944610596 -2.5
2.286699056625366 -6.029511451721191 -2.5
2.764453172683716 -5.825966835021973 -2.5
3.2242846488952637 -5.584619045257568 -2.5
4.078371524810791 -4.995087623596191 -2.5
4.826828479766846 -4.276201248168945 -2.5
5.932553768157959 -2.5276269912719727 -2.5
6.261181354522705 -1.5432324409484863 -2.5
-6.24242639541626 -9.765624781721272e-06 -2.5
-6.222182273864746 -0.5023046731948853 -2.5
-6.161581993103027 -1.0013574361801147 -2.5
-6.061017990112305 -1.49392569065094 -2.5
-5.921156883239746 -1.9767870903015137 -2.5
-5.742892742156982 -2.446835994720459 -2.5
-5.527385234832764 -2.901005744934082 -2.5
-5.276027679443359 -3.336367130279541 -2.5
-3.9479758739471436 -4.835410118103027 -2.5
-3.121203660964966 -5.406093597412109 -2.5
-2.6760716438293457 -5.639716625213623 -2.5
-2.2135887145996094 -5.836777210235596 -2.5
-1.2486376762390137 -6.116259574890137 -2.5
-0.752429187297821 -6.196913719177246 -2.5
-0.25135496258735657 -6.237353324890137 -2.5
0.25136473774909973 -6.237343788146973 -2.5
0.7524389624595642 -6.196913719177246 -2.5
1.2486474514007568 -6.116259574890137 -2.5
1.7367602586746216 -5.99596643447876 -2.5
2.2136058807373047 -5.836757659912109 -2.5
3.1212158203125 -5.406103610992432 -2.5
3.5461034774780273 -5.137392520904541 -2.5
4.324286937713623 -4.502050876617432 -2.5
4.672531604766846 -4.139492034912109 -2.5
5.527397155761719 -2.900995969772339 -2.5
6.06103515625 -1.4939160346984863 -2.5
-6.047372817993164 -9.765624781721272e-06 -2.5
-6.02776575088501 -0.48662108182907104 -2.5
-5.736152172088623 -1.9150195121765137 -2.5
-5.354680061340332 -2.810351610183716 -2.5
-5.111176490783691 -3.232119083404541 -2.5
-4.834528923034668 -3.6329197883605957 -2.5
-4.189162731170654 -4.361386775970459 -2.5
-3.4352879524230957 -4.976884841918945 -2.5
-2.592456102371216 -5.463505744934082 -2.5
-1.6824779510498047 -5.808613300323486 -2.5
-1.2096240520477295 -5.925156116485596 -2.5
-0.24349364638328552 -6.042470455169678 -2.5
0.24351318180561066 -6.042460918426514 -2.5
0.72894287109375 -6.00329065322876 -2.5
1.6824902296066284 -5.808613300323486 -2.5
2.1444311141967773 -5.654394626617432 -2.5
3.023693799972534 -5.237167835235596 -2.5
3.435305118560791 -4.976884841918945 -2.5
4.526530742645264 -4.010165691375732 -2.5
5.111188888549805 -3.232119083404541 -2.5
5.563468933105469 -2.370371103286743 -2.5
5.871652603149414 -1.4472362995147705 -2.5
-4.686743259429932 -3.5218749046325684 -2.5
-4.061100959777832 -4.228066444396973 -2.5
-3.707714796066284 -4.541142463684082 -2.5
-3.330273389816284 -4.824765682220459 -2.5
-2.5132129192352295 -5.296494007110596 -2.5
-0.706652820110321 -5.819765567779541 -2.5
0.23607176542282104 -5.857763767242432 -2.5
1.6310667991638184 -5.631064414978027 -2.5
2.5132226943969727 -5.296504020690918 -2.5
2.931264638900757 -5.077099323272705 -2.5
3.7077293395996094 -4.541132926940918 -2.5
4.388168811798096 -3.887568235397339 -2.5
4.686759948730469 -3.521865129470825 -2.5
4.954946041107178 -3.13330078125 -2.5
5.1910080909729 -2.7244529724121094 -2.5
5.786603927612305 -0.9404199123382568 -2.5
5.843515396118164 -0.47172850370407104 -2.5
-5.6685791015625 -0.45762693881988525 -2.5
-5.231940746307373 -2.229130744934082 -2.5
-4.806611061096191 -3.0395214557647705 -2.5
-4.546445369720459 -3.416445255279541 -2.5
-3.5967211723327637 -4.405195236206055 -2.5
-2.843500852584839 -4.925107479095459 -2.5
-2.437985897064209 -5.137939453125 -2.5
-1.137546420097351 -5.572089672088623 -2.5
-0.6854833960533142 -5.645556449890137 -2.5
0.22901122272014618 -5.682421684265137 -2.5
1.1375609636306763 -5.572099685668945 -2.5
2.8435254096984863 -4.925117015838623 -2.5
3.230607748031616 -4.680331707000732 -2.5
3.59673810005188 -4.405185222625732 -2.5
4.546464920043945 -3.416435480117798 -2.5
4.806625843048096 -3.0395312309265137 -2.5
5.231950759887695 -2.229130744934082 -2.5
5.394350528717041 -1.8009082078933716 -2.5
5.521774768829346 -1.3609960079193115 -2.5
5.613381385803223 -0.9122655987739563 -2.5
5.668581485748291 -0.4576171636581421 -2.5
-5.520165920257568 -9.765624781721272e-06 -2.5
-5.502255916595459 -0.44419920444488525 -2.5
-5.448671817779541 -0.8855078220367432 -2.5
-5.078434944152832 -2.1637303829193115 -2.5
-3.8239452838897705 -3.981152296066284 -2.5
-3.4911890029907227 -4.275947093963623 -2.5
-3.13580322265625 -4.54299783706665 -2.5
-2.760073184967041 -4.780605316162109 -2.5
-2.3664402961730957 -4.987196922302246 -2.5
-1.5357983112335205 -5.302216529846191 -2.5
-1.104164958000183 -5.408603191375732 -2.5
-0.6653710603713989 -5.479911804199219 -2.5
-0.22226805984973907 -5.515693187713623 -2.5
0.22228515148162842 -5.515683650970459 -2.5
0.6653832793235779 -5.479921817779541 -2.5
1.1041821241378784 -5.408603191375732 -2.5
1.5358080863952637 -5.302216529846191 -2.5
3.491205930709839 -4.275937557220459 -2.5
4.131908893585205 -3.660537004470825 -2.5
4.413064002990723 -3.3162012100219727 -2.5
4.665595531463623 -2.9503514766693115 -2.5
5.359758377075195 -1.3210546970367432 -2.5
5.502267837524414 -0.4441894292831421 -2.5
-5.36126708984375 -9.765624781721272e-06 -2.5
-5.343874454498291 -0.43141600489616394 -2.5
-4.932246208190918 -2.101445198059082 -2.5
-4.747158050537109 -2.491513729095459 -2.5
-4.531286716461182 -2.865419864654541 -2.5
-4.286025524139404 -3.2207422256469727 -2.5
-4.012961387634277 -3.555185556411743 -2.5
-3.713874340057373 -3.8665623664855957 -2.5
-2.6806297302246094 -4.642988204956055 -2.5
-1.4915918111801147 -5.149589538574219 -2.5
-0.6462231278419495 -5.322177410125732 -2.5
0.6462377905845642 -5.322177410125732 -2.5
1.0724023580551147 -5.252919673919678 -2.5
1.4916088581085205 -5.149599552154541 -2.5
3.0455615520477295 -4.412246227264404 -2.5
3.7138891220092773 -3.866572141647339 -2.5
4.012976169586182 -3.55517578125 -2.5
5.085361003875732 -1.6977441310882568 -2.5
5.205483436584473 -1.2830272912979126 -2.5
5.343889236450195 -0.4314062297344208 -2.5
