ply
format ascii 1.0
element vertex 874
property float x
property float y
property float z
end_header
-0.5996410846710205 14.880000114440918 3.9903178215026855
-3.122626781463623 15.295585632324219 4.182974815368652
-4.417524337768555 15.2510347366333 4.2544755935668945
-5.772563457489014 15.221010208129883 4.361908912658691
-7.0378098487854 14.831879615783691 4.398900032043457
-8.786996841430664 15.219511032104492 4.7089338302612305
-10.505302429199219 15.219521522521973 4.955212116241455
-19.15467643737793 14.393808364868164 6.420070171356201
-23.89934539794922 15.113041877746582 7.576767444610596
-19.37333106994629 1.5639746189117432 5.207955360412598
14.941298484802246 15.555556297302246 5.523941516876221
10.14626407623291 14.699408531188965 4.574350357055664
8.79052734375 15.225639343261719 4.502624034881592
7.195966720581055 15.165200233459473 4.298972129821777
3.1211986541748047 15.288613319396973 3.9962780475616455
1.875148892402649 15.443246841430664 3.9841673374176025
0.6142773032188416 15.243290901184082 3.9070775508880615
-0.5996459722518921 14.880000114440918 3.8139610290527344
-1.8481786251068115 15.2210693359375 3.9268486499786377
-3.1380200386047363 15.37099552154541 4.017813205718994
-4.432368278503418 15.302265167236328 4.080103874206543
-5.772480487823486 15.22079086303711 4.169069766998291
-7.059394359588623 14.877367973327637 4.217383861541748
-11.994291305541992 14.690361022949219 4.857053279876709
14.941298484802246 15.555561065673828 5.269960403442383
12.699960708618164 15.554648399353027 4.9063544273376465
10.239091873168945 14.833890914916992 4.403956413269043
8.799247741699219 15.240761756896973 4.299869060516357
7.252961158752441 15.285322189331055 4.133797645568848
4.310632228851318 14.882011413574219 3.7856035232543945
3.1290478706359863 15.327054977416992 3.822120189666748
1.894252896308899 15.6005859375 3.839708089828491
-3.1534740924835205 15.446703910827637 3.8519608974456787
-4.454154968261719 15.3774995803833 3.911644697189331
-5.772377967834473 15.220521926879883 3.9773106575012207
-7.059394359588623 14.877367973327637 4.02346658706665
-10.50447940826416 15.218334197998047 4.518093585968018
-17.175092697143555 15.21580982208252 5.606349468231201
9.671630859375 6.115971565246582 2.6619255542755127
17.55978012084961 15.556625366210938 5.4571709632873535
14.941303253173828 15.555556297302246 5.017350196838379
5.644213676452637 14.882563591003418 3.7025840282440186
3.1444921493530273 15.40269947052002 3.6568729877471924
2.644418954849243 21.778728485107422 5.103368282318115
0.617053210735321 15.312045097351074 3.5647716522216797
-1.8409496545791626 15.161508560180664 3.552769660949707
-5.772258281707764 15.220229148864746 3.786590576171875
-8.835390090942383 15.303339958190918 4.110568523406982
-12.07388687133789 14.787846565246582 4.4408979415893555
-17.175090789794922 15.21580982208252 5.337615966796875
-20.248186111450195 15.215526580810547 5.89176082611084
-22.759647369384766 14.392333984375 6.264082908630371
-19.462438583374023 4.797030925750732 4.662859916687012
9.672460556030273 6.116503715515137 2.52878475189209
17.55978012084961 15.556625366210938 5.183831691741943
12.699960708618164 15.554648399353027 4.437203407287598
10.273999214172363 14.8844575881958 3.99643611907959
7.331840515136719 15.451552391052246 3.7791783809661865
5.644211292266846 14.882563591003418 3.517130136489868
2.644416332244873 21.778728485107422 4.847752094268799
0.6196386814117432 15.376322746276855 3.40043568611145
-1.851318359375 15.246909141540527 3.3938281536102295
-4.445580959320068 21.775836944580078 4.91101598739624
-5.772153377532959 15.21993637084961 3.5968573093414307
-7.059394359588623 14.877367973327637 3.6387462615966797
-8.9092378616333 15.431249618530273 3.9373157024383545
-10.524985313415527 15.248046875 4.094046592712402
-14.615649223327637 15.216513633728027 4.662162780761719
-17.175090789794922 15.21580982208252 5.070265293121338
17.55978012084961 15.556625366210938 4.911821365356445
7.425214767456055 15.64833927154541 3.626479387283325
5.644213676452637 14.882563591003418 3.3325774669647217
4.310629844665527 14.882011413574219 3.2439775466918945
2.644238233566284 21.777240753173828 4.593064308166504
0.6217455863952637 15.428529739379883 3.23294734954834
-4.562036037445068 15.749931335449219 3.4331681728363037
-7.059396743774414 14.877367973327637 3.4478063583374023
-9.024113655090332 15.630219459533691 3.7788188457489014
-14.627164840698242 15.228500366210938 4.421006202697754
-17.079275131225586 15.130927085876465 4.777419090270996
-23.388275146484375 14.789867401123047 5.793825149536133
14.941288948059082 15.555551528930664 4.267030715942383
12.699955940246582 15.554643630981445 3.9726219177246094
8.987544059753418 15.566879272460938 3.556058883666992
4.310627460479736 14.882011413574219 3.0651628971099854
3.1932713985443115 15.641645431518555 3.158252477645874
2.6464476585388184 21.795452117919922 4.34351921081543
-4.43301248550415 21.71428871154785 4.3843994140625
-12.265278816223145 21.244081497192383 4.852941989898682
-10.592482566833496 15.345844268798828 3.68890380859375
-14.701071739196777 15.305448532104492 4.19842529296875
-17.098560333251953 15.1480073928833 4.519176006317139
-20.24818992614746 15.215526580810547 5.010680198669434
-23.388296127319336 14.789867401123047 5.4744672775268555
14.941293716430664 15.555551528930664 4.019192218780518
9.032685279846191 15.645082473754883 3.3663408756256104
5.644211292266846 14.882563591003418 2.9659886360168457
4.310632228851318 14.882011413574219 2.887136697769165
3.2113890647888184 15.730385780334473 2.9916961193084717
-0.5996435284614563 14.880000114440918 2.7750213146209717
-4.45693826675415 21.831472396850586 4.152030944824219
-12.265286445617676 21.244081497192383 4.571078300476074
-12.14527416229248 14.875288009643555 3.5784568786621094
-14.824565887451172 15.4340181350708 3.9877941608428955
-17.175443649291992 15.216117858886719 4.275839328765869
14.941288948059082 15.555551528930664 3.772379159927368
12.970253944396973 15.885698318481445 3.58685040473938
10.273999214172363 14.8844575881958 3.163220167160034
5.644211292266846 14.882563591003418 2.7838499546051025
4.376174449920654 21.435880661010742 3.826441526412964
1.8987743854522705 15.637812614440918 2.755127429962158
0.6261010766029358 15.5365571975708 2.719536066055298
-0.5586889386177063 13.86373519897461 2.42672061920166
-1.8576562404632568 15.299111366271973 2.6954545974731445
-5.749392032623291 15.159912109375 2.8357293605804443
-7.059394359588623 14.877367973327637 2.8801090717315674
-12.372071266174316 21.429040908813477 4.3277387619018555
-15.005072593688965 15.621943473815918 3.788480758666992
-17.175092697143555 15.21580982208252 4.013184547424316
-20.16634750366211 15.154027938842773 4.411916255950928
-23.223669052124023 14.685770988464355 4.805779933929443
9.67653751373291 6.119081974029541 1.871906042098999
15.196908950805664 15.821674346923828 3.58685040473938
10.274003982543945 14.8844575881958 2.957064151763916
11.430194854736328 19.79769515991211 3.7376818656921387
9.697494506835938 20.43707275390625 3.698558807373047
5.644213676452637 14.882563591003418 2.6024169921875
4.310629844665527 14.882011413574219 2.5332324504852295
0.6260961890220642 15.5365571975708 2.5422914028167725
-6.207736492156982 21.431556701660156 3.648096799850464
-12.372071266174316 21.429040908813477 4.0456647872924805
-12.145281791687012 14.875288009643555 3.13981556892395
17.646556854248047 15.633505821228027 3.58685040473938
13.2130126953125 16.183027267456055 3.1785595417022705
9.697489738464355 20.43707275390625 3.4416394233703613
5.644211292266846 14.882563591003418 2.4216408729553223
4.310627460479736 14.882011413574219 2.3572616577148438
2.7112669944763184 22.329296112060547 3.422191619873047
0.6051562428474426 15.01686954498291 2.2865617275238037
-0.5536352396011353 13.738329887390137 2.0918829441070557
-5.756879806518555 15.179657936096191 2.469982862472534
-12.372066497802734 21.429040908813477 3.7646563053131104
-12.145281791687012 14.875288009643555 2.921705961227417
-17.174184799194336 15.215004920959473 3.490833044052124
-20.54385757446289 15.43770980834961 3.909721612930298
-23.51602554321289 14.870644569396973 4.23314094543457
9.678149223327637 6.120097637176514 1.6125338077545166
17.97966766357422 15.928617477416992 3.3826634883880615
13.003642082214355 15.926591873168945 2.895456552505493
11.801762580871582 20.441253662109375 3.3239288330078125
4.310632228851318 14.882011413574219 2.181882858276367
3.1021924018859863 15.195507049560547 2.184021472930908
-0.5493432283401489 13.631875038146973 1.9212441444396973
-4.557961463928223 22.32632827758789 3.2089202404022217
-6.207744121551514 21.431556701660156 3.142120361328125
-5.699643611907959 15.028739929199219 2.2634880542755127
-7.059394359588623 14.877367973327637 2.3189809322357178
-12.372066497802734 21.429040908813477 3.4845542907714844
-23.51601791381836 14.870644569396973 3.918185234069824
9.678950309753418 6.12060546875 1.4834585189819336
15.29857349395752 15.927518844604492 2.8608312606811523
10.273999214172363 14.8844575881958 2.3428590297698975
9.697489738464355 20.43707275390625 2.9303252696990967
0.6073071360588074 15.070345878601074 1.9537872076034546
-0.5996410846710205 14.880000114440918 1.9291088581085205
-4.585314750671387 22.460317611694336 2.96950626373291
-4.73931884765625 16.361982345581055 2.2066421508789062
-5.719313621520996 15.080599784851074 2.089301109313965
-7.059394359588623 14.877367973327637 2.133166551589966
-15.013882637023926 15.631117820739746 2.8075945377349854
-17.11654281616211 15.163935661315918 2.9622209072113037
9.679750442504883 6.121113300323486 1.354702115058899
21.198871612548828 15.929926872253418 3.1366405487060547
17.979673385620117 15.928617477416992 2.8413403034210205
3.2156126499176025 15.751108169555664 1.901591181755066
-0.5996410846710205 14.880000114440918 1.7615487575531006
-4.585317134857178 22.460317611694336 2.7115776538848877
-5.751665115356445 15.165907859802246 1.9186174869537354
-7.059394359588623 14.877367973327637 1.9478673934936523
-10.461957931518555 15.156733512878418 2.178481101989746
-15.022872924804688 15.640478134155273 2.565265417098999
-17.180692672729492 15.220770835876465 2.7150793075561523
9.680551528930664 6.121615886688232 1.2262886762619019
12.699955940246582 15.554648399353027 2.149949073791504
9.697494506835938 20.43707275390625 2.4219393730163574
5.644211292266846 14.882563591003418 1.7041467428207397
4.310629844665527 14.882011413574219 1.6588467359542847
3.216005802154541 15.753022193908691 1.721388816833496
2.727541446685791 22.46330451965332 2.422703266143799
0.610705554485321 15.154696464538574 1.6238579750061035
-1.8410155773162842 15.162059783935547 1.635252594947815
-4.585314750671387 22.460317611694336 2.454319477081299
-5.751454830169678 15.165355682373047 1.7365264892578125
-12.372068405151367 21.429040908813477 2.6492443084716797
-15.076812744140625 15.696625709533691 2.330223321914673
-17.180692672729492 15.220766067504883 2.4574859142303467
-20.742870330810547 15.587260246276855 2.777985095977783
-23.516019821166992 14.870644569396973 2.9789276123046875
18.2691593170166 16.185087203979492 2.3399243354797363
14.941288948059082 15.555551528930664 2.0678014755249023
5.644213676452637 14.882563591003418 1.5259466171264648
4.310629844665527 14.882011413574219 1.4853774309158325
3.2164013385772705 15.7549409866333 1.541573405265808
0.6106860041618347 15.154189109802246 1.4540045261383057
-0.5412060618400574 13.429902076721191 1.288563847541809
-6.207741737365723 21.431556701660156 2.1390862464904785
-12.145281791687012 14.875288009643555 1.8410619497299194
-20.776147842407227 15.612265586853027 2.491486072540283
-23.516019821166992 14.870644569396973 2.6674156188964844
9.682143211364746 6.122622013092041 0.9702606201171875
10.273999214172363 14.8844575881958 1.531830072402954
9.22396469116211 15.976381301879883 1.5625011920928955
2.705209970474243 22.27939224243164 1.9008724689483643
0.6106714010238647 15.15367603302002 1.2845226526260376
-0.5996410846710205 14.880000114440918 1.261324405670166
-4.547773361206055 22.276430130004883 1.9256783723831177
-6.207746505737305 21.431556701660156 1.8898217678070068
-5.751035213470459 15.164257049560547 1.373643159866333
-7.059394359588623 14.877367973327637 1.3947417736053467
-12.372074127197266 21.429040908813477 2.095764636993408
-10.555412292480469 15.292119026184082 1.5738015174865723
-12.145283699035645 14.875288009643555 1.6264967918395996
-17.11216926574707 15.160067558288574 1.9363397359848022
-21.859437942504883 16.42630386352539 2.315917730331421
-23.51602554321289 14.870644569396973 2.356574058532715
9.682934761047363 6.123125076293945 0.8426012992858887
20.703798294067383 15.557900428771973 1.9046977758407593
17.559764862060547 15.556620597839355 1.7253789901733398
14.941293716430664 15.555551528930664 1.58632230758667
12.699960708618164 15.554643630981445 1.4768725633621216
10.273999214172363 14.8844575881958 1.3301628828048706
9.22427749633789 15.9769287109375 1.3568408489227295
9.697494506835938 20.43707275390625 1.6637102365493774
5.644211292266846 14.882563591003418 1.170636534690857
0.6106420755386353 15.153168678283691 1.1153711080551147
-0.5996410846710205 14.880000114440918 1.0952636003494263
-1.8408275842666626 15.160527229309082 1.1231963634490967
-4.547775745391846 22.276430130004883 1.6721524000167847
-5.750832557678223 15.163710594177246 1.1927525997161865
-12.372066497802734 21.429040908813477 1.819856882095337
-10.55578327178955 15.292675018310547 1.3666507005691528
-17.11127471923828 15.159281730651855 1.6813174486160278
9.683730125427246 6.123622894287109 0.7151187062263489
12.699955940246582 15.554643630981445 1.253318428993225
10.273999214172363 14.8844575881958 1.1288135051727295
9.697500228881836 20.43707275390625 1.4118740558624268
5.644216060638428 14.882563591003418 0.993436872959137
4.310632228851318 14.882011413574219 0.9670223593711853
0.6106225252151489 15.152660369873047 0.9465044736862183
-0.5996435284614563 14.880000114440918 0.9294735789299011
-1.8407665491104126 15.160014152526855 0.9531463384628296
-4.547775745391846 22.276430130004883 1.4190384149551392
-5.750622272491455 15.163164138793945 1.0121667385101318
-12.372071266174316 21.429040908813477 1.5443823337554932
-12.145286560058594 14.875288009643555 1.1985925436019897
20.70380401611328 15.557900428771973 1.3284679651260376
17.559770584106445 15.556615829467773 1.2033981084823608
14.941288948059082 15.555551528930664 1.1064108610153198
12.699951171875 15.554643630981445 1.0300729274749756
10.273999214172363 14.8844575881958 0.9277645945549011
9.697494506835938 20.43707275390625 1.160386323928833
5.644211292266846 14.882563591003418 0.8164822459220886
3.217968702316284 15.7626314163208 0.8252468705177307
-1.8407055139541626 15.159506797790527 0.7833425998687744
-6.207744121551514 21.431556701660156 1.1445471048355103
-5.750417232513428 15.162616729736328 0.8318465948104858
-7.059396743774414 14.877367973327637 0.8447127938270569
-10.55654239654541 15.2937593460083 0.9532613754272461
-12.145278930664062 14.875288009643555 0.9850939512252808
9.685312271118164 6.12462854385376 0.46057647466659546
17.559755325317383 15.556611061096191 0.9428839087486267
14.941279411315918 15.5555419921875 0.8668920993804932
12.699951171875 15.554633140563965 0.8070806860923767
9.225214958190918 15.978549003601074 0.7415618896484375
9.697500228881836 20.43707275390625 0.909183919429779
5.644208908081055 14.882563591003418 0.6397289633750916
4.310632228851318 14.882011413574219 0.6227261424064636
3.2183618545532227 15.764570236206055 0.646675705909729
-1.8406420946121216 15.158998489379883 0.6137420535087585
-4.584011077880859 22.453935623168945 0.9211050271987915
-6.207741737365723 21.431556701660156 0.8967760801315308
-7.059394359588623 14.877367973327637 0.661853015422821
-12.372063636779785 21.429040908813477 0.9945245385169983
-10.5569429397583 15.29433536529541 0.7469246983528137
-23.516035079956055 14.870644569396973 1.1182650327682495
9.686098098754883 6.125126838684082 0.33347442746162415
14.941279411315918 15.5555419921875 0.6275891065597534
9.697494506835938 20.43707275390625 0.6582058668136597
5.644211292266846 14.882563591003418 0.4631335437297821
2.7364110946655273 22.53641128540039 0.6605566143989563
-0.5996459722518921 14.880000114440918 0.4333142042160034
-6.207744121551514 21.431556701660156 0.6492242217063904
-5.750004768371582 15.161527633666992 0.4718133509159088
-7.059396743774414 14.877367973327637 0.47914060950279236
-12.372071266174316 21.429040908813477 0.7199835181236267
-17.107757568359375 15.156156539916992 0.6650329232215881
-23.516019821166992 14.870644569396973 0.8095883131027222
20.70378875732422 15.557889938354492 0.4663989245891571
9.225839614868164 15.979628562927246 0.3322955369949341
9.697489738464355 20.43707275390625 0.4073888957500458
5.644211292266846 14.882563591003418 0.28665098547935486
3.2191405296325684 15.768373489379883 0.289833664894104
0.6105419993400574 15.150614738464355 0.273072212934494
-0.5996435284614563 14.880000114440918 0.2681945860385895
-4.584011077880859 22.453927993774414 0.41271817684173584
-6.207741737365723 21.431556701660156 0.40183165669441223
-5.749794960021973 15.160981178283691 0.292013555765152
-17.106884002685547 15.155375480651855 0.41159239411354065
-23.51602554321289 14.870644569396973 0.5010931491851807
20.703792572021484 15.557889938354492 0.17936614155769348
5.644211292266846 14.882563591003418 0.11023925244808197
2.7364158630371094 22.53641128540039 0.1572314351797104
-1.8404589891433716 15.157475471496582 0.10575073212385178
-6.207746505737305 21.431556701660156 0.15454070270061493
-5.749589920043945 15.160433769226074 0.11229857802391052
-12.372071266174316 21.429040908813477 0.17138823866844177
-10.558144569396973 15.296098709106445 0.12872527539730072
15.298563957214355 15.92751407623291 -0.09177551418542862
10.273999214172363 14.8844575881958 -0.0751412957906723
9.697489738464355 20.43707275390625 -0.09400603920221329
0.6105053424835205 15.1495943069458 -0.06300796568393707
-0.5996435284614563 14.880000114440918 -0.06188705191016197
-1.8404003381729126 15.156967163085938 -0.06344970315694809
-6.207744121551514 21.431556701660156 -0.09271697700023651
-5.74938440322876 15.159892082214355 -0.06738036870956421
-7.059396743774414 14.877367973327637 -0.06843719631433487
-10.558545112609863 15.296659469604492 -0.07723373174667358
-14.815082550048828 6.312089920043945 -0.06692077219486237
9.689257621765137 6.127123832702637 -0.17469511926174164
9.226777076721191 15.981249809265137 -0.2811976671218872
9.697494506835938 20.43707275390625 -0.3447045683860779
5.644213676452637 14.882563591003418 -0.24254363775253296
3.2203149795532227 15.774120330810547 -0.2453262209892273
2.7364158630371094 22.53641128540039 -0.34593552350997925
-0.5996410846710205 14.880000114440918 -0.2269287109375
-1.840334415435791 15.15645980834961 -0.23265273869037628
-6.207744121551514 21.431556701660156 -0.33999937772750854
-5.749179363250732 15.159345626831055 -0.24705688655376434
-7.059396743774414 14.877367973327637 -0.25093016028404236
-12.372063636779785 21.429040908813477 -0.3770388662815094
-14.802701950073242 6.306821346282959 -0.2451852411031723
9.690048217773438 6.127622127532959 -0.30180084705352783
13.2130126953125 16.18301773071289 -0.5499696135520935
10.273999214172363 14.8844575881958 -0.4760909974575043
9.697494506835938 20.43707275390625 -0.5954903960227966
5.644213676452637 14.882563591003418 -0.4190026819705963
4.310632228851318 14.882011413574219 -0.4078599512577057
2.7364208698272705 22.53641128540039 -0.597614586353302
0.6104663014411926 15.148573875427246 -0.3991023302078247
-0.5996410846710205 14.880000114440918 -0.3920254409313202
-6.207736492156982 21.431556701660156 -0.587369978427887
-5.748969554901123 15.15880298614502 -0.42678070068359375
-10.559345245361328 15.29784107208252 -0.4893176257610321
-12.145281791687012 14.875288009643555 -0.5055068731307983
-17.10335350036621 15.152265548706055 -0.6015090942382812
-23.51602554321289 14.870644569396973 -0.7324453592300415
9.690839767456055 6.128119945526123 -0.4290206730365753
9.227431297302246 15.982392311096191 -0.6905310153961182
9.697494506835938 20.43707275390625 -0.8464213609695435
5.644213676452637 14.882563591003418 -0.595568835735321
4.310629844665527 14.882011413574219 -0.5797268748283386
3.2209129333496094 15.777050018310547 -0.6025111079216003
2.7364158630371094 22.53641128540039 -0.8494457602500916
0.6104394197463989 15.14806079864502 -0.5672604441642761
-0.5996410846710205 14.880000114440918 -0.5572226047515869
-6.207741737365723 21.431556701660156 -0.8348724246025085
-5.748764514923096 15.158256530761719 -0.6066012382507324
-12.372071266174316 21.429040908813477 -0.9258338809013367
-23.516021728515625 14.870644569396973 -1.0410866737365723
-14.778002738952637 6.296298503875732 -0.6010484099388123
15.298559188842773 15.927509307861328 -1.0715327262878418
10.273999214172363 14.8844575881958 -0.87749844789505
9.227773666381836 15.982977867126465 -0.895435631275177
5.644211292266846 14.882563591003418 -0.7722776532173157
4.310627460479736 14.882011413574219 -0.7517412900924683
2.7364158630371094 22.53641128540039 -1.1014831066131592
-0.5996435284614563 14.880000114440918 -0.7225532531738281
-4.584011077880859 22.45393180847168 -1.1119213104248047
-7.059396743774414 14.877367973327637 -0.7989863157272339
-12.372074127197266 21.429040908813477 -1.200573205947876
-10.56014633178711 15.298983573913574 -0.9019465446472168
-17.101598739624023 15.150702476501465 -1.1085435152053833
9.69241714477539 6.129120826721191 -0.6838372945785522
15.553505897521973 16.192934036254883 -1.3389278650283813
10.273999214172363 14.8844575881958 -1.078526258468628
9.22811508178711 15.983564376831055 -1.1005864143371582
9.697494506835938 20.43707275390625 -1.3489735126495361
4.310632228851318 14.882011413574219 -0.9239423871040344
3.221389055252075 15.77938461303711 -0.96038818359375
2.7364158630371094 22.53641128540039 -1.3537919521331787
0.610400378704071 15.147040367126465 -0.904001772403717
-5.74835205078125 15.157167434692383 -0.9666945934295654
-12.372071266174316 21.429040908813477 -1.4755730628967285
-10.560551643371582 15.299579620361328 -1.1085995435714722
-12.145281791687012 14.875288009643555 -1.1451938152313232
-17.100709915161133 15.149911880493164 -1.36240553855896
-23.516021728515625 14.870644569396973 -1.659214735031128
-14.75334358215332 6.285790920257568 -0.9563148021697998
28.7675724029541 7.090576171875 -2.096574306488037
14.941279411315918 15.5555419921875 -1.5262582302093506
12.169418334960938 14.904852867126465 -1.3615936040878296
10.273999214172363 14.8844575881958 -1.279797077178955
9.2284517288208 15.984159469604492 -1.306040644645691
9.697494506835938 20.43707275390625 -1.600716233253479
4.310632228851318 14.882011413574219 -1.0963637828826904
3.221625804901123 15.780546188354492 -1.1397039890289307
2.7364184856414795 22.53641128540039 -1.6064345836639404
0.6103759407997131 15.146528244018555 -1.0726690292358398
-0.5996435284614563 14.880000114440918 -1.05379319190979
-1.8400243520736694 15.15389633178711 -1.080196499824524
-5.748144626617432 15.156620979309082 -1.1470518112182617
-7.059396743774414 14.877367973327637 -1.1652542352676392
-12.145281791687012 14.875288009643555 -1.3588885068893433
-17.03266143798828 15.089628219604492 -1.610217809677124
28.29021453857422 4.597621917724609 -2.347599983215332
9.694008827209473 6.130126953125 -0.9394456148147583
22.828447341918945 17.154470443725586 -2.338927984237671
14.9412841796875 15.5555419921875 -1.7666677236557007
12.16942310333252 14.904852867126465 -1.5760680437088013
10.273999214172363 14.8844575881958 -1.481371521949768
9.228798866271973 15.984755516052246 -1.5118212699890137
9.697494506835938 20.43707275390625 -1.8528573513031006
2.7364158630371094 22.53641128540039 -1.8594753742218018
-0.5996459722518921 14.880000114440918 -1.2197849750518799
-1.8399609327316284 15.1533784866333 -1.250302791595459
-5.747929573059082 15.156068801879883 -1.327686071395874
-12.372071266174316 21.429040908813477 -2.0267386436462402
-17.03177261352539 15.088851928710938 -1.8637588024139404
-14.7287015914917 6.275292873382568 -1.3113346099853516
-27.186317443847656 9.076128005981445 -2.347599983215332
26.773061752319336 2.1613523960113525 -2.5
24.48982810974121 6.036215782165527 -2.347599983215332
23.92469596862793 7.987250804901123 -2.347599983215332
23.20441436767578 9.886479377746582 -2.347599983215332
22.33363151550293 11.721606254577637 -2.347599983215332
9.694804191589355 6.130629539489746 -1.0676199197769165
20.16415023803711 15.152382850646973 -2.347599983215332
12.16942310333252 14.904852867126465 -1.7909307479858398
9.175272941589355 15.892040252685547 -1.7079708576202393
3.22210693359375 15.782890319824219 -1.4992867708206177
2.7364184856414795 22.53641128540039 -2.1129748821258545
0.610339343547821 15.14549732208252 -1.410805583000183
-4.584008693695068 22.453920364379883 -2.132997512817383
-7.059396743774414 14.877367973327637 -1.5326921939849854
-12.372066497802734 21.429040908813477 -2.3030388355255127
-17.472415924072266 18.190717697143555 -2.347599983215332
-22.33365249633789 11.721576690673828 -2.347599983215332
-25.88051986694336 4.206005573272705 -2.4404234886169434
-26.773061752319336 2.1613378524780273 -2.5
23.977563858032227 0.0 -2.5
23.899818420410156 1.9293944835662842 -2.5
9.695605278015137 6.13113260269165 -1.1960563659667969
18.000165939331055 13.526240348815918 -2.347599983215332
16.853374481201172 14.930805206298828 -2.347599983215332
9.175585746765137 15.892592430114746 -1.9133676290512085
9.652382850646973 20.34202766418457 -2.347599983215332
5.644213676452637 14.882563591003418 -1.6595633029937744
4.310629844665527 14.882011413574219 -1.6154444217681885
3.1481714248657227 15.42074203491211 -1.6409931182861328
2.713991641998291 22.35171890258789 -2.347599983215332
-0.5996435284614563 14.880000114440918 -1.5527077913284302
-1.8398363590240479 15.15234375 -1.5914489030838013
-6.207734107971191 21.431556701660156 -2.326392412185669
-10.501638412475586 15.214238166809082 -1.9274969100952148
-12.145281791687012 14.875288009643555 -2.002260446548462
-16.8533878326416 14.930805206298828 -2.347599983215332
-10.406184196472168 4.433652400970459 -1.1793639659881592
-21.861650466918945 5.388422966003418 -2.347599983215332
-23.652008056640625 3.8438377380371094 -2.4984092712402344
21.648895263671875 9.765624781721272e-06 -2.5
18.000585556030273 9.447441101074219 -2.347599983215332
16.252012252807617 12.212592124938965 -2.347599983215332
15.216596603393555 13.480741500854492 -2.347599983215332
14.082504272460938 14.661459922790527 -2.347599983215332
12.134828567504883 14.862480163574219 -2.2157211303710938
8.714950561523438 18.366405487060547 -2.347599983215332
4.310629844665527 14.882011413574219 -1.78920316696167
3.1485400199890137 15.422529220581055 -1.817718744277954
0.6080297827720642 15.088266372680664 -1.7437975406646729
-1.8327611684799194 15.094100952148438 -1.755859375
-4.066362380981445 19.9183349609375 -2.347599983215332
-5.724906921386719 15.095351219177246 -1.8643534183502197
-10.502033233642578 15.214789390563965 -2.1349096298217773
-12.145283699035645 14.875288009643555 -2.2176196575164795
-14.082512855529785 14.661455154418945 -2.347599983215332
-18.000595092773438 9.447426795959473 -2.347599983215332
-21.368541717529297 3.4727439880371094 -2.5
-21.578693389892578 1.7420116662979126 -2.5
19.664012908935547 1.5874511003494263 -2.5
17.9870548248291 4.433413028717041 -2.347599983215332
17.042953491210938 7.261318206787109 -2.347599983215332
16.403392791748047 8.60916519165039 -2.347599983215332
13.866376876831055 12.28433609008789 -2.347599983215332
11.71627426147461 14.34984302520752 -2.347599983215332
10.274003982543945 14.8844575881958 -2.2918968200683594
7.941674709320068 16.73674964904785 -2.347599983215332
4.310629844665527 14.882011413574219 -1.9634270668029785
2.232988119125366 18.390289306640625 -2.347599983215332
0.6080077886581421 15.08775806427002 -1.9135260581970215
-0.5996410846710205 14.880000114440918 -1.887176752090454
-1.8327001333236694 15.093588829040527 -1.926761269569397
-7.059396743774414 14.877367973327637 -2.0867881774902344
-9.262690544128418 16.043432235717773 -2.347599983215332
-10.502431869506836 15.215385437011719 -2.3428738117218018
-11.71627426147461 14.349848747253418 -2.347599983215332
-12.832966804504395 13.360541343688965 -2.347599983215332
-13.866436004638672 12.284594535827637 -2.347599983215332
-13.69872760772705 7.189633846282959 -1.9605157375335693
-10.492765426635742 4.470541954040527 -1.4453362226486206
-17.571985244750977 5.866386413574219 -2.347599983215332
-19.66401481628418 1.587441325187683 -2.5
18.11605453491211 0.0 -2.5
18.057310104370117 1.4577343463897705 -2.5
17.881454467773438 2.9060254096984863 -2.5
15.65041446685791 6.668012619018555 -2.347599983215332
9.698007583618164 6.132660865783691 -1.583451509475708
12.73343276977539 11.280844688415527 -2.347599983215332
11.784408569335938 12.26888656616211 -2.347599983215332
10.758959770202637 13.177352905273438 -2.347599983215332
9.663744926452637 14.00035572052002 -2.347599983215332
8.505839347839355 14.732563018798828 -2.347599983215332
7.29278039932251 15.369237899780273 -2.347599983215332
4.310627460479736 14.882011413574219 -2.1381213665008545
3.149306535720825 15.426313400268555 -2.1727278232574463
2.050534725189209 16.887664794921875 -2.347599983215332
-0.5996459722518921 14.880000114440918 -2.0550944805145264
-4.732958793640137 16.340038299560547 -2.347599983215332
-5.724489688873291 15.094252586364746 -2.227761745452881
-7.059396743774414 14.877367973327637 -2.2724685668945312
-11.784416198730469 12.268881797790527 -2.347599983215332
-12.733443260192871 11.280844688415527 -2.347599983215332
-13.599884986877441 10.219633102416992 -2.347599983215332
-10.408403396606445 4.43459939956665 -1.5612847805023193
-16.13621711730957 5.387055397033691 -2.347599983215332
-17.08635711669922 4.211415767669678 -2.42846941947937
-18.05731201171875 1.4577343463897705 -2.5
16.743759155273438 4.882812390860636e-06 -2.5
16.229633331298828 4.000253677368164 -2.4957587718963623
14.913890838623047 4.978993892669678 -2.347599983215332
14.464892387390137 6.162909984588623 -2.347599983215332
9.69881820678711 6.133168697357178 -1.713371753692627
12.569677352905273 9.445502281188965 -2.347599983215332
10.891737937927246 11.33951187133789 -2.347599983215332
9.943964958190918 12.17916488647461 -2.347599983215332
6.740348815917969 14.205009460449219 -2.347599983215332
5.575470924377441 14.701322555541992 -2.347599983215332
1.89520263671875 15.608417510986328 -2.347599983215332
-0.5996410846710205 14.880000114440918 -2.223527193069458
-1.8325780630111694 15.092557907104492 -2.2700114250183105
-4.374440670013428 15.102279663085938 -2.347599983215332
-7.861533164978027 13.616561889648438 -2.347599983215332
-8.931733131408691 12.93980884552002 -2.347599983215332
-11.768881797790527 10.426318168640137 -2.347599983215332
-12.569686889648438 9.445497512817383 -2.347599983215332
-13.288972854614258 8.403437614440918 -2.347599983215332
-10.408823013305664 4.434775352478027 -1.6893136501312256
-14.913896560668945 4.978993892669678 -2.347599983215332
-16.229631423950195 4.000248908996582 -2.495758533477783
-16.526927947998047 2.6858935356140137 -2.5
-16.689464569091797 1.3473095893859863 -2.5
15.561088562011719 0.0 -2.5
15.510629653930664 1.2521435022354126 -2.5
15.10891056060791 3.724013566970825 -2.5
13.443182945251465 5.727597713470459 -2.347599983215332
6.48070764541626 4.869936466217041 -1.3023719787597656
10.122416496276855 10.538564682006836 -2.347599983215332
8.300837516784668 12.025839805603027 -2.347599983215332
2.9228808879852295 14.31717300415039 -2.347599983215332
-0.5883837938308716 14.600629806518555 -2.347599983215332
-5.181657791137695 13.662909507751465 -2.347599983215332
-8.300847053527832 12.025835037231445 -2.347599983215332
-9.241591453552246 11.3189058303833 -2.347599983215332
-12.350323677062988 7.809877872467041 -2.347599983215332
-10.40924072265625 4.434956073760986 -1.8177776336669922
-15.108912467956543 3.724008798599243 -2.5
-15.359575271606445 2.4961814880371094 -2.5
-15.510628700256348 1.2521483898162842 -2.5
14.483935356140137 1.1692675352096558 -2.5
14.342880249023438 2.3309521675109863 -2.5
12.943007469177246 4.321005821228027 -2.347599983215332
12.553339958190918 5.348476409912109 -2.347599983215332
10.529946327209473 5.526537895202637 -2.045978546142578
8.600542068481445 5.438662052154541 -1.750707983970642
6.353923320770264 4.774662971496582 -1.3674057722091675
8.497802734375 7.528398036956787 -1.9532188177108765
7.751381874084473 11.229809761047363 -2.347599983215332
6.822619438171387 11.81712818145752 -2.347599983215332
5.849606990814209 12.327797889709473 -2.347599983215332
3.796342611312866 13.1065034866333 -2.347599983215332
1.6447484493255615 13.545751571655273 -2.347599983215332
0.5494628548622131 13.634340286254883 -2.347599983215332
-0.5494384765625 13.634174346923828 -2.347599983215332
-1.6447631120681763 13.545756340026855 -2.347599983215332
-4.838666915893555 12.758520126342773 -2.347599983215332
-5.849614143371582 12.32779312133789 -2.347599983215332
-6.822621822357178 11.817118644714355 -2.347599983215332
-7.751393795013428 11.229804039001465 -2.347599983215332
-8.629862785339355 10.56966781616211 -2.347599983215332
-9.452387809753418 9.840981483459473 -2.347599983215332
-12.943011283874512 4.321010589599609 -2.347599983215332
-14.48393440246582 1.1692675352096558 -2.5
13.581483840942383 1.0964159965515137 -2.5
13.449223518371582 2.185717821121216 -2.5
10.52994155883789 5.526537895202637 -2.1819279193878174
8.86343765258789 9.227827072143555 -2.347599983215332
8.092167854309082 9.911112785339355 -2.347599983215332
6.397531509399414 11.080839157104492 -2.347599983215332
5.485134124755859 11.559697151184082 -2.347599983215332
4.537182331085205 11.963579177856445 -2.347599983215332
2.559340715408325 12.536469459533691 -2.347599983215332
1.5422704219818115 12.701766967773438 -2.347599983215332
0.51519775390625 12.784677505493164 -2.347599983215332
-2.5593504905700684 12.53641128540039 -2.347599983215332
-3.559816837310791 12.289873123168945 -2.347599983215332
-4.537187576293945 11.963574409484863 -2.347599983215332
-7.2684326171875 10.530107498168945 -2.347599983215332
-8.092164993286133 9.911108016967773 -2.347599983215332
-9.577231407165527 8.484686851501465 -2.347599983215332
-10.814249992370605 6.838520526885986 -2.347599983215332
-11.329460144042969 5.946152210235596 -2.347599983215332
-12.608914375305176 4.20947265625 -2.4389662742614746
-13.449220657348633 2.1857128143310547 -2.5
-13.581488609313965 1.096411108970642 -2.5
12.82345199584961 0.0 -2.5
12.781865119934082 1.0318603515625 -2.5
12.138568878173828 4.052446365356445 -2.4948740005493164
11.07814884185791 4.719946384429932 -2.347599983215332
10.3021821975708 5.407001972198486 -2.2682793140411377
8.56820297241211 5.418208122253418 -1.976377248764038
7.615732192993164 9.327582359313965 -2.347599983215332
6.840480804443359 9.910146713256836 -2.347599983215332
6.020861625671387 10.428446769714355 -2.347599983215332
4.270056247711182 11.2592134475708 -2.347599983215332
3.350222110748291 11.566298484802246 -2.347599983215332
1.4514672756195068 11.953935623168945 -2.347599983215332
0.4848657250404358 12.031962394714355 -2.347599983215332
-1.451479434967041 11.953930854797363 -2.347599983215332
-3.350224494934082 11.566298484802246 -2.347599983215332
-5.162197113037109 10.879106521606445 -2.347599983215332
-6.840493202209473 9.910136222839355 -2.347599983215332
-8.341596603393555 8.684521675109863 -2.347599983215332
-10.4113130569458 4.435839653015137 -2.2062630653381348
-12.138567924499512 4.052441120147705 -2.4948737621307373
-12.450820922851562 3.068852424621582 -2.5
-12.65738582611084 2.0570311546325684 -2.5
12.107514381408691 0.0 -2.5
11.95071792602539 1.9421825408935547 -2.5
11.478036880493164 3.8319334983825684 -2.4986114501953125
10.4596529006958 4.456435680389404 -2.347599983215332
5.379521369934082 4.765849590301514 -1.4839894771575928
6.458579063415527 9.356860160827637 -2.347599983215332
5.68472146987915 9.84622573852539 -2.347599983215332
4.031657695770264 10.630610466003418 -2.347599983215332
2.274182081222534 11.13967227935791 -2.347599983215332
0.4577954113483429 11.36021900177002 -2.347599983215332
-0.4578027129173279 11.36021900177002 -2.347599983215332
-1.3704394102096558 11.286542892456055 -2.347599983215332
-3.1631834506988525 10.920546531677246 -2.347599983215332
-4.8739914894104 10.271718978881836 -2.347599983215332
-5.68472146987915 9.84621524810791 -2.347599983215332
-6.458583831787109 9.356855392456055 -2.347599983215332
-7.190544128417969 8.8068208694458 -2.347599983215332
-9.089218139648438 6.830102443695068 -2.347599983215332
-11.478039741516113 3.8319334983825684 -2.4986112117767334
-11.755690574645996 2.897514581680298 -2.5
-11.950724601745605 1.9421874284744263 -2.5
-12.068251609802246 0.9742480516433716 -2.5
11.427343368530273 0.9225097298622131 -2.5
11.316049575805664 1.8390380144119263 -2.5
11.131376266479492 2.743642568588257 -2.5
9.532499313354492 5.003041744232178 -2.347599983215332
8.510468482971191 5.381709098815918 -2.195749521255493
6.303630352020264 4.736869812011719 -1.7194421291351318
6.808674335479736 8.339120864868164 -2.347599983215332
4.61514139175415 9.726215362548828 -2.347599983215332
2.995187997817993 10.340585708618164 -2.347599983215332
2.1534080505371094 10.548075675964355 -2.347599983215332
1.2976586818695068 10.687143325805664 -2.347599983215332
-3.8175463676452637 10.066044807434082 -2.347599983215332
-4.615149021148682 9.726215362548828 -2.347599983215332
-6.115585803985596 8.859930992126465 -2.347599983215332
-8.05819320678711 7.138935565948486 -2.347599983215332
-9.099011421203613 5.753867149353027 -2.347599983215332
-10.874516487121582 3.630444288253784 -2.5
-11.131379127502441 2.743642568588257 -2.5
-11.316054344177246 1.8390429019927979 -2.5
10.84841251373291 0.8757763504981995 -2.5
10.742758750915527 1.7458739280700684 -2.5
10.5674409866333 2.6046385765075684 -2.5
8.494857788085938 5.371830940246582 -2.3086843490600586
6.303630352020264 4.736869812011719 -1.8112016916275024
7.079799652099609 7.370854377746582 -2.347599983215332
5.805751800537109 8.411088943481445 -2.347599983215332
5.110116958618164 8.85097599029541 -2.347599983215332
4.381332874298096 9.233476638793945 -2.347599983215332
3.6241455078125 9.556083679199219 -2.347599983215332
0.4115234315395355 10.21193790435791 -2.347599983215332
-2.044313907623291 10.013681411743164 -2.347599983215332
-3.62414288520813 9.556078910827637 -2.347599983215332
-4.381335258483887 9.233466148376465 -2.347599983215332
-5.110116958618164 8.850971221923828 -2.347599983215332
-5.805758953094482 8.411078453063965 -2.347599983215332
-7.079799652099609 7.370849609375 -2.347599983215332
-7.649953365325928 6.777265548706055 -2.347599983215332
-8.170490264892578 6.139721393585205 -2.347599983215332
-8.638039588928223 5.462368011474609 -2.347599983215332
-9.049567222595215 4.749570369720459 -2.347599983215332
-10.323588371276855 3.4465184211730957 -2.5
-10.567448616027832 2.6046435832977295 -2.5
-10.848410606384277 0.8757714629173279 -2.5
10.35635757446289 0.0 -2.5
10.322768211364746 0.8333398103713989 -2.5
10.055415153503418 2.478442430496216 -2.5
9.823378562927246 3.2795262336730957 -2.5
9.508193016052246 4.051059246063232 -2.4948976039886475
8.219496726989746 5.197700023651123 -2.347599983215332
6.303630352020264 4.736869812011719 -1.9034277200698853
6.150544166564941 7.533066272735596 -2.347599983215332
4.862514495849609 8.422123908996582 -2.347599983215332
2.7056736946105957 9.341069221496582 -2.347599983215332
0.39158201217651367 9.717143058776855 -2.347599983215332
-0.39158445596694946 9.717147827148438 -2.347599983215332
-2.705678701400757 9.341069221496582 -2.347599983215332
-4.169045448303223 8.786078453063965 -2.347599983215332
-4.862519264221191 8.422119140625 -2.347599983215332
-5.524457931518555 8.003535270690918 -2.347599983215332
-6.150546550750732 7.533056259155273 -2.347599983215332
-8.219496726989746 5.197700023651123 -2.347599983215332
-9.508193016052246 4.051059246063232 -2.4948973655700684
-9.823381423950195 3.2795164585113525 -2.5
-10.222246170043945 1.6612744331359863 -2.5
9.843276023864746 0.7946337461471558 -2.5
9.747416496276855 1.5841162204742432 -2.5
9.367084503173828 3.127192258834839 -2.5
9.077826499938965 3.8677000999450684 -2.4980053901672363
8.211100578308105 4.309521198272705 -2.347599983215332
6.303630352020264 4.736869812011719 -1.996148943901062
5.329230785369873 4.721293926239014 -1.80242121219635
5.864853382110596 7.183149337768555 -2.347599983215332
3.9753904342651367 8.377968788146973 -2.347599983215332
2.5799975395202637 8.907172203063965 -2.347599983215332
1.8548998832702637 9.085898399353027 -2.347599983215332
0.37339597940444946 9.265786170959473 -2.347599983215332
-0.37339597940444946 9.265786170959473 -2.347599983215332
-1.1177783012390137 9.205693244934082 -2.347599983215332
-4.636652946472168 8.030913352966309 -2.347599983215332
-5.267841815948486 7.631777286529541 -2.347599983215332
-5.864855766296387 7.183144569396973 -2.347599983215332
-6.941166877746582 6.149335861206055 -2.347599983215332
-7.413476467132568 5.570859432220459 -2.347599983215332
-7.83770227432251 4.956264495849609 -2.347599983215332
-8.211103439331055 4.309511661529541 -2.347599983215332
-9.367087364196777 3.127192258834839 -2.5
-9.58834171295166 2.3633105754852295 -2.5
-9.843280792236328 0.7946240305900574 -2.5
9.434598922729492 0.0 -2.5
9.404004096984863 0.75916987657547 -2.5
8.94906234741211 2.9876365661621094 -2.5
6.303630352020264 4.736869812011719 -2.0893912315368652
5.329230785369873 4.721293926239014 -1.8866146802902222
6.137167930603027 6.389467716217041 -2.347599983215332
5.603125095367432 6.862597465515137 -2.347599983215332
5.032751560211182 7.291201114654541 -2.347599983215332
3.797980785369873 8.0040864944458 -2.347599983215332
2.464860677719116 8.50967788696289 -2.347599983215332
1.77212393283844 8.680424690246582 -2.347599983215332
1.0678906440734863 8.794873237609863 -2.347599983215332
0.35673338174819946 8.852279663085938 -2.347599983215332
-1.067895531654358 8.794873237609863 -2.347599983215332
-1.77212393283844 8.680424690246582 -2.347599983215332
-3.141606330871582 8.283740043640137 -2.347599983215332
-4.429733753204346 7.67251443862915 -2.347599983215332
-5.603122234344482 6.862587928771973 -2.347599983215332
-6.137170314788818 6.389467716217041 -2.347599983215332
-6.63140869140625 5.874917030334473 -2.347599983215332
-7.487934589385986 4.735083103179932 -2.347599983215332
-8.032854080200195 4.215957164764404 -2.403916597366333
-8.949065208435059 2.9876317977905273 -2.5
-9.404008865356445 0.7591650485992432 -2.5
8.306750297546387 3.539174795150757 -2.5
7.971516132354736 4.183774471282959 -2.492648124694824
7.166237831115723 4.531664848327637 -2.347599983215332
6.303630352020264 4.736869812011719 -2.1831839084625244
5.329230785369873 4.721293926239014 -1.971305012702942
4.239426136016846 7.342900276184082 -2.347599983215332
3.006640672683716 7.927865982055664 -2.347599983215332
1.6959911584854126 8.3074951171875 -2.347599983215332
-1.0220141410827637 8.417031288146973 -2.347599983215332
-2.3589720726013184 8.144086837768555 -2.347599983215332
-3.634821653366089 7.660219669342041 -2.347599983215332
-4.239428520202637 7.3428955078125 -2.347599983215332
-4.816542625427246 6.977949142456055 -2.347599983215332
-5.362407207489014 6.567763328552246 -2.347599983215332
-6.778359413146973 5.093598365783691 -2.347599983215332
-7.166242599487305 4.531660079956055 -2.347599983215332
-7.971518516540527 4.183764457702637 -2.492647886276245
-8.766908645629883 2.1608495712280273 -2.5
-8.91235065460205 1.4483983516693115 -2.5
7.962563514709473 3.392529249191284 -2.5
7.649987697601318 4.015024185180664 -2.4955081939697266
6.303630352020264 4.736869812011719 -2.2775540351867676
5.329230785369873 4.721293926239014 -2.0565154552459717
5.630136489868164 5.861606121063232 -2.347599983215332
5.140217304229736 6.295629978179932 -2.347599983215332
4.063769340515137 7.038652420043945 -2.347599983215332
3.484208822250366 7.342822074890137 -2.347599983215332
2.8820605278015137 7.599384784698486 -2.347599983215332
2.261223077774048 7.806645393371582 -2.347599983215332
0.32726073265075684 8.120946884155273 -2.347599983215332
-0.9796704053878784 8.068276405334473 -2.347599983215332
-1.6257201433181763 7.963281154632568 -2.347599983215332
-2.261228084564209 7.806640625 -2.347599983215332
-2.8820605278015137 7.599374771118164 -2.347599983215332
-4.61697244644165 6.688823223114014 -2.347599983215332
-5.140219688415527 6.295629978179932 -2.347599983215332
-5.630138874053955 5.861596584320068 -2.347599983215332
-6.083547115325928 5.389550685882568 -2.347599983215332
-6.49749755859375 4.882548809051514 -2.347599983215332
-6.869311332702637 4.343891620635986 -2.347599983215332
-7.962568283081055 3.392524242401123 -2.5
-8.40365219116211 2.0713133811950684 -2.5
-8.543070793151855 1.3883837461471558 -2.5
8.308684349060059 0.0 -2.5
8.28173542022705 0.6685742139816284 -2.5
7.881081581115723 2.6310887336730957 -2.5
7.643813133239746 3.256718635559082 -2.5
6.237392425537109 4.687099456787109 -2.347599983215332
4.934445858001709 6.04360818862915 -2.347599983215332
4.432143688201904 6.421069145202637 -2.347599983215332
3.9010913372039795 6.756884574890137 -2.347599983215332
2.170703172683716 7.49413537979126 -2.347599983215332
1.56063711643219 7.644501686096191 -2.347599983215332
0.9404491782188416 7.745287895202637 -2.347599983215332
-0.31416258215904236 7.795854091644287 -2.347599983215332
-0.9404540657997131 7.745287895202637 -2.347599983215332
-2.170710325241089 7.494125843048096 -2.347599983215332
-3.344733715057373 7.048881530761719 -2.347599983215332
-3.9010913372039795 6.756879806518555 -2.347599983215332
-4.432146072387695 6.421064376831055 -2.347599983215332
-4.934453010559082 6.04360818862915 -2.347599983215332
-6.675085067749023 4.221064567565918 -2.376349925994873
-8.201086044311523 1.332802653312683 -2.5
7.575783729553223 2.529169797897339 -2.5
5.329230785369873 4.721293926239014 -2.2286059856414795
4.743295669555664 5.809492111206055 -2.347599983215332
3.7499682903289795 6.495136737823486 -2.347599983215332
2.086611270904541 7.203823089599609 -2.347599983215332
1.5001806020736694 7.348369121551514 -2.347599983215332
0.30198973417282104 7.493857383728027 -2.347599983215332
-0.9040209650993347 7.445258617401123 -2.347599983215332
-2.086618661880493 7.203818321228027 -2.347599983215332
-2.6595141887664795 7.012558460235596 -2.347599983215332
-3.215165853500366 6.775820255279541 -2.347599983215332
-4.743298053741455 5.809487342834473 -2.347599983215332
-5.195385456085205 5.408969402313232 -2.347599983215332
-5.995769023895264 4.505527019500732 -2.347599983215332
-6.649785041809082 4.205068111419678 -2.4627468585968018
-7.071972370147705 3.7116503715515137 -2.5
-7.575786113739014 2.5291600227355957 -2.5
-7.883388519287109 1.2811766862869263 -2.5
-7.960912704467773 0.6426659822463989 -2.5
7.662038326263428 0.6185449361801147 -2.5
7.4635910987854 1.8396093845367432 -2.5
7.291364669799805 2.434218645095825 -2.5
6.481584548950195 4.098705768585205 -2.4940898418426514
5.770668983459473 4.336376667022705 -2.347599983215332
5.316513538360596 4.710024356842041 -2.310011148452759
4.100497722625732 5.940605163574219 -2.347599983215332
3.609184503555298 6.251293659210205 -2.347599983215332
2.5596704483032227 6.749291896820068 -2.347599983215332
2.0082788467407227 6.933373928070068 -2.347599983215332
1.4438574314117432 7.072490215301514 -2.347599983215332
0.2906518578529358 7.212514400482178 -2.347599983215332
-0.2906518578529358 7.212514400482178 -2.347599983215332
