ply
format ascii 1.0
element vertex 801
property float x
property float y
property float z
end_header
22.584863662719727 16.97144317626953 7.569769859313965
16.6741943359375 17.35970115661621 6.44965934753418
13.970576286315918 17.110864639282227 5.918937683105469
14.402299880981445 20.865333557128906 6.7933855056762695
13.782480239868164 23.871967315673828 7.386009216308594
14.144906997680664 20.492456436157227 6.377106666564941
13.837265014648438 23.966875076293945 7.087642669677734
19.58588409423828 17.351612091064453 6.393295764923096
13.876508712768555 16.995656967163086 5.360888481140137
26.40751838684082 -1.220703097715159e-06 6.142905235290527
19.874340057373047 17.607160568237305 6.176486015319824
16.318021774291992 16.988868713378906 5.479659080505371
13.876508712768555 16.995656967163086 5.103919982910156
13.771576881408691 19.95159149169922 5.639396667480469
14.156103134155273 24.51910400390625 6.5859808921813965
23.077831268310547 17.34189224243164 6.37877893447876
16.318021774291992 16.988868713378906 5.2051920890808105
23.07784652709961 17.34189224243164 6.044076919555664
16.318002700805664 16.98887062072754 4.932059288024902
13.876508712768555 16.995656967163086 4.5938720703125
13.771576881408691 19.951581954956055 5.075835227966309
22.584877014160156 16.9714412689209 5.588924407958984
13.876513481140137 16.99566078186035 4.340656757354736
13.771576881408691 19.95159912109375 4.796055316925049
13.782480239868164 23.871973037719727 5.453249931335449
16.318021774291992 16.988874435424805 4.389533042907715
13.876513481140137 16.99566078186035 4.08854341506958
22.584857940673828 16.97144317626953 4.941033363342285
13.7715425491333 19.951541900634766 4.240066051483154
13.782480239868164 23.871973037719727 4.82108736038208
16.318002700805664 16.988872528076172 3.8514599800109863
13.782480239868164 23.87196922302246 4.506880283355713
19.16749382019043 16.9809513092041 3.896000385284424
16.331377029418945 17.002771377563477 3.58685040473938
22.58487319946289 16.971446990966797 3.978372812271118
19.16749382019043 16.98094940185547 3.6061363220214844
13.782441139221191 23.87190818786621 3.8817858695983887
22.584867477416992 16.971446990966797 3.6595866680145264
19.585893630981445 17.35161781311035 3.3895933628082275
16.9197940826416 17.61537742614746 3.16399884223938
13.9705810546875 17.110870361328125 2.8614983558654785
13.844623565673828 23.979623794555664 3.58685040473938
13.97057056427002 17.110870361328125 2.6129519939422607
14.156068801879883 24.519044876098633 3.348978281021118
16.919790267944336 17.61537742614746 2.6150689125061035
19.874340057373047 17.607166290283203 2.5455241203308105
23.077850341796875 17.341896057128906 2.4450039863586426
19.874345779418945 17.607166290283203 2.248882293701172
13.876503944396973 16.99566078186035 1.8583565950393677
14.156068801879883 24.519046783447266 2.3979735374450684
22.584867477416992 16.971446990966797 2.0777533054351807
13.7715425491333 19.9515380859375 1.7829885482788086
13.782441139221191 23.871906280517578 2.0273091793060303
22.584867477416992 16.971446990966797 1.763243317604065
13.876508712768555 16.99566078186035 1.3694283962249756
13.7715425491333 19.9515438079834 1.5130987167358398
13.782445907592773 23.87190818786621 1.7204355001449585
19.16749382019043 16.980953216552734 1.313578724861145
16.318021774291992 16.988874435424805 1.2083584070205688
13.876508712768555 16.995662689208984 1.1255013942718506
13.7715425491333 19.951547622680664 1.2435799837112427
13.782445907592773 23.87191390991211 1.4139856100082397
22.584863662719727 16.971446990966797 1.1354501247406006
19.167499542236328 16.980953216552734 1.0292131900787354
16.31802749633789 16.988876342773438 0.9467703104019165
13.876518249511719 16.99566650390625 0.8818508982658386
13.7715425491333 19.951547622680664 0.9743673205375671
13.782445907592773 23.871925354003906 1.107884168624878
19.16749382019043 16.980953216552734 0.745101273059845
16.318031311035156 16.988876342773438 0.6854162216186523
13.876518249511719 16.99566650390625 0.6384182572364807
13.782411575317383 23.871850967407227 0.8020526170730591
22.58488655090332 16.971450805664062 0.508774995803833
19.167499542236328 16.980953216552734 0.46117186546325684
16.31802749633789 16.98887825012207 0.4242309331893921
22.58487319946289 16.971450805664062 0.19566284120082855
13.77150821685791 19.951488494873047 0.16790375113487244
19.29743194580078 17.096065521240234 -0.10713973641395569
16.674213409423828 17.359710693359375 -0.10003264993429184
13.970576286315918 17.11087417602539 -0.09179610759019852
14.156034469604492 24.518978118896484 -0.11765426397323608
19.29743194580078 17.096065521240234 -0.39285627007484436
14.156034469604492 24.518983840942383 -0.43142303824424744
13.970576286315918 17.11087417602539 -0.5815017819404602
14.156034469604492 24.518983840942383 -0.7452968955039978
19.297435760498047 17.096065521240234 -0.9646615386009216
14.156034469604492 24.51898193359375 -1.0593613386154175
25.678524017333984 2.0729992389678955 -1.2499582767486572
16.674222946166992 17.359710693359375 -1.1678831577301025
13.9705810546875 17.11087417602539 -1.0717802047729492
16.811063766479492 24.35503387451172 -1.4358597993850708
13.797856330871582 23.898616790771484 -1.3389278650283813
24.8161563873291 2.0033812522888184 -1.4846848249435425
19.16749382019043 16.980953216552734 -1.5270631313323975
13.9705810546875 17.11087417602539 -1.3172874450683594
13.77150821685791 19.95149803161621 -1.4456837177276611
24.746328353881836 1.9977428913116455 -1.756797432899475
19.16749382019043 16.980953216552734 -1.8120440244674683
13.77150821685791 19.951488494873047 -1.715474247932434
13.782411575317383 23.871850967407227 -1.9505441188812256
27.82850456237793 6.85913610458374 -2.347599983215332
26.367919921875 11.234315872192383 -2.347599983215332
25.37838363647461 13.319610595703125 -2.347599983215332
22.828441619873047 17.154468536376953 -2.338927984237671
16.31802749633789 16.988876342773438 -1.92945396900177
5.733017444610596 28.08218002319336 -2.347599983215332
-1.1541112661361694 28.638187408447266 -2.347599983215332
-7.974101543426514 27.52975082397461 -2.347599983215332
-10.16348648071289 26.798879623413086 -2.347599983215332
-12.286904335021973 25.894086837768555 -2.347599983215332
-16.281503677368164 23.587787628173828 -2.347599983215332
26.86015510559082 7.324218586290954e-06 -2.5
26.773056030273438 2.161346435546875 -2.5
26.5123233795166 4.308686256408691 -2.5
23.924692153930664 7.987248420715332 -2.347599983215332
22.333621978759766 11.72160816192627 -2.347599983215332
21.318021774291992 13.480716705322266 -2.347599983215332
20.16414451599121 15.152387619018555 -2.347599983215332
18.879486083984375 16.725797653198242 -2.347599983215332
13.876518249511719 16.99566650390625 -2.0421578884124756
13.77150821685791 19.951496124267578 -2.256396532058716
12.6113862991333 21.843547821044922 -2.347599983215332
7.017431259155273 24.226892471313477 -2.347599983215332
5.045205116271973 24.713014602661133 -2.347599983215332
-1.0156298875808716 25.202289581298828 -2.347599983215332
-5.045214653015137 24.713029861450195 -2.347599983215332
-10.812822341918945 22.787506103515625 -2.347599983215332
-12.611406326293945 21.843534469604492 -2.347599983215332
-18.606670379638672 19.37160873413086 -2.5
-20.105106353759766 17.81157112121582 -2.5
-22.70195198059082 14.355831146240234 -2.5
-24.710771560668945 10.528264999389648 -2.5
-25.477821350097656 8.505738258361816 -2.5
-26.51229476928711 4.308677673339844 -2.5
-26.773056030273438 2.161332845687866 -2.5
23.97759246826172 7.324218586290954e-06 -2.5
23.89981460571289 1.9294066429138184 -2.5
23.183462142944336 5.714229106903076 -2.4895431995391846
21.357168197631836 7.130077838897705 -2.347599983215332
20.714189529418945 8.82548713684082 -2.347599983215332
19.936845779418945 10.463672637939453 -2.347599983215332
19.03022003173828 12.034002304077148 -2.347599983215332
18.000150680541992 13.526250839233398 -2.347599983215332
15.597318649291992 16.23853874206543 -2.347599983215332
13.876513481140137 16.99566650390625 -2.2876641750335693
12.790488243103027 18.530241012573242 -2.347599983215332
9.652358055114746 20.342029571533203 -2.347599983215332
6.264330863952637 21.6269474029541 -2.347599983215332
4.503764629364014 22.060869216918945 -2.347599983215332
-2.713999032974243 22.35173797607422 -2.347599983215332
-4.503759860992432 22.060880661010742 -2.347599983215332
-9.6524019241333 20.342010498046875 -2.347599983215332
-11.257978439331055 19.499359130859375 -2.347599983215332
-14.240068435668945 17.440940856933594 -2.347599983215332
-16.853368759155273 14.93079948425293 -2.347599983215332
-19.168701171875 14.404328346252441 -2.5
-21.231103897094727 11.142914772033691 -2.5
-22.05890655517578 9.39840030670166 -2.5
-23.66707992553711 3.8462791442871094 -2.5
-23.899824142456055 1.929381012916565 -2.5
21.648895263671875 4.882812390860636e-06 -2.5
21.57869529724121 1.7420226335525513 -2.5
21.01980972290039 5.180932521820068 -2.5
19.333724975585938 6.4545512199401855 -2.3537802696228027
18.702411651611328 7.968357563018799 -2.347599983215332
17.182016372680664 10.865262985229492 -2.347599983215332
16.252012252807617 12.212594985961914 -2.347599983215332
12.8570556640625 15.747110366821289 -2.347599983215332
11.548246383666992 16.730648040771484 -2.347599983215332
10.164579391479492 17.60558319091797 -2.347599983215332
8.714926719665527 18.366432189941406 -2.347599983215332
2.4504101276397705 20.180965423583984 -2.347599983215332
0.8185644149780273 20.31268310546875 -2.347599983215332
-5.655937194824219 19.526540756225586 -2.347599983215332
-7.208818435668945 19.00812530517578 -2.347599983215332
-12.857060432434082 15.747076988220215 -2.347599983215332
-16.25200080871582 12.212583541870117 -2.347599983215332
-18.297422409057617 11.57059097290039 -2.5
-19.16914939880371 10.060721397399902 -2.5
-19.916542053222656 8.485628128051758 -2.5
-21.019853591918945 5.180917739868164 -2.5
-21.36854362487793 3.4727330207824707 -2.5
-21.57870101928711 1.7420018911361694 -2.5
19.72797393798828 4.882812390860636e-06 -2.5
19.472515106201172 3.1646080017089844 -2.5
18.68547248840332 6.23813533782959 -2.4963619709014893
17.042959213256836 7.261325359344482 -2.347599983215332
14.49953556060791 7.609948635101318 -2.0751259326934814
15.657445907592773 9.90118408203125 -2.347599983215332
14.80996036529541 11.128975868225098 -2.347599983215332
13.866411209106445 12.28459644317627 -2.347599983215332
12.832953453063965 13.360543251037598 -2.347599983215332
9.262685775756836 16.043407440185547 -2.347599983215332
7.941659927368164 16.736753463745117 -2.347599983215332
6.569199085235596 17.321483612060547 -2.347599983215332
5.154077053070068 17.7939453125 -2.347599983215332
3.7055418491363525 18.150968551635742 -2.347599983215332
2.2329931259155273 18.3902645111084 -2.347599983215332
0.7459374666213989 18.51032257080078 -2.347599983215332
-2.232983350753784 18.390287399291992 -2.347599983215332
-3.705561399459839 18.150978088378906 -2.347599983215332
-5.154072284698486 17.7939453125 -2.347599983215332
-6.569189071655273 17.321624755859375 -2.347599983215332
-7.941669940948486 16.73674201965332 -2.347599983215332
-9.262685775756836 16.043420791625977 -2.347599983215332
-12.832939147949219 13.360566139221191 -2.347599983215332
-13.866425514221191 12.284573554992676 -2.347599983215332
-14.809950828552246 11.128959655761719 -2.347599983215332
-16.67387580871582 10.543930053710938 -2.5
-18.71271514892578 6.2472124099731445 -2.5
-19.15471649169922 4.721207141876221 -2.5
18.05729866027832 1.457739233970642 -2.5
17.881450653076172 2.9060277938842773 -2.5
17.589624404907227 4.335467338562012 -2.5
17.183734893798828 5.736780166625977 -2.5
15.650409698486328 6.6680169105529785 -2.347599983215332
13.599867820739746 10.219650268554688 -2.347599983215332
12.733417510986328 11.280851364135742 -2.347599983215332
11.784419059753418 12.26888370513916 -2.347599983215332
10.758959770202637 13.177346229553223 -2.347599983215332
9.663744926452637 14.000353813171387 -2.347599983215332
7.292783260345459 15.369233131408691 -2.347599983215332
6.032426834106445 15.906230926513672 -2.347599983215332
4.732944011688232 16.340036392211914 -2.347599983215332
3.40276837348938 16.66790199279785 -2.347599983215332
2.050537109375 16.88765525817871 -2.347599983215332
0.6849902272224426 16.997888565063477 -2.347599983215332
-2.050541877746582 16.887670516967773 -2.347599983215332
-3.402783155441284 16.667898178100586 -2.347599983215332
-6.032412052154541 15.906237602233887 -2.347599983215332
-9.663759231567383 14.00033950805664 -2.347599983215332
-10.75894546508789 13.177377700805664 -2.347599983215332
-11.784423828125 12.268879890441895 -2.347599983215332
-16.666385650634766 7.100873947143555 -2.5
16.743759155273438 4.882812390860636e-06 -2.5
16.68946647644043 1.347320556640625 -2.5
16.25721549987793 4.007051944732666 -2.5
13.288954734802246 8.403441429138184 -2.347599983215332
12.569686889648438 9.445502281188965 -2.347599983215332
10.891737937927246 11.33951187133789 -2.347599983215332
7.861513614654541 13.616564750671387 -2.347599983215332
5.57546854019165 14.701313018798828 -2.347599983215332
3.145009756088257 15.405291557312012 -2.347599983215332
1.8952099084854126 15.608413696289062 -2.347599983215332
0.633105456829071 15.710296630859375 -2.347599983215332
-0.6331103444099426 15.710302352905273 -2.347599983215332
-3.145014524459839 15.40529727935791 -2.347599983215332
-5.575459003448486 14.701330184936523 -2.347599983215332
-6.740341663360596 14.20500659942627 -2.347599983215332
-7.861523151397705 13.616560935974121 -2.347599983215332
-9.943974494934082 12.179156303405762 -2.347599983215332
-11.76888656616211 10.426312446594238 -2.347599983215332
-13.288993835449219 8.403432846069336 -2.347599983215332
-15.882050514221191 5.302202224731445 -2.5
-16.25721549987793 4.007040977478027 -2.5
-16.52692413330078 2.6858885288238525 -2.5
15.5610933303833 4.882812390860636e-06 -2.5
15.359575271606445 2.496185302734375 -2.5
15.10891056060791 3.7240185737609863 -2.5
14.308794021606445 6.096414089202881 -2.4987640380859375
12.938700675964355 6.790761947631836 -2.347599983215332
10.937592506408691 9.689876556396484 -2.347599983215332
9.241586685180664 11.31890869140625 -2.347599983215332
5.181654930114746 13.662908554077148 -2.347599983215332
4.065439224243164 14.035552978515625 -2.347599983215332
2.9228856563568115 14.317170143127441 -2.347599983215332
1.7613427639007568 14.505937576293945 -2.347599983215332
0.58837890625 14.600626945495605 -2.347599983215332
-0.5884032845497131 14.600629806518555 -2.347599983215332
-2.9228808879852295 14.317171096801758 -2.347599983215332
-4.06545877456665 14.03554916381836 -2.347599983215332
-5.181650161743164 13.662904739379883 -2.347599983215332
-6.264257907867432 13.201651573181152 -2.347599983215332
-8.3008394241333 12.025836944580078 -2.347599983215332
-9.24160099029541 11.31889820098877 -2.347599983215332
-14.315849304199219 6.099414348602295 -2.5
-14.76024341583252 4.927692890167236 -2.5
-15.359550476074219 2.496177911758423 -2.5
14.531054496765137 3.662109293145477e-06 -2.5
14.483925819396973 1.1692724227905273 -2.5
14.342875480651855 2.3309593200683594 -2.5
14.10879898071289 3.4775195121765137 -2.5
11.532821655273438 7.2929205894470215 -2.347599983215332
10.908588409423828 8.197277069091797 -2.347599983215332
4.838656902313232 12.758520126342773 -2.347599983215332
2.7294092178344727 13.369473457336426 -2.347599983215332
1.644750952720642 13.545746803283691 -2.347599983215332
-3.7963523864746094 13.106493949890137 -2.347599983215332
-9.452383041381836 9.840987205505371 -2.347599983215332
-10.213613510131836 9.048454284667969 -2.347599983215332
-10.90860366821289 8.197265625 -2.347599983215332
-11.532821655273438 7.292910099029541 -2.347599983215332
-14.10878849029541 3.4775047302246094 -2.5
-14.34286117553711 2.330949544906616 -2.5
13.229731559753418 3.2608447074890137 -2.5
12.924433708190918 4.314815521240234 -2.5
12.040722846984863 6.31946325302124 -2.494983434677124
10.814248085021973 6.838525295257568 -2.347599983215332
9.577221870422363 8.484694480895996 -2.347599983215332
8.092153549194336 9.911111831665039 -2.347599983215332
5.48513650894165 11.559694290161133 -2.347599983215332
4.537182331085205 11.963579177856445 -2.347599983215332
3.5597996711730957 12.289874076843262 -2.347599983215332
2.559340715408325 12.536469459533691 -2.347599983215332
1.542275309562683 12.701756477355957 -2.347599983215332
-1.5422801971435547 12.701753616333008 -2.347599983215332
-4.537168025970459 11.963577270507812 -2.347599983215332
-5.218876838684082 7.560863018035889 -1.6856313943862915
-8.092167854309082 9.91110610961914 -2.347599983215332
-11.143661499023438 7.04681921005249 -2.4191081523895264
12.78184986114502 1.0318652391433716 -2.5
12.657377243041992 2.057037353515625 -2.5
12.45082950592041 3.0688586235046387 -2.5
11.797308921813965 5.026362419128418 -2.5
11.354594230651855 5.959353923797607 -2.5
9.626669883728027 7.2339768409729 -2.347599983215332
9.013349533081055 7.985149383544922 -2.347599983215332
6.84048318862915 9.910147666931152 -2.347599983215332
5.162187576293945 10.879106521606445 -2.347599983215332
3.350209951400757 11.566299438476562 -2.347599983215332
-2.4086570739746094 11.798368453979492 -2.347599983215332
-3.350224494934082 11.566293716430664 -2.347599983215332
-5.162187576293945 10.879101753234863 -2.347599983215332
-6.020859241485596 10.428433418273926 -2.347599983215332
-5.213681697845459 7.553328514099121 -1.789298415184021
-7.61572265625 9.327584266662598 -2.347599983215332
-9.626679420471191 7.233959674835205 -2.347599983215332
-10.811161994934082 6.836551189422607 -2.493748188018799
-11.354609489440918 5.959340572357178 -2.5
-12.163525581359863 4.060770034790039 -2.5
-12.45083999633789 3.0688464641571045 -2.5
12.107514381408691 2.441406195430318e-06 -2.5
11.75570297241211 2.8975231647491455 -2.5
11.484418869018555 3.834062337875366 -2.5
9.08919906616211 6.830102920532227 -2.347599983215332
6.458569049835205 9.356863975524902 -2.347599983215332
5.684716701507568 9.846222877502441 -2.347599983215332
2.274184465408325 11.139665603637695 -2.347599983215332
1.3704296350479126 11.286540031433105 -2.347599983215332
-1.370449185371399 11.286538124084473 -2.347599983215332
-2.274179697036743 11.139662742614746 -2.347599983215332
-4.031664848327637 10.630605697631836 -2.347599983215332
-5.209248065948486 7.546901702880859 -1.8934893608093262
-7.19054651260376 8.806811332702637 -2.347599983215332
-8.510146141052246 7.539341926574707 -2.347599983215332
-9.089218139648438 6.830081462860107 -2.347599983215332
-10.221845626831055 6.463904857635498 -2.497239351272583
-11.138671875 4.745733737945557 -2.5
-11.484442710876465 3.8340513706207275 -2.5
-11.75570297241211 2.897512197494507 -2.5
-12.06827163696289 0.9742480516433716 -2.5
11.464521408081055 3.662109293145477e-06 -2.5
10.547119140625 4.493709564208984 -2.5
8.647046089172363 6.497834205627441 -2.358656644821167
6.808676719665527 8.339117050170898 -2.347599983215332
6.115581035614014 8.859943389892578 -2.347599983215332
4.615131855010986 9.726219177246094 -2.347599983215332
3.8175389766693115 10.066045761108398 -2.347599983215332
2.995195150375366 10.340588569641113 -2.347599983215332
2.1534130573272705 10.54806900024414 -2.347599983215332
0.4334765672683716 10.756905555725098 -2.347599983215332
-0.4335009753704071 10.756903648376465 -2.347599983215332
-2.1534080505371094 10.548066139221191 -2.347599983215332
-2.995190382003784 10.340584754943848 -2.347599983215332
-5.199277400970459 7.532472133636475 -1.9958642721176147
-7.457616806030273 7.764204025268555 -2.347599983215332
-8.058202743530273 7.13893461227417 -2.347599983215332
-9.689697265625 6.127387523651123 -2.5
-10.547128677368164 4.49370002746582 -2.5
-10.874521255493164 3.630441904067993 -2.5
-11.427343368530273 0.9225012063980103 -2.5
10.848417282104492 0.8757799863815308 -2.5
10.742768287658691 1.7458752393722534 -2.5
10.5674409866333 2.6046459674835205 -2.5
10.323598861694336 3.4465270042419434 -2.5
9.637030601501465 5.057912349700928 -2.5
8.61806583404541 6.476066589355469 -2.476203203201294
7.649950981140137 6.777270793914795 -2.347599983215332
1.2319140434265137 10.14571762084961 -2.347599983215332
0.41151854395866394 10.211936950683594 -2.347599983215332
-2.6568846702575684 7.005648136138916 -1.7210460901260376
-4.381328105926514 9.233471870422363 -2.347599983215332
-5.188671588897705 7.51708984375 -2.098081111907959
-7.649941444396973 6.777260780334473 -2.347599983215332
-8.660693168640137 6.5080766677856445 -2.4884462356567383
-9.198808670043945 5.8169684410095215 -2.5
-9.637041091918945 5.057900428771973 -2.5
-10.567450523376465 2.6046361923217773 -2.5
10.222241401672363 1.6612828969955444 -2.5
9.527631759643555 4.059343338012695 -2.5
9.170087814331055 4.812841892242432 -2.5
8.753081321716309 5.535121917724609 -2.5
7.333207607269287 6.496661186218262 -2.3649895191192627
6.736762523651123 7.013718128204346 -2.347599983215332
5.524438381195068 8.003541946411133 -2.347599983215332
3.4485301971435547 9.093061447143555 -2.347599983215332
1.9452636241912842 9.52849006652832 -2.347599983215332
-0.39159178733825684 9.71713924407959 -2.347599983215332
-1.1722412109375 9.654120445251465 -2.347599983215332
-1.945253849029541 9.528491020202637 -2.347599983215332
-2.7056736946105957 9.341064453125 -2.347599983215332
-4.169047832489014 8.786078453063965 -2.347599983215332
-4.862499713897705 8.422121047973633 -2.347599983215332
-5.178037166595459 7.501698017120361 -2.2004003524780273
-6.150546550750732 7.533056259155273 -2.347599983215332
-6.736757755279541 7.013713836669922 -2.347599983215332
-8.26918888092041 6.213887691497803 -2.4969427585601807
-9.170097351074219 4.812830924987793 -2.5
-9.527636528015137 4.059335708618164 -2.5
-9.82338809967041 3.279520273208618 -2.5
-10.322782516479492 0.8333349227905273 -2.5
9.747416496276855 1.5841137170791626 -2.5
7.894726276397705 5.932509422302246 -2.5
6.423842430114746 6.687928199768066 -2.347599983215332
4.636645317077637 8.030914306640625 -2.347599983215332
3.9753806591033936 8.377968788146973 -2.347599983215332
3.288344621658325 8.67068862915039 -2.347599983215332
1.8549071550369263 9.085891723632812 -2.347599983215332
0.37339353561401367 9.265779495239258 -2.347599983215332
-0.37340331077575684 9.265783309936523 -2.347599983215332
-1.8548924922943115 9.085890769958496 -2.347599983215332
-3.975395441055298 8.37796401977539 -2.347599983215332
-5.167392253875732 7.486278533935547 -2.3028452396392822
-6.423837661743164 6.687925338745117 -2.347599983215332
-7.310722351074219 6.4767351150512695 -2.472590446472168
-7.894736289978027 5.932504177093506 -2.5
-8.346503257751465 5.2780070304870605 -2.5
-9.588358879089355 2.363314151763916 -2.5
-9.747411727905273 1.584108829498291 -2.5
9.404004096984863 0.759173572063446 -2.5
9.312421798706055 1.513421654701233 -2.5
8.679633140563965 3.6980504989624023 -2.5
8.35391616821289 4.384479999542236 -2.5
7.974018573760986 5.042476654052734 -2.5
7.542431354522705 5.66776704788208 -2.5
6.114086627960205 6.365440368652344 -2.3387701511383057
3.141591787338257 8.283747673034668 -2.347599983215332
2.4648633003234863 8.509675979614258 -2.347599983215332
1.77212393283844 8.680421829223633 -2.347599983215332
1.0678906440734863 8.794873237609863 -2.347599983215332
0.3567284941673279 8.852278709411621 -2.347599983215332
-0.35673826932907104 8.852279663085938 -2.347599983215332
-1.067905306816101 8.794872283935547 -2.347599983215332
-3.797988176345825 8.004088401794434 -2.347599983215332
-5.03274393081665 7.29119348526001 -2.347599983215332
-6.236454963684082 6.4928483963012695 -2.3855836391448975
-7.051200866699219 6.246822834014893 -2.4962146282196045
-7.542421817779541 5.667761325836182 -2.5
-7.974023342132568 5.042469501495361 -2.5
-8.353925704956055 4.384469032287598 -2.5
-8.679638862609863 3.6980443000793457 -2.5
-9.1604585647583 2.2578442096710205 -2.5
-9.404004096984863 0.7591650485992432 -2.5
8.306747436523438 3.539179563522339 -2.5
7.99502420425415 4.196114540100098 -2.5
7.63146448135376 4.825849533081055 -2.5
7.218393325805664 5.4242706298828125 -2.5
5.916567325592041 6.1598029136657715 -2.364809989929199
4.816533088684082 6.977963924407959 -2.347599983215332
3.6348044872283936 7.660219669342041 -2.347599983215332
3.0066258907318115 7.927862167358398 -2.347599983215332
-1.0220263004302979 8.417025566101074 -2.347599983215332
-1.6960058212280273 8.307500839233398 -2.347599983215332
-2.358964681625366 8.144085884094238 -2.347599983215332
-3.634819269180298 7.660222053527832 -2.347599983215332
-4.816533088684082 6.977951526641846 -2.347599983215332
-6.218671798706055 6.474332809448242 -2.4855635166168213
-6.758495807647705 5.987514495849609 -2.5
-7.218388557434082 5.424266338348389 -2.5
-7.631454944610596 4.825840950012207 -2.5
-7.995028972625732 4.19610595703125 -2.5
-8.306757926940918 3.5391697883605957 -2.5
-9.000009536743164 0.7265490293502808 -2.5
8.403642654418945 2.071317195892334 -2.5
7.315258502960205 4.625887393951416 -2.5
6.423745155334473 5.690946102142334 -2.478879690170288
4.616958141326904 6.688827991485596 -2.347599983215332
3.484194278717041 7.342824459075928 -2.347599983215332
2.8820605278015137 7.5993781089782715 -2.347599983215332
1.6257128715515137 7.9632792472839355 -2.347599983215332
0.979663074016571 8.068273544311523 -2.347599983215332
-0.3272705078125 8.120940208435059 -2.347599983215332
-0.9796826243400574 8.06827163696289 -2.347599983215332
-1.6257373094558716 7.963284015655518 -2.347599983215332
-3.484208822250366 7.342820644378662 -2.347599983215332
-4.063779354095459 7.038647174835205 -2.347599983215332
-4.616962909698486 6.688821315765381 -2.347599983215332
-5.296210765838623 6.486688613891602 -2.4188451766967773
-6.919286727905273 5.199512004852295 -2.5
-7.315244197845459 4.625881195068359 -2.5
-8.209726333618164 2.7408032417297363 -2.5
-8.40365219116211 2.071312189102173 -2.5
-8.543066024780273 1.3883849382400513 -2.5
-8.627079963684082 0.6964440941810608 -2.5
8.281733512878418 0.6685729622840881 -2.5
8.067235946655273 1.9884008169174194 -2.5
7.881073951721191 2.631091356277466 -2.5
7.356977462768555 3.8612353801727295 -2.5
5.683564186096191 5.917221546173096 -2.4687018394470215
5.102729320526123 6.2497148513793945 -2.4276602268218994
3.344721555709839 7.048882484436035 -2.347599983215332
2.170707941055298 7.494133949279785 -2.347599983215332
0.9404394030570984 7.745291709899902 -2.347599983215332
-0.9404589533805847 7.745290756225586 -2.347599983215332
-2.170703172683716 7.4941325187683105 -2.347599983215332
-2.6568846702575684 7.005659580230713 -2.254436492919922
-4.483085632324219 6.494884014129639 -2.3745901584625244
-5.755615234375 5.992236614227295 -2.5
-6.642304420471191 4.991368293762207 -2.5
-7.356972694396973 3.861226797103882 -2.5
-7.643808364868164 3.2567174434661865 -2.5
-7.881083965301514 2.631085157394409 -2.5
7.98681116104126 0.0 -2.5
7.883378505706787 1.281182885169983 -2.5
7.575795650482178 2.5291686058044434 -2.5
7.071982383728027 3.711656332015991 -2.5
6.750380516052246 4.268682956695557 -2.5
6.385009765625 4.79802131652832 -2.5
5.485771179199219 5.711297512054443 -2.478813648223877
4.952436447143555 6.065637588500977 -2.4511077404022217
3.74468731880188 6.485996723175049 -2.3442959785461426
3.215156078338623 6.775820255279541 -2.347599983215332
2.6595213413238525 7.012565612792969 -2.347599983215332
1.5001806020736694 7.348369121551514 -2.347599983215332
-0.3020068407058716 7.493855953216553 -2.347599983215332
-1.5001952648162842 7.348366737365723 -2.347599983215332
-2.086606502532959 7.203821182250977 -2.347599983215332
-3.215165853500366 6.775821208953857 -2.347599983215332
-6.384980201721191 4.798012733459473 -2.5
-6.75036096572876 4.2686767578125 -2.5
-7.347704887390137 3.1305577754974365 -2.5
-7.883378505706787 1.2811754941940308 -2.5
7.686972618103027 2.441406195430318e-06 -2.5
7.662045955657959 0.6185473203659058 -2.5
7.29137659072876 2.434218645095825 -2.5
6.14529275894165 4.617887020111084 -2.5
4.258617877960205 6.169684410095215 -2.438129425048828
3.083325147628784 6.497997283935547 -2.339162588119507
2.5596728324890137 6.749289512634277 -2.347599983215332
1.4438574314117432 7.072484493255615 -2.347599983215332
0.2906543016433716 7.212509632110596 -2.347599983215332
-1.443872094154358 7.072484016418457 -2.347599983215332
-2.0082714557647705 6.933367729187012 -2.347599983215332
-3.0944578647613525 6.521432876586914 -2.347599983215332
-4.358085632324219 6.313789367675781 -2.495079517364502
-4.861562252044678 5.954359531402588 -2.5
-5.324931621551514 5.543856143951416 -2.5
-6.806455135345459 3.572305917739868 -2.5
-7.291367053985596 2.4342126846313477 -2.5
-7.463593482971191 1.8396068811416626 -2.5
-7.587421894073486 1.2330797910690308 -2.5
-7.662040710449219 0.6185400485992432 -2.5
7.382865905761719 0.59600830078125 -2.5
7.310966491699219 1.1881518363952637 -2.5
7.025698184967041 2.3455212116241455 -2.5
6.814179420471191 2.9032444953918457 -2.5
6.55846643447876 3.442148447036743 -2.5
6.260219573974609 3.9587230682373047 -2.5
5.921376705169678 4.449622631072998 -2.5
5.544120788574219 4.911671161651611 -2.5
4.646787166595459 5.691291809082031 -2.479907512664795
3.599809408187866 6.235066890716553 -2.4300525188446045
3.035595655441284 6.397408962249756 -2.390038013458252
2.461904287338257 6.491498947143555 -2.3433170318603516
-0.28006836771965027 6.949708938598633 -2.347599983215332
-0.8383837938308716 6.904635906219482 -2.347599983215332
-1.39126455783844 6.814783573150635 -2.347599983215332
-1.935097575187683 6.680736064910889 -2.347599983215332
-2.4571189880371094 6.478901386260986 -2.3387701511383057
-3.0776023864746094 6.485899925231934 -2.4230997562408447
-4.684433460235596 5.737399578094482 -2.5
-5.130908012390137 5.341853141784668 -2.5
-5.544111251831055 4.911665916442871 -2.5
-6.814169883728027 2.903238534927368 -2.5
-7.025693416595459 2.3455162048339844 -2.5
-7.191640377044678 1.7725756168365479 -2.5
-7.310946941375732 1.188146948814392 -2.5
-7.382861137390137 0.5959972739219666 -2.5
7.121425628662109 0.574902355670929 -2.5
7.052074909210205 1.1460790634155273 -2.5
6.936982154846191 1.7098132371902466 -2.5
5.711694240570068 4.292056560516357 -2.5
4.498369216918945 5.509506702423096 -2.48883056640625
3.502871036529541 6.067172050476074 -2.4514248371124268
2.9727587699890137 6.264949798583984 -2.426476240158081
2.4248242378234863 6.393730163574219 -2.3927536010742188
1.8733984231948853 6.46768856048584 -2.3561697006225586
1.3420019149780273 6.573465347290039 -2.347599983215332
-0.2701513469219208 6.703608989715576 -2.347599983215332
-1.3419872522354126 6.573462963104248 -2.347599983215332
-1.8595507144927979 6.41992712020874 -2.3387701511383057
-2.370107412338257 6.249477386474609 -2.3387701511383057
-3.054252862930298 6.436696529388428 -2.4929964542388916
-3.5684814453125 6.180790901184082 -2.4973340034484863
-4.518544673919678 5.5342326164245605 -2.5
-4.949208736419678 5.152693748474121 -2.5
-5.347792625427246 4.737739086151123 -2.5
-6.038525104522705 3.8185338973999023 -2.5
-6.326220512390137 3.3202502727508545 -2.5
-6.57287073135376 2.800433397293091 -2.5
-7.052060604095459 1.1460741758346558 -2.5
6.898417949676514 1.220703097715159e-06 -2.5
6.809086799621582 1.1065881252288818 -2.5
6.697958946228027 1.6508996486663818 -2.5
6.543407917022705 2.18450927734375 -2.5
6.346401214599609 2.703943967819214 -2.5
5.830468654632568 3.686967611312866 -2.5
5.163530349731445 4.574498176574707 -2.5
4.362861156463623 5.343541145324707 -2.5
3.407470703125 5.901934623718262 -2.4697601795196533
2.8949999809265137 6.101070880889893 -2.447331190109253
2.3748486042022705 6.261956214904785 -2.427067756652832
1.8458056449890137 6.372446060180664 -2.4043169021606445
1.3121533393859863 6.4273529052734375 -2.3773324489593506
-0.2612646520137787 6.483080863952637 -2.351391315460205
-0.7851611375808716 6.466286659240723 -2.360609531402588
-3.449208974838257 5.974193096160889 -2.5
-5.163525104522705 4.574491024017334 -2.5
-5.514882564544678 4.144161224365234 -2.5
-6.108232498168945 3.2058446407318115 -2.5
-6.346386432647705 2.7039403915405273 -2.5
-6.697948932647705 1.6508947610855103 -2.5
-6.809072017669678 1.1065832376480103 -2.5
6.666850566864014 1.220703097715159e-06 -2.5
6.580512523651123 1.0694421529769897 -2.5
6.473124980926514 1.5954809188842773 -2.5
6.323740005493164 2.1111767292022705 -2.5
6.133364200592041 2.613176107406616 -2.5
4.990200042724609 4.420937538146973 -2.5
4.618281364440918 4.808144569396973 -2.5
4.216406345367432 5.1641693115234375 -2.5
3.773574113845825 5.466976642608643 -2.4910120964050293
2.3143310546875 6.102375507354736 -2.4473702907562256
1.2907421588897705 6.322456359863281 -2.4197616577148438
-0.25752928853034973 6.39030647277832 -2.398247718811035
-0.773876965045929 6.37339448928833 -2.4075143337249756
-2.2171239852905273 5.846097469329834 -2.344590663909912
-3.7872021198272705 5.486696243286133 -2.5
-4.618261814117432 4.808143138885498 -2.5
-4.990175724029541 4.420933723449707 -2.5
-5.329745769500732 4.005048751831055 -2.5
-5.90319299697876 3.098231077194214 -2.5
-6.133349418640137 2.613171339035034 -2.5
-6.473114967346191 1.5954760313034058 -2.5
-6.580497741699219 1.0694384574890137 -2.5
-6.645205020904541 0.5364538431167603 -2.5
6.116703987121582 2.0420544147491455 -2.5
5.932548522949219 2.527618408203125 -2.5
5.709921836853027 2.9967968463897705 -2.5
5.155258655548096 3.8739233016967773 -2.5
4.078354358673096 4.995087623596191 -2.5
3.6631932258605957 5.307061195373535 -2.5
3.20721173286438 5.555075168609619 -2.4867746829986572
2.738222599029541 5.7706780433654785 -2.4762794971466064
-0.7562890648841858 6.228509426116943 -2.432424306869507
-2.2051806449890137 5.814608573913574 -2.410895586013794
-2.7644433975219727 5.825956344604492 -2.5
-3.2242772579193115 5.584615230560303 -2.5
-4.078354358673096 4.995087623596191 -2.5
-4.467060565948486 4.650718688964844 -2.5
-4.826806545257568 4.276187419891357 -2.5
-5.155243873596191 3.873918294906616 -2.5
-5.450253963470459 3.4465367794036865 -2.5
-6.427646160125732 0.5188879370689392 -2.5
6.222182273864746 0.5023083090782166 -2.5
6.161591529846191 1.0013598203659058 -2.5
5.921162128448486 1.97677481174469 -2.5
5.742905139923096 2.4468212127685547 -2.5
5.527387619018555 2.900995969772339 -2.5
3.9479832649230957 4.835411071777344 -2.5
3.546083927154541 5.137409687042236 -2.5
3.1211962699890137 5.406091690063477 -2.5
2.659414052963257 5.604581356048584 -2.484424591064453
2.1922361850738525 5.780440330505371 -2.4758756160736084
1.71523916721344 5.921662330627441 -2.469024181365967
0.7377734184265137 6.076104164123535 -2.451266050338745
0.24608397483825684 6.106546401977539 -2.44757080078125
-0.24610351026058197 6.10687780380249 -2.447702646255493
-1.2284131050109863 6.017082214355469 -2.4594616889953613
-1.6877294778823853 5.826663017272949 -2.4294142723083496
-2.6760692596435547 5.639713764190674 -2.5
-3.5461082458496094 5.137405872344971 -2.5
-3.9479784965515137 4.835410118103027 -2.5
-4.324257850646973 4.502048015594482 -2.5
-4.672500133514404 4.139488220214844 -2.5
-4.990439414978027 3.7500791549682617 -2.5
-5.52737283706665 2.9009900093078613 -2.5
-5.742880821228027 2.446817636489868 -2.5
-5.921152114868164 1.9767773151397705 -2.5
-6.061015605926514 1.493904948234558 -2.5
-6.161562442779541 1.0013561248779297 -2.5
6.047377586364746 1.220703097715159e-06 -2.5
6.027773380279541 0.4866125285625458 -2.5
5.969067096710205 0.9700719714164734 -2.5
5.563461780548096 2.3703699111938477 -2.5
5.354687213897705 2.8103551864624023 -2.5
5.111181735992432 3.23211669921875 -2.5
4.834526062011719 3.6329174041748047 -2.5
3.8246288299560547 4.684329509735107 -2.5
3.023676633834839 5.237178325653076 -2.5
2.1305761337280273 5.61785888671875 -2.483846426010132
1.1961621046066284 5.859166145324707 -2.4721555709838867
0.24019530415534973 5.960587024688721 -2.466123104095459
-0.24021972715854645 5.960903167724609 -2.466252565383911
-3.8246288299560547 4.684327125549316 -2.5
-4.189159870147705 4.361380577087402 -2.5
-4.526504039764404 4.010149002075195 -2.5
-4.834521293640137 3.6329123973846436 -2.5
-5.111162185668945 3.2321155071258545 -2.5
-5.736142635345459 1.9150060415267944 -2.5
5.862519264221191 0.0 -2.5
5.560815334320068 1.8564733266830444 -2.5
5.393393516540527 2.29791259765625 -2.5
5.191005706787109 2.7244482040405273 -2.5
4.686748027801514 3.521862745285034 -2.5
4.061108112335205 4.228065013885498 -2.5
2.931264638900757 5.077089786529541 -2.5
2.5132176876068115 5.296492099761963 -2.5
2.071767568588257 5.462800025939941 -2.491448402404785
1.163295865058899 5.698191165924072 -2.480043888092041
0.23372070491313934 5.799655437469482 -2.47520112991333
-0.2337304651737213 5.799790382385254 -2.4752581119537354
-0.7001416087150574 5.766157150268555 -2.476969003677368
-1.1634374856948853 5.698843955993652 -2.4803285598754883
-2.0735790729522705 5.467596530914307 -2.4936363697052
-2.5132176876068115 5.296492576599121 -2.5
-2.9312548637390137 5.077088356018066 -2.5
-4.686738014221191 3.5218591690063477 -2.5
-5.393378734588623 2.297907590866089 -2.5
-5.692148208618164 1.4029895067214966 -2.5
-5.786591529846191 0.9404199123382568 -2.5
5.687021255493164 1.220703097715159e-06 -2.5
5.035605430603027 2.6428892612457275 -2.5
4.806611061096191 3.039522647857666 -2.5
4.256792068481445 3.771193742752075 -2.5
3.939531087875366 4.101492881774902 -2.5
3.2305908203125 4.68032693862915 -2.5
2.437983274459839 5.137943744659424 -2.5
2.016650438308716 5.3174591064453125 -2.5
0.681225597858429 5.610352516174316 -2.4844112396240234
0.2274218648672104 5.643434524536133 -2.4828529357910156
-1.1320360898971558 5.545026779174805 -2.4878573417663574
-1.577417016029358 5.445833206176758 -2.492379665374756
-2.0166308879852295 5.317457675933838 -2.5
-2.843510627746582 4.925103664398193 -2.5
-3.230595588684082 4.680322170257568 -2.5
-3.939531087875366 4.101490497589111 -2.5
-4.256786823272705 3.771188974380493 -2.5
-4.546425819396973 3.4164319038391113 -2.5
-5.035595417022705 2.6428844928741455 -2.5
-5.613359451293945 0.9122644066810608 -2.5
5.502260684967041 0.4441882371902466 -2.5
5.359750747680664 1.3210607767105103 -2.5
4.665575981140137 2.950335741043091 -2.5
4.413046836853027 3.3161938190460205 -2.5
4.131894588470459 3.6605491638183594 -2.5
3.4911913871765137 4.275943279266357 -2.5
3.13580060005188 4.543001651763916 -2.5
2.7600927352905273 4.780598163604736 -2.5
2.366459846496582 4.987189769744873 -2.5
1.1041747331619263 5.408597469329834 -2.5
-0.6632226705551147 5.4620585441589355 -2.491856813430786
-1.1041845083236694 5.408597469329834 -2.5
-1.9574657678604126 5.161437034606934 -2.5
-2.366445302963257 4.987185955047607 -2.5
-2.760073184967041 4.780595779418945 -2.5
-3.13580060005188 4.542996883392334 -2.5
-3.8239402770996094 3.9811484813690186 -2.5
-4.131894588470459 3.6605443954467773 -2.5
-4.413027286529541 3.316190004348755 -2.5
-4.665575981140137 2.950334310531616 -2.5
-5.078417778015137 2.163714647293091 -2.5
-5.236064434051514 1.748052954673767 -2.5
-5.359745979309082 1.3210595846176147 -2.5
-5.448661804199219 0.8854967951774597 -2.5
-5.502245903015137 0.444183349609375 -2.5
5.343886375427246 0.4314025640487671 -2.5
5.291845798492432 0.8600121736526489 -2.5
4.932260513305664 2.101438045501709 -2.5
4.747162818908691 2.491508722305298 -2.5
4.531293869018555 2.86541748046875 -2.5
3.713876962661743 3.866558790206909 -2.5
2.6806445121765137 4.642992973327637 -2.5
2.29833984375 4.84364128112793 -2.5
1.491601586341858 5.149593353271484 -2.5
1.0723925828933716 5.25291633605957 -2.5
0.6462255716323853 5.322176456451416 -2.5
0.21586912870407104 5.356916904449463 -2.5
-0.21588866412639618 5.356916904449463 -2.5
-1.0724023580551147 5.252914905548096 -2.5
-1.49160635471344 5.149592399597168 -2.5
-2.2983250617980957 4.843639850616455 -2.5
-2.6806249618530273 4.642992973327637 -2.5
-3.045546770095825 4.412232398986816 -2.5
-3.390693187713623 4.152862548828125 -2.5
-4.286005973815918 3.220738410949707 -2.5
-4.53127908706665 2.8654112815856934 -2.5
-4.932246208190918 2.101430654525757 -2.5
-5.085341453552246 1.6977367401123047 -2.5
-5.205478191375732 1.2830346822738647 -2.5
-5.343867301940918 0.4313977062702179 -2.5
