ply
format ascii 1.0
element vertex 741
property float x
property float y
property float z
end_header
17.647050857543945 5.891445159912109 4.985064506530762
14.518173217773438 7.619716644287109 4.393364906311035
15.000732421875 11.272323608398438 5.027797222137451
21.34577178955078 18.91069793701172 7.641284465789795
-18.415605545043945 6.148036956787109 5.202167987823486
17.535390853881836 4.322070121765137 4.625338077545166
18.19733428955078 6.075146198272705 4.913319110870361
16.06669807434082 6.845370769500732 4.26704740524292
16.346786499023438 5.457363128662109 4.00889778137207
16.175840377807617 6.891865253448486 4.090112686157227
15.558711051940918 8.165820121765137 4.087455749511719
16.146522521972656 12.133319854736328 4.698275089263916
17.854990005493164 4.400849342346191 4.063464164733887
16.479764938354492 5.501748085021973 3.839078187942505
14.896395683288574 6.346747875213623 3.577939987182617
15.355888366699219 9.710477828979492 4.014677047729492
17.51400375366211 13.160917282104492 4.840925216674805
19.002470016479492 4.683681488037109 4.097684383392334
16.685136795043945 5.5703125 3.682962656021118
15.640742301940918 6.663886547088623 3.5595977306365967
17.285507202148438 10.930683135986328 4.2820258140563965
17.68252944946289 13.287558555603027 4.631040096282959
16.431171417236328 5.485517501831055 3.4269866943359375
16.384824752807617 6.980907917022705 3.523397207260132
15.962031364440918 10.093778610229492 3.736215114593506
16.944950103759766 12.73330020904541 4.19325065612793
19.49942398071289 20.301082611083984 5.568776607513428
1.6420409679412842 5.669043064117432 1.1676380634307861
19.909549713134766 4.907265663146973 3.8210203647613525
16.891952514648438 7.196972370147705 3.4214720726013184
22.24452018737793 16.7156925201416 5.184976100921631
1.6419824361801147 5.668828010559082 1.0997624397277832
16.89177703857422 8.865468978881836 3.3365349769592285
16.146162033081055 10.210214614868164 3.3412022590637207
20.026824951171875 20.850154876708984 5.056379318237305
17.46746063232422 -1.9531249563442543e-05 2.8559350967407227
16.39668846130371 10.368632316589355 3.1719086170196533
20.033954620361328 20.85757827758789 4.728519916534424
1.6418066024780273 5.668212890625 0.9648460149765015
19.33349609375 8.23721694946289 3.197303295135498
20.497724533081055 12.961981773376465 3.689800262451172
21.77259635925293 19.288837432861328 4.425516128540039
18.37928581237793 7.830663681030273 2.8133623600006104
22.055614471435547 19.539554595947266 4.149505615234375
1.6416211128234863 5.667578220367432 0.8309345841407776
19.109872817993164 10.029619216918945 2.795713424682617
17.63949203491211 11.154550552368164 2.7035460472106934
18.09794807434082 11.444453239440918 2.5328798294067383
1.6414355039596558 5.666953086853027 0.697885274887085
1.6412694454193115 5.666347503662109 0.5655598044395447
22.292871475219727 16.752025604248047 2.3618390560150146
1.6411815881729126 5.66604471206665 0.49962660670280457
22.290771484375 16.750438690185547 2.0502688884735107
22.28864288330078 16.74884796142578 1.7395820617675781
1.640908122062683 5.665117263793945 0.30254682898521423
22.28440284729004 16.745664596557617 1.1204710006713867
1.6408300399780273 5.66482400894165 0.23703841865062714
22.278076171875 16.740907669067383 0.19252640008926392
1.6405565738677979 5.663906097412109 0.04084060713648796
22.275957107543945 16.739316940307617 -0.11599105596542358
1.640468716621399 5.66360330581665 -0.02450302056968212
22.27383804321289 16.73772430419922 -0.4250854253768921
1.6402928829193115 5.662988185882568 -0.155201718211174
22.269628524780273 16.73456573486328 -1.0426440238952637
22.21302604675293 16.69202995300293 -1.6569509506225586
1.6400293111801147 5.662079811096191 -0.3515269458293915
-8.891562461853027 23.445112228393555 -1.4952789545059204
-21.815799713134766 5.377089500427246 -1.3398832082748413
22.122440338134766 16.62395477294922 -1.958150029182434
21.693925857543945 19.219160079956055 -2.050881862640381
1.6399413347244263 5.661777019500732 -0.41710585355758667
-8.886967658996582 23.43296241760254 -1.7734065055847168
21.400537490844727 9.117929458618164 -1.9053481817245483
22.087881088256836 16.59798240661621 -2.263051748275757
13.858681678771973 16.97383689880371 -1.794843077659607
1.6398534774780273 5.661464691162109 -0.48278090357780457
3.6218066215515137 17.7408390045166 -1.4830888509750366
3.454653263092041 28.452402114868164 -2.347599983215332
1.1540234088897705 28.63809585571289 -2.347599983215332
-3.4547460079193115 28.452367782592773 -2.347599983215332
-7.974076747894287 27.52976417541504 -2.347599983215332
-8.893651962280273 23.450605392456055 -2.054288148880005
-12.286913871765137 25.89412498474121 -2.347599983215332
-14.330756187438965 24.821474075317383 -2.347599983215332
-18.12675666809082 22.20124053955078 -2.347599983215332
-19.85443878173828 20.670644760131836 -2.347599983215332
-21.453344345092773 19.005956649780273 -2.347599983215332
-25.378358840942383 13.31956958770752 -2.347599983215332
26.86015510559082 1.9531249563442543e-05 -2.5
26.773056030273438 2.1613574028015137 -2.5
25.942060470581055 6.394150257110596 -2.486812114715576
25.477840423583984 8.50577163696289 -2.5
19.319549560546875 8.231279373168945 -1.9545676708221436
22.406131744384766 11.75966739654541 -2.355220079421997
20.10511589050293 17.811595916748047 -2.5
13.839765548706055 16.950653076171875 -2.0367491245269775
15.25830078125 22.105478286743164 -2.5
1.6397656202316284 5.66116189956665 -0.5485682487487793
3.0402684211730957 25.038875579833984 -2.347599983215332
1.0155858993530273 25.20231819152832 -2.347599983215332
-1.0156445503234863 25.202308654785156 -2.347599983215332
-3.040283203125 25.03886604309082 -2.347599983215332
-7.017421722412109 24.226913452148438 -2.347599983215332
-8.944130897521973 23.58370590209961 -2.347599983215332
-10.812861442565918 22.787500381469727 -2.347599983215332
-18.879526138305664 16.72577667236328 -2.347599983215332
-20.164169311523438 15.152338981628418 -2.347599983215332
-25.47785186767578 8.505722045898438 -2.5
-15.174266815185547 1.2249804735183716 -1.4169340133666992
23.667098999023438 3.8462986946105957 -2.5
19.382186889648438 12.256571769714355 -2.391018867492676
13.117880821228027 13.657206535339355 -1.9744154214859009
13.840507507324219 16.951566696166992 -2.2817282676696777
13.620820045471191 19.73318862915039 -2.5
11.92660140991211 20.657499313354492 -2.4870316982269287
1.63967764377594 5.660859107971191 -0.6144832968711853
3.621953010559082 17.74159049987793 -1.8879626989364624
-0.90663081407547 22.497665405273438 -2.347599983215332
-2.7139892578125 22.35173225402832 -2.347599983215332
-7.984267234802246 21.052759170532227 -2.347599983215332
-9.65243148803711 20.342021942138672 -2.347599983215332
-12.790555953979492 18.530242919921875 -2.347599983215332
-16.853397369384766 14.93080997467041 -2.347599983215332
-18.00017547607422 13.526249885559082 -2.347599983215332
-19.030242919921875 12.034003257751465 -2.347599983215332
-19.936840057373047 10.463671684265137 -2.347599983215332
-20.28780174255371 5.000468730926514 -2.1785926818847656
-23.667098999023438 3.846269369125366 -2.5
19.802518844604492 4.880898475646973 -2.355220079421997
19.345556259155273 6.458515644073486 -2.355220079421997
18.763124465942383 7.994218349456787 -2.355220079421997
18.63412094116211 9.77994155883789 -2.430225133895874
18.297422409057617 11.570585250854492 -2.5
16.204423904418945 14.355883598327637 -2.5
14.996688842773438 15.613251686096191 -2.5
13.691728591918945 16.76935577392578 -2.5
12.297968864440918 17.81669807434082 -2.5
8.714961051940918 18.366405487060547 -2.347599983215332
4.066342830657959 19.91834831237793 -2.347599983215332
-2.4504051208496094 20.18096160888672 -2.347599983215332
-4.066381931304932 19.91834831237793 -2.347599983215332
-7.208808422088623 19.00811004638672 -2.347599983215332
-8.714984893798828 18.366405487060547 -2.347599983215332
-10.164335250854492 17.605527877807617 -2.347599983215332
-12.857104301452637 15.747089385986328 -2.347599983215332
-14.082538604736328 14.661449432373047 -2.347599983215332
-17.182031631469727 10.865262985229492 -2.347599983215332
-18.000595092773438 9.447431564331055 -2.347599983215332
-21.36854362487793 3.47271466255188 -2.5
-15.025487899780273 1.2129687070846558 -1.740777850151062
19.72798728942871 1.9531249563442543e-05 -2.5
17.629013061523438 5.885448932647705 -2.355220079421997
17.992773056030273 7.665996074676514 -2.47843337059021
17.46826171875 9.168046951293945 -2.5
16.673887252807617 10.5439453125 -2.5
15.77138614654541 11.851445198059082 -2.5
14.76659107208252 13.0820894241333 -2.5
8.022099494934082 13.894692420959473 -2.0331761837005615
7.94167947769165 16.73674201965332 -2.347599983215332
6.569179534912109 17.321517944335938 -2.347599983215332
3.7055370807647705 18.150985717773438 -2.347599983215332
0.7459179759025574 18.510351181030273 -2.347599983215332
-2.2330029010772705 18.390302658081055 -2.347599983215332
-7.941684246063232 16.73674201965332 -2.347599983215332
-11.716293334960938 14.349853515625 -2.347599983215332
-14.809980392456055 11.1289644241333 -2.347599983215332
-16.868749618530273 8.853407859802246 -2.4141993522644043
-18.712724685668945 6.247216701507568 -2.5
-19.472509384155273 3.164599657058716 -2.5
18.057313919067383 1.4577538967132568 -2.5
16.666385650634766 7.100878715515137 -2.5
15.311503410339355 9.6824312210083 -2.5
12.549413681030273 13.065351486206055 -2.5
6.032431602478027 15.906225204467773 -2.347599983215332
2.0505175590515137 16.887676239013672 -2.347599983215332
-0.6850292682647705 16.9979190826416 -2.347599983215332
-2.0505614280700684 16.887676239013672 -2.347599983215332
-3.4028661251068115 16.66792869567871 -2.347599983215332
-7.292807579040527 15.369218826293945 -2.347599983215332
-8.505854606628418 14.732558250427246 -2.347599983215332
-9.663774490356445 14.000350952148438 -2.347599983215332
-10.758978843688965 13.177343368530273 -2.347599983215332
-11.784433364868164 12.26888656616211 -2.347599983215332
-14.378124237060547 9.09218692779541 -2.347599983215332
-16.010351181030273 8.402880668640137 -2.495227813720703
-16.666406631469727 7.100878715515137 -2.5
-17.8814640045166 2.906015634536743 -2.5
-14.815135955810547 1.1959960460662842 -2.051126718521118
16.743759155273438 1.9531249563442543e-05 -2.5
16.52692413330078 2.6858885288238525 -2.5
16.25721549987793 4.007050514221191 -2.5
14.825859069824219 7.781210899353027 -2.5
14.151650428771973 8.948974609375 -2.5
13.385663986206055 10.058691024780273 -2.5
12.532880783081055 11.10317325592041 -2.5
10.58950138092041 12.969804763793945 -2.5
9.5115327835083 13.779852867126465 -2.5
6.740361213684082 14.205009460449219 -2.347599983215332
1.6393163204193115 5.659618854522705 -0.879767894744873
3.1450586318969727 15.405302047729492 -2.347599983215332
1.8951952457427979 15.608427047729492 -2.347599983215332
0.6330956816673279 15.710307121276855 -2.347599983215332
-3.145087718963623 15.405322074890137 -2.347599983215332
-5.575478553771973 14.70131778717041 -2.347599983215332
-9.943984031677246 12.179169654846191 -2.347599983215332
-10.89175796508789 11.339521408081055 -2.347599983215332
-11.768896102905273 10.426298141479492 -2.347599983215332
-12.569697380065918 9.445487976074219 -2.347599983215332
-13.28897476196289 8.403447151184082 -2.347599983215332
-15.882080078125 5.302206993103027 -2.5
-16.257226943969727 4.007040977478027 -2.5
-16.526933670043945 2.6858787536621094 -2.5
-14.781386375427246 1.193261742591858 -2.2141788005828857
13.778661727905273 7.231601238250732 -2.5
12.440204620361328 9.348212242126465 -2.5
10.779531478881836 11.222704887390137 -2.5
1.6392284631729126 5.659306526184082 -0.9465796947479248
2.922900438308716 14.31717300415039 -2.347599983215332
-1.7613574266433716 14.50594711303711 -2.347599983215332
-2.9228906631469727 14.317177772521973 -2.347599983215332
-4.065478324890137 14.03555679321289 -2.347599983215332
-6.26427698135376 13.20166015625 -2.347599983215332
-7.306240081787109 12.65478515625 -2.347599983215332
-8.300859451293945 12.025830268859863 -2.347599983215332
-9.24161148071289 11.3189058303833 -2.347599983215332
-10.122431755065918 10.538564682006836 -2.347599983215332
-10.937617301940918 9.689872741699219 -2.347599983215332
-13.778661727905273 7.231611251831055 -2.5
-14.315888404846191 6.099423885345459 -2.5
-15.359580039978027 2.496161937713623 -2.5
14.531054496765137 1.9531249563442543e-05 -2.5
14.483935356140137 1.169277310371399 -2.5
13.368281364440918 5.695683479309082 -2.5
11.616738319396973 8.729423522949219 -2.5
10.876649856567383 9.63588809967041 -2.5
7.751386642456055 11.229804039001465 -2.347599983215332
4.838691234588623 12.758524894714355 -2.347599983215332
2.729384660720825 13.369482040405273 -2.347599983215332
-0.5494433641433716 13.63418960571289 -2.347599983215332
-1.6447656154632568 13.545761108398438 -2.347599983215332
-3.7963671684265137 13.106513023376465 -2.347599983215332
-7.751396179199219 11.22982406616211 -2.347599983215332
-10.213613510131836 9.048476219177246 -2.347599983215332
-11.532832145690918 7.292919635772705 -2.347599983215332
-13.368270874023438 5.695683479309082 -2.5
-14.108808517456055 3.4775097370147705 -2.5
-14.483935356140137 1.1692577600479126 -2.5
11.516279220581055 7.282480239868164 -2.5
10.198954582214355 9.035497665405273 -2.5
9.438827514648438 9.826874732971191 -2.5
8.6174898147583 10.554521560668945 -2.5
5.485107421875 11.559706687927246 -2.347599983215332
4.537158012390137 11.963603019714355 -2.347599983215332
1.6390527486801147 5.658681392669678 -1.0809141397476196
-0.5152148604393005 12.784687042236328 -2.347599983215332
-2.5593554973602295 12.536483764648438 -2.347599983215332
-5.485156059265137 11.559697151184082 -2.347599983215332
-6.397529125213623 11.080839157104492 -2.347599983215332
-9.57723617553711 8.484686851501465 -2.347599983215332
-13.229736328125 3.2608397006988525 -2.5
-13.449198722839355 2.185800790786743 -2.5
12.823447227478027 1.9531249563442543e-05 -2.5
12.65738296508789 2.057021379470825 -2.5
12.450810432434082 3.06884765625 -2.5
12.163505554199219 4.060791015625 -2.5
10.838261604309082 6.853710651397705 -2.5
8.883105278015137 9.248320579528809 -2.5
8.109345436096191 9.932157516479492 -2.49975848197937
6.840468406677246 9.91015625 -2.347599983215332
5.162207126617432 10.879101753234863 -2.347599983215332
4.27004861831665 11.259218215942383 -2.347599983215332
1.63894522190094 5.658369064331055 -1.148471474647522
2.408642530441284 11.798378944396973 -2.347599983215332
-1.4514745473861694 11.953935623168945 -2.347599983215332
-3.350234270095825 11.566298484802246 -2.347599983215332
-6.020878791809082 10.428437232971191 -2.347599983215332
-6.840507507324219 9.910136222839355 -2.347599983215332
-7.61575174331665 9.327597618103027 -2.347599983215332
-9.013379096984863 7.985146522521973 -2.347599983215332
-9.626688957214355 7.233983993530273 -2.347599983215332
-12.657392501831055 2.0570409297943115 -2.5
12.068251609802246 0.97425776720047 -2.5
11.484403610229492 3.834062337875366 -2.5
11.13866138458252 4.745741844177246 -2.5
10.720664024353027 5.626640319824219 -2.5
6.458564281463623 9.356884956359863 -2.347599983215332
4.314013481140137 7.472099304199219 -1.7815428972244263
4.873984336853027 10.271728515625 -2.347599983215332
4.031660079956055 10.630615234375 -2.347599983215332
2.274179697036743 11.139667510986328 -2.347599983215332
1.3704198598861694 11.286542892456055 -2.347599983215332
0.45778319239616394 11.360214233398438 -2.347599983215332
-3.1631932258605957 10.920546531677246 -2.347599983215332
-5.684726238250732 9.846230506896973 -2.347599983215332
-6.458603382110596 9.356864929199219 -2.347599983215332
-8.51015567779541 7.53933572769165 -2.347599983215332
-9.089228630065918 6.83010721206665 -2.347599983215332
-10.093241691589355 6.382577896118164 -2.4658191204071045
-11.138671875 4.745741844177246 -2.5
-11.484423637390137 3.8340721130371094 -2.5
-11.75570297241211 2.89751935005188 -2.5
-11.950722694396973 1.9421972036361694 -2.5
-12.068251609802246 0.9742480516433716 -2.5
11.42733383178711 0.9225097298622131 -2.5
11.316054344177246 1.8390429019927979 -2.5
11.131376266479492 2.7436327934265137 -2.5
10.87451171875 3.6304686069488525 -2.5
10.547119140625 4.493710994720459 -2.5
9.689687728881836 6.127392292022705 -2.5
9.165214538574219 6.887226581573486 -2.5
6.115566253662109 8.859960556030273 -2.347599983215332
4.615136623382568 9.72623062133789 -2.347599983215332
3.817558526992798 10.066044807434082 -2.347599983215332
2.153388738632202 10.548086166381836 -2.347599983215332
0.4334765672683716 10.756914138793945 -2.347599983215332
-2.9952049255371094 10.340604782104492 -2.347599983215332
-7.457626819610596 7.764208793640137 -2.347599983215332
-8.606523513793945 6.467372894287109 -2.347599983215332
-10.151328086853027 5.327822208404541 -2.5
-10.874521255493164 3.630439281463623 -2.5
-11.131386756896973 2.7436327934265137 -2.5
-11.316054344177246 1.8390331268310547 -2.5
9.1987886428833 5.816972732543945 -2.5
8.146562576293945 7.217236042022705 -2.5
7.539403915405273 7.849355220794678 -2.5
5.805761814117432 8.411084175109863 -2.347599983215332
3.624140501022339 9.556093215942383 -2.347599983215332
1.6386816501617432 5.657412052154541 -1.3529303073883057
-0.4115332067012787 10.211962699890137 -2.347599983215332
-7.079814434051514 7.370869159698486 -2.347599983215332
-8.318066596984863 6.250624656677246 -2.390001058578491
-9.637041091918945 5.057909965515137 -2.5
-10.567450523376465 2.604628801345825 -2.5
-10.848417282104492 0.8757714629173279 -2.5
10.35634708404541 0.0 -2.5
10.222246170043945 1.6612792015075684 -2.5
8.279306411743164 6.221503734588623 -2.5
4.314120769500732 7.472294807434082 -2.082841396331787
4.169043064117432 8.786093711853027 -2.347599983215332
1.6385838985443115 5.657089710235596 -1.421741247177124
1.9452440738677979 9.528505325317383 -2.347599983215332
-0.3916015625 9.717158317565918 -2.347599983215332
-1.1722265481948853 9.654130935668945 -2.347599983215332
-1.9452636241912842 9.528515815734863 -2.347599983215332
-2.705683469772339 9.341073989868164 -2.347599983215332
-6.150556564331055 7.533066272735596 -2.347599983215332
-8.732284545898438 5.521962642669678 -2.494056463241577
-10.055429458618164 2.4784374237060547 -2.5
-10.22225570678711 1.6612792015075684 -2.5
9.875292778015137 0.0 -2.5
9.843271255493164 0.794628918170929 -2.5
9.747411727905273 1.5841113328933716 -2.5
9.588339805603027 2.363330125808716 -2.5
9.085078239440918 3.870781183242798 -2.5
8.346503257751465 5.278027057647705 -2.5
7.391777038574219 6.548554420471191 -2.5
6.84084939956665 7.122109413146973 -2.5
6.231035232543945 7.631650447845459 -2.494178056716919
5.267831802368164 7.631777286529541 -2.347599983215332
4.314150333404541 7.472353458404541 -2.1843183040618896
3.9753904342651367 8.377978324890137 -2.347599983215332
3.2883594036102295 8.670702934265137 -2.347599983215332
0.3733886778354645 9.265790939331055 -2.347599983215332
-0.3734081983566284 9.265790939331055 -2.347599983215332
-1.8549022674560547 9.085898399353027 -2.347599983215332
-2.580009698867798 8.907177925109863 -2.347599983215332
-3.97540020942688 8.377978324890137 -2.347599983215332
-4.636660099029541 8.03090763092041 -2.347599983215332
-5.267861366271973 7.631777286529541 -2.347599983215332
-5.86486291885376 7.183164119720459 -2.347599983215332
-6.423847675323486 6.687929630279541 -2.347599983215332
-7.732597351074219 5.810673713684082 -2.448657512664795
-8.744150161743164 4.589296817779541 -2.5
-9.36709976196289 3.127187490463257 -2.5
-9.843280792236328 0.7946191430091858 -2.5
9.434598922729492 0.0 -2.5
9.160449028015137 2.2578516006469727 -2.5
8.679638862609863 3.69805645942688 -2.5
8.35391616821289 4.384482383728027 -2.5
7.974023342132568 5.042470455169678 -2.5
7.542431354522705 5.667773246765137 -2.5
7.061894416809082 6.256308555603027 -2.5
6.535566329956055 6.804257869720459 -2.5
5.03274393081665 7.291210651397705 -2.347599983215332
4.314189434051514 7.472392559051514 -2.2863664627075195
3.141611337661743 8.283759117126465 -2.347599983215332
1.6384081840515137 5.656455039978027 -1.5604665279388428
1.7721190452575684 8.680419921875 -2.347599983215332
1.0678808689117432 8.794882774353027 -2.347599983215332
0.3567187488079071 8.852285385131836 -2.347599983215332
-0.35673826932907104 8.852294921875 -2.347599983215332
-2.4648730754852295 8.509687423706055 -2.347599983215332
-3.7979979515075684 8.004091262817383 -2.347599983215332
-5.032773494720459 7.291210651397705 -2.347599983215332
-6.631415843963623 5.874911785125732 -2.347599983215332
-7.43639612197876 5.588085651397705 -2.4648540019989014
-8.353935241699219 4.384482383728027 -2.5
-8.94906234741211 2.9876365661621094 -2.5
-9.160449028015137 2.2578516006469727 -2.5
-9.312431335449219 1.5134179592132568 -2.5
8.912353515625 1.4484081268310547 -2.5
8.564589500427246 2.8592967987060547 -2.5
8.306737899780273 3.539179563522339 -2.5
6.254794597625732 6.511943340301514 -2.5
4.239433288574219 7.34289026260376 -2.347599983215332
1.6959764957427979 8.307499885559082 -2.347599983215332
0.34138670563697815 8.4719820022583 -2.347599983215332
-1.022011637687683 8.4170503616333 -2.347599983215332
-2.3589744567871094 8.144091606140137 -2.347599983215332
-3.00665020942688 7.927880764007568 -2.347599983215332
-4.239433288574219 7.342900276184082 -2.347599983215332
-5.362421989440918 6.567773342132568 -2.347599983215332
-6.435732364654541 5.701562404632568 -2.380601644515991
-7.995038986206055 4.196123123168945 -2.5
-8.306757926940918 3.539179563522339 -2.5
-8.912353515625 1.4484081268310547 -2.5
-8.999990463256836 0.7265722751617432 -2.5
8.655146598815918 0.0 -2.5
8.627089500427246 0.6964550614356995 -2.5
8.403642654418945 2.0713183879852295 -2.5
7.315234184265137 4.625898361206055 -2.5
6.919296741485596 5.199531078338623 -2.5
5.995625019073486 6.242128849029541 -2.5
5.46533203125 6.693828105926514 -2.4960861206054688
4.063769340515137 7.038661956787109 -2.347599983215332
3.484208822250366 7.342822074890137 -2.347599983215332
2.8820605278015137 7.599384784698486 -2.347599983215332
1.6257128715515137 7.963271141052246 -2.347599983215332
0.9796484112739563 8.068281173706055 -2.347599983215332
0.3272460997104645 8.120946884155273 -2.347599983215332
-0.9796679615974426 8.068281173706055 -2.347599983215332
-1.6257226467132568 7.963290691375732 -2.347599983215332
-3.4842283725738525 7.342822074890137 -2.347599983215332
-6.28173828125 5.565136432647705 -2.424079656600952
-6.876152038574219 5.167099475860596 -2.4844114780426025
-7.962568283081055 3.3925390243530273 -2.5
-8.40365219116211 2.0713086128234863 -2.5
-8.543066024780273 1.3883984088897705 -2.5
-8.627079963684082 0.6964648365974426 -2.5
8.30868148803711 9.765624781721272e-06 -2.5
8.067235946655273 1.9884082078933716 -2.5
7.881083965301514 2.631093740463257 -2.5
6.642304420471191 4.991386413574219 -2.5
6.219130516052246 5.509677410125732 -2.5
5.755615234375 5.992246150970459 -2.5
4.432138442993164 6.421073913574219 -2.347599983215332
3.3447461128234863 7.048886775970459 -2.347599983215332
1.6076171398162842 5.550185203552246 -1.738649845123291
0.9404491782188416 7.745302677154541 -2.347599983215332
-1.560644507408142 7.64453125 -2.347599983215332
-3.3447461128234863 7.048896312713623 -2.347599983215332
-4.934462547302246 6.043612957000732 -2.347599983215332
-5.404775142669678 5.626943111419678 -2.347599983215332
-6.070448875427246 5.377939224243164 -2.4402294158935547
-7.022411823272705 4.440722465515137 -2.5
-7.643818378448486 3.256718635559082 -2.5
-8.20108413696289 1.3328124284744263 -2.5
7.98681640625 9.765624781721272e-06 -2.5
7.883388519287109 1.281191349029541 -2.5
7.754726409912109 1.9113671779632568 -2.5
6.750370979309082 4.268681526184082 -2.5
6.384999752044678 4.798017501831055 -2.5
5.532656192779541 5.760117053985596 -2.5
5.047577857971191 6.182177543640137 -2.498196601867676
3.7499608993530273 6.495156288146973 -2.347599983215332
3.215165853500366 6.775829792022705 -2.347599983215332
2.6595115661621094 7.012578010559082 -2.347599983215332
-0.302001953125 7.493866920471191 -2.347599983215332
-1.5001952648162842 7.348369121551514 -2.347599983215332
-3.2151756286621094 6.775839805603027 -2.347599983215332
-3.7499706745147705 6.49514627456665 -2.347599983215332
-5.198955059051514 5.412665843963623 -2.349202871322632
-7.071972370147705 3.711669921875 -2.5
-7.575790882110596 2.5291600227355957 -2.5
-7.960917949676514 0.6426659822463989 -2.5
7.587411880493164 1.2330760955810547 -2.5
7.291357040405273 2.4342284202575684 -2.5
7.071845531463623 3.0130369663238525 -2.5
6.145283222198486 4.617890357971191 -2.5
5.753769397735596 5.097392559051514 -2.5
5.324941158294678 5.543867111206055 -2.5
4.860332012176514 5.952831745147705 -2.499358654022217
3.60918927192688 6.251308441162109 -2.347599983215332
3.0944628715515137 6.521435260772705 -2.347599983215332
2.5596678256988525 6.749287128448486 -2.347599983215332
1.44384765625 7.072499752044678 -2.347599983215332
0.8700683116912842 7.165741920471191 -2.347599983215332
-0.29066404700279236 7.212529182434082 -2.347599983215332
-0.8700878620147705 7.165741920471191 -2.347599983215332
-1.4438672065734863 7.072490215301514 -2.347599983215332
-2.0082812309265137 6.93337869644165 -2.347599983215332
-3.094472646713257 6.521445274353027 -2.347599983215332
-3.60918927192688 6.251308441162109 -2.347599983215332
-4.100527286529541 5.940585613250732 -2.347599983215332
-4.565224647521973 5.591386795043945 -2.347599983215332
-5.001552581787109 5.207167625427246 -2.3481693267822266
-5.68004846572876 5.032080173492432 -2.467963457107544
-6.144853591918945 4.617558479309082 -2.4998207092285156
-6.496953010559082 4.10842752456665 -2.5
-6.806474685668945 3.5723142623901367 -2.5
-7.071855545043945 3.0130369663238525 -2.5
-7.58743143081665 1.2330760955810547 -2.5
-7.662040710449219 0.6185351610183716 -2.5
7.382851600646973 0.5960156321525574 -2.5
7.191640377044678 1.7725878953933716 -2.5
7.025693416595459 2.345527410507202 -2.5
6.814169883728027 2.903261661529541 -2.5
6.260204792022705 3.958730459213257 -2.5
5.544120788574219 4.911679744720459 -2.5
5.130918025970459 5.341865062713623 -2.5
4.684443473815918 5.737411975860596 -2.5
4.097451210021973 5.936191082000732 -2.434568405151367
3.477665901184082 6.023515701293945 -2.347599983215332
1.5993456840515137 5.521611213684082 -1.9402810335159302
1.3912402391433716 6.814794540405273 -2.347599983215332
0.8383691310882568 6.904648303985596 -2.347599983215332
0.2800585925579071 6.94970703125 -2.347599983215332
-1.391259789466858 6.814794540405273 -2.347599983215332
-1.9351073503494263 6.680742263793945 -2.347599983215332
-2.9817187786102295 6.283818244934082 -2.347599983215332
-4.398886680603027 5.387656211853027 -2.347599983215332
-5.497128963470459 4.870038986206055 -2.4788122177124023
-6.260214805603027 3.958730459213257 -2.5
-7.025693416595459 2.345517635345459 -2.5
-7.191650390625 1.7725683450698853 -2.5
-7.382851600646973 0.5960058569908142 -2.5
7.144579887390137 0.0 -2.5
7.121416091918945 0.5749120712280273 -2.5
7.052060604095459 1.1460644006729126 -2.5
6.936972618103027 1.709814429283142 -2.5
6.326210975646973 3.320253849029541 -2.5
6.038525104522705 3.818554639816284 -2.5
5.711679458618164 4.292060375213623 -2.5
5.347792625427246 4.737753868103027 -2.5
4.94921875 5.152695178985596 -2.5
4.04690408706665 5.862958908081055 -2.4928040504455566
2.3790624141693115 6.273085594177246 -2.347599983215332
1.3419725894927979 6.573466777801514 -2.347599983215332
0.8086718320846558 6.660146236419678 -2.347599983215332
-0.27015623450279236 6.70361328125 -2.347599983215332
-0.8087011575698853 6.660136699676514 -2.347599983215332
-2.3790624141693115 6.273085594177246 -2.347599983215332
-3.3545312881469727 5.810214519500732 -2.347599983215332
-3.8111815452575684 5.521445274353027 -2.347599983215332
-4.648652076721191 4.839765548706055 -2.3481693267822266
-5.305400371551514 4.700175762176514 -2.480178117752075
-5.71169900894165 4.292060375213623 -2.5
-6.038544654846191 3.818544864654541 -2.5
-6.326220512390137 3.320253849029541 -2.5
-6.776914119720459 2.262460947036743 -2.5
-7.052070140838623 1.1460741758346558 -2.5
-7.121425628662109 0.5748925805091858 -2.5
6.809072017669678 1.106591820716858 -2.5
6.697958946228027 1.650917887687683 -2.5
6.108232498168945 3.2058591842651367 -2.5
5.514873027801514 4.144169807434082 -2.5
4.362871170043945 5.343554496765137 -2.5
3.910029172897339 5.664658069610596 -2.494442939758301
3.238945245742798 5.610029220581055 -2.347599983215332
0.2608300745487213 6.472636699676514 -2.347599983215332
-0.26084959506988525 6.472626686096191 -2.347599983215332
-1.2957617044448853 6.346972465515137 -2.347599983215332
-2.2970995903015137 6.05691385269165 -2.347599983215332
-3.238945245742798 5.610009670257568 -2.347599983215332
-3.679872989654541 5.331191062927246 -2.347599983215332
-4.488476276397705 4.673007488250732 -2.3481693267822266
-5.514892578125 4.144160270690918 -2.5
-6.108242034912109 3.2058496475219727 -2.5
-6.543398380279541 2.184511661529541 -2.5
-6.697958946228027 1.6508984565734863 -2.5
-6.80908203125 1.106591820716858 -2.5
-6.876054763793945 0.5550878643989563 -2.5
6.666845321655273 9.765624781721272e-06 -2.5
6.580497741699219 1.069433569908142 -2.5
6.473114967346191 1.59548819065094 -2.5
6.32373046875 2.1111912727355957 -2.5
6.133359432220459 2.6131932735443115 -2.5
5.634746074676514 3.5632030963897705 -2.5
5.329755783081055 4.005058288574219 -2.5
3.7811522483825684 5.477968692779541 -2.4960145950317383
3.1302146911621094 5.421709060668945 -2.347599983215332
1.252236247062683 6.133925437927246 -2.347599983215332
0.7545995712280273 6.214785099029541 -2.347599983215332
-0.25208982825279236 6.255361080169678 -2.347599983215332
-0.7546191215515137 6.214794635772705 -2.347599983215332
-2.2199902534484863 5.853613376617432 -2.347599983215332
-2.6838085651397705 5.655995845794678 -2.347599983215332
-3.556347608566284 5.152235984802246 -2.347599983215332
-4.078036785125732 4.994697093963623 -2.4179561138153076
-4.337802410125732 4.51614236831665 -2.3481693267822266
-4.972773551940918 4.405498027801514 -2.491267681121826
-5.903203010559082 3.0982518196105957 -2.5
-6.133359432220459 2.6131932735443115 -2.5
-6.323750019073486 2.1111814975738525 -2.5
-6.473114967346191 1.59548819065094 -2.5
-6.645234107971191 0.5364648103713989 -2.5
6.116689205169678 2.042070150375366 -2.5
5.709911823272705 2.9967968463897705 -2.5
4.826816082000732 4.276201248168945 -2.5
4.078349590301514 4.995087623596191 -2.5
3.6598143577575684 5.302148342132568 -2.4976863861083984
3.108515501022339 5.384130954742432 -2.4102468490600586
2.595937490463257 5.470810413360596 -2.347599983215332
2.147294759750366 5.661962985992432 -2.347599983215332
1.5881543159484863 5.482988357543945 -2.213033437728882
0.7299023270606995 6.011318206787109 -2.347599983215332
0.24381835758686066 6.050556659698486 -2.347599983215332
-0.2438378781080246 6.050556659698486 -2.347599983215332
-1.6847362518310547 5.816386699676514 -2.347599983215332
-3.0277342796325684 5.244179725646973 -2.347599983215332
-3.4399023056030273 4.983554363250732 -2.347599983215332
-4.266542911529541 4.441943168640137 -2.387773036956787
-5.450263500213623 3.446542978286743 -2.5
-5.709921836853027 2.9967968463897705 -2.5
-6.427656173706055 0.5189062356948853 -2.5
6.242421627044678 1.9531249563442543e-05 -2.5
6.161581993103027 1.0013574361801147 -2.5
5.921152114868164 1.9767870903015137 -2.5
5.276034832000732 3.336367130279541 -2.5
3.947988271713257 4.835419654846191 -2.5
1.5853222608566284 5.473212718963623 -2.2820398807525635
1.172519564628601 5.743417739868164 -2.347599983215332
0.2360253781080246 5.857138633728027 -2.347599983215332
-1.63088858127594 5.630449295043945 -2.347599983215332
-2.512949228286743 5.29592752456665 -2.347599983215332
-4.233935356140137 4.407998085021973 -2.447770118713379
-4.672529220581055 4.139492034912109 -2.5
-5.527392387390137 2.9009861946105957 -2.5
-6.222177505493164 0.5023144483566284 -2.5
6.047372817993164 1.9531249563442543e-05 -2.5
5.736152172088623 1.9150195121765137 -2.5
4.526513576507568 4.010156154632568 -2.5
4.189159870147705 4.361396312713623 -2.5
3.016288995742798 5.224384784698486 -2.4938840866088867
2.0137012004852295 5.309706687927246 -2.347599983215332
1.5799120664596558 5.454521179199219 -2.347599983215332
1.1358789205551147 5.56396484375 -2.347599983215332
0.6844921708106995 5.637333869934082 -2.347599983215332
-0.6845019459724426 5.637333869934082 -2.347599983215332
-1.135898470878601 5.563974380493164 -2.347599983215332
-1.579931616783142 5.454511642456055 -2.347599983215332
-2.0137109756469727 5.309706687927246 -2.347599983215332
-2.8393750190734863 4.917919635772705 -2.347599983215332
-3.820322275161743 4.679033279418945 -2.4971723556518555
-4.834540843963623 3.6329100131988525 -2.5
-5.111191272735596 3.232128858566284 -2.5
-5.354677677154541 2.81036114692688 -2.5
-5.563466548919678 2.3703808784484863 -2.5
-5.969072341918945 0.9700683355331421 -2.5
5.843505859375 0.47172850370407104 -2.5
5.786591529846191 0.9404296875 -2.5
5.69216775894165 1.4029979705810547 -2.5
5.560810565948486 1.85647451877594 -2.5
3.7077245712280273 4.541142463684082 -2.5
3.3302831649780273 4.824765682220459 -2.5
2.411005735397339 5.081103324890137 -2.398327350616455
1.9521484375 5.147402286529541 -2.347599983215332
1.5316210985183716 5.287792682647705 -2.347599983215332
0.22166015207767487 5.500673770904541 -2.347599983215332
-0.2216796875 5.500683307647705 -2.347599983215332
-0.66357421875 5.464999675750732 -2.347599983215332
-1.9521484375 5.147402286529541 -2.347599983215332
-2.3600292205810547 4.973622798919678 -2.347599983215332
-3.320507764816284 4.810585975646973 -2.4926512241363525
-4.061113357543945 4.228075981140137 -2.5
-4.388164043426514 3.8875584602355957 -2.5
-5.191005706787109 2.724443197250366 -2.5
-5.560810565948486 1.85647451877594 -2.5
-5.69216775894165 1.4029881954193115 -2.5
-5.786611080169678 0.9404101371765137 -2.5
-5.843505859375 0.4717382788658142 -2.5
5.66857385635376 0.45762693881988525 -2.5
5.394345760345459 1.8009082078933716 -2.5
5.231943130493164 2.229140520095825 -2.5
4.546454906463623 3.416455030441284 -2.5
4.256786823272705 3.7712011337280273 -2.5
3.230595588684082 4.680331707000732 -2.5
2.8406152725219727 4.920107364654541 -2.4974589347839355
2.4031152725219727 5.064472675323486 -2.4642436504364014
1.8937010765075684 4.993300437927246 -2.347599983215332
1.4857616424560547 5.129501819610596 -2.347599983215332
1.0681933164596558 5.232421875 -2.347599983215332
0.21501952409744263 5.336015701293945 -2.347599983215332
-0.21503905951976776 5.336015701293945 -2.347599983215332
-0.6437206864356995 5.301415920257568 -2.347599983215332
-1.068212866783142 5.232421875 -2.347599983215332
-1.4857909679412842 5.129501819610596 -2.347599983215332
-2.289365291595459 4.824726581573486 -2.347599983215332
-2.7106640338897705 4.695019245147705 -2.3832011222839355
-3.59673810005188 4.405204772949219 -2.5
-4.256796836853027 3.771191358566284 -2.5
-4.806630611419678 3.0395116806030273 -2.5
-5.394345760345459 1.8009082078933716 -2.5
-5.521777153015137 1.360986351966858 -2.5
-5.613388538360596 0.9122655987739563 -2.5
5.502255916595459 0.4441894292831421 -2.5
5.359755516052246 1.3210644721984863 -2.5
4.131904125213623 3.6605565547943115 -2.5
3.8239452838897705 3.981152296066284 -2.5
3.4911913871765137 4.275937557220459 -2.5
3.13580060005188 4.543007850646973 -2.5
1.442177653312683 4.97900390625 -2.347599983215332
0.6248144507408142 5.145869255065918 -2.347599983215332
-0.20873045921325684 5.179462909698486 -2.347599983215332
-0.6248339414596558 5.145869255065918 -2.347599983215332
-1.036865234375 5.078896522521973 -2.347599983215332
-1.4421874284744263 4.97900390625 -2.347599983215332
-2.2222070693969727 4.683164119720459 -2.347599983215332
-3.131279230117798 4.536416053771973 -2.496381998062134
-3.491201162338257 4.275957107543945 -2.5
-4.131894588470459 3.6605565547943115 -2.5
-4.665585994720459 2.950331926345825 -2.5
-4.887870788574219 2.565361261367798 -2.5
-5.359755516052246 1.3210546970367432 -2.5
-5.448681354522705 0.885498046875 -2.5
-5.502255916595459 0.44419920444488525 -2.5
5.361259460449219 9.765624781721272e-06 -2.5
5.343876838684082 0.43141600489616394 -2.5
5.085361003875732 1.69775390625 -2.5
4.932255744934082 2.101435422897339 -2.5
4.531289100646973 2.865419864654541 -2.5
4.286025524139404 3.2207422256469727 -2.5
3.390702962875366 4.152871131896973 -2.5
2.2940917015075684 4.834697246551514 -2.49538254737854
1.8522655963897705 4.884042739868164 -2.4357471466064453
1.40066397190094 4.835683345794678 -2.347599983215332
0.6068261861801147 4.997753620147705 -2.347599983215332
-0.2027246057987213 5.030371189117432 -2.347599983215332
-0.6068359017372131 4.997744083404541 -2.347599983215332
-1.007021427154541 4.932714939117432 -2.347599983215332
-1.400673747062683 4.835673809051514 -2.347599983215332
-2.183535099029541 4.601699352264404 -2.3751206398010254
-2.6730761528015137 4.629902362823486 -2.492953300476074
-3.043261766433716 4.408925533294678 -2.498117208480835
-3.3907127380371094 4.152880668640137 -2.5
-3.7138867378234863 3.8665623664855957 -2.5
-4.01296854019165 3.555185556411743 -2.5
-4.286025524139404 3.2207422256469727 -2.5
-4.531289100646973 2.865419864654541 -2.5
-4.747168064117432 2.491503953933716 -2.5
-5.085371017456055 1.6977441310882568 -2.5
