ply
format ascii 1.0
element vertex 733
property float x
property float y
property float z
end_header
1.873046875 -15.425951957702637 3.7967772483825684
1.8729442358016968 -15.425092697143555 3.433514356613159
1.872890591621399 -15.424662590026855 3.253340482711792
1.872841715812683 -15.424238204956055 3.0738537311553955
1.8727929592132568 -15.423812866210938 2.8952722549438477
1.8727391958236694 -15.423388481140137 2.717334032058716
1.8726904392242432 -15.422968864440918 2.540163278579712
1.8726366758346558 -15.422548294067383 2.3636627197265625
1.8724365234375 -15.420883178710938 1.6631673574447632
1.872280240058899 -15.419648170471191 1.1423944234848022
1.8721874952316284 -15.418851852416992 0.9694204330444336
1.0211962461471558 -25.340755462646484 1.3009487390518188
1.8720752000808716 -15.417997360229492 0.7966995239257812
-8.616816520690918 -14.924760818481445 0.3103640675544739
1.8717724084854126 -15.415438652038574 0.2796597182750702
1.871669888496399 -15.414589881896973 0.10754455626010895
-8.61166000366211 -14.915824890136719 -0.07157424837350845
1.8715673685073853 -15.413735389709473 -0.06452468782663345
-8.599096298217773 -14.894057273864746 -0.26206862926483154
-8.611664772033691 -14.915824890136719 -0.4533950686454773
1.8712596893310547 -15.411181449890137 -0.5808804035186768
-6.157294750213623 -16.23543930053711 -0.8424803018569946
1.8711522817611694 -15.410326957702637 -0.7531905770301819
-20.262781143188477 -12.813417434692383 -1.4296636581420898
-8.611655235290527 -14.915824890136719 -1.027083396911621
-6.157285213470459 -16.23543930053711 -1.0354609489440918
1.8710497617721558 -15.409472465515137 -0.925667405128479
-1.1672948598861694 -28.96601104736328 -2.051356077194214
8.07876968383789 -21.301889419555664 -1.612127661705017
20.308881759643555 -17.992124557495117 -1.9199438095092773
20.46484375 -6.832167625427246 -1.5267022848129272
-20.045312881469727 -12.6759033203125 -1.9426127672195435
-21.453310012817383 -19.005985260009766 -2.347599983215332
-15.38558578491211 -16.01807975769043 -1.819202184677124
-12.388110160827637 -26.107406616210938 -2.366938352584839
-6.157294750213623 -16.23543930053711 -1.4222387075424194
-3.497915029525757 -28.807836532592773 -2.3769302368164062
-1.1688525676727295 -29.004711151123047 -2.377652406692505
1.1688427925109863 -29.004613876342773 -2.377645969390869
3.1924169063568115 -15.637504577636719 -1.307259440422058
14.441181182861328 -25.012845993041992 -2.3657028675079346
18.21308135986328 -22.306982040405273 -2.358781576156616
22.913095474243164 -17.21807098388672 -2.347599983215332
24.22425651550293 -15.318500518798828 -2.347599983215332
25.37834930419922 -13.319575309753418 -2.347599983215332
26.36783218383789 -11.23427677154541 -2.347599983215332
20.33370018005371 -6.788388729095459 -1.755860447883606
-26.77305793762207 -2.1613426208496094 -2.5
-26.5123233795166 -4.308691501617432 -2.5
-25.477840423583984 -8.505746841430664 -2.5
-24.710792541503906 -10.52828598022461 -2.5
-23.783485412597656 -12.48253345489502 -2.5
-14.503837585449219 -17.763978958129883 -2.1344757080078125
-10.846464157104492 -22.858455657958984 -2.354907512664795
-6.157289981842041 -16.23543930053711 -1.6161304712295532
-7.055869102478027 -24.35966682434082 -2.3604631423950195
-5.076899528503418 -24.86824607849121 -2.3623459339141846
-3.0610105991363525 -25.209604263305664 -2.3636088371276855
-1.0228124856948853 -25.38094139099121 -2.3642401695251465
1.0228124856948853 -25.38089370727539 -2.364236354827881
7.056586742401123 -24.362138748168945 -2.3607025146484375
7.831728458404541 -20.650482177734375 -2.055619955062866
12.6438570022583 -21.89981460571289 -2.3536462783813477
24.28495979309082 -10.346850395202637 -2.456918478012085
26.07963752746582 -6.428071022033691 -2.5
-23.899843215942383 -1.9293993711471558 -2.5
-23.667097091674805 -3.8462841510772705 -2.5
-23.280818939208984 -5.73827600479126 -2.5
-21.231081008911133 -11.142939567565918 -2.5
-20.265600204467773 -12.81520938873291 -2.5
-19.15042495727539 -14.390609741210938 -2.497616767883301
-15.298027038574219 -15.926918983459473 -2.3025500774383545
-14.240073204040527 -17.44093132019043 -2.347599983215332
-6.157294750213623 -16.23543930053711 -1.8104212284088135
-2.7204930782318115 -22.405302047729492 -2.353226900100708
0.9090136289596558 -22.556928634643555 -2.3537867069244385
1.8706297874450684 -15.406049728393555 -1.6180953979492188
6.272348403930664 -21.654653549194336 -2.3506088256835938
6.299526214599609 -16.61048698425293 -1.852242350578308
7.627036094665527 -16.073667526245117 -1.8550035953521729
11.257948875427246 -19.49933624267578 -2.347599983215332
12.79049301147461 -18.530223846435547 -2.347599983215332
14.240068435668945 -17.44093132019043 -2.347599983215332
15.597309112548828 -16.238525390625 -2.347599983215332
16.853384017944336 -14.930819511413574 -2.347599983215332
18.000165939331055 -13.5262451171875 -2.347599983215332
19.396221160888672 -12.265443801879883 -2.3927528858184814
22.058856964111328 -9.39840316772461 -2.5
20.19668960571289 -6.742646217346191 -2.220040798187256
23.280818939208984 -5.738222599029541 -2.5
23.667049407958984 -3.8462791442871094 -2.5
23.89981460571289 -1.9293944835662842 -2.5
-21.648893356323242 9.765624781721272e-06 -2.5
-21.57868766784668 -1.7420116662979126 -2.5
-21.368547439575195 -3.4727392196655273 -2.5
-21.019817352294922 -5.180947303771973 -2.5
-20.534767150878906 -6.855512619018555 -2.5
-19.91653823852539 -8.485649108886719 -2.5
-17.30705451965332 -13.005414962768555 -2.5
-12.857094764709473 -15.74709415435791 -2.347599983215332
-11.548291206359863 -16.7305850982666 -2.347599983215332
-8.7149658203125 -18.36640167236328 -2.347599983215332
-4.066367149353027 -19.918338775634766 -2.347599983215332
-2.4504148960113525 -20.180952072143555 -2.347599983215332
-0.8185741901397705 -20.312694549560547 -2.347599983215332
0.8185741901397705 -20.312694549560547 -2.347599983215332
1.8630468845367432 -15.343573570251465 -1.7848790884017944
3.1560301780700684 -15.45925235748291 -1.8220456838607788
5.655942440032959 -19.52654266357422 -2.347599983215332
11.548291206359863 -16.730581283569336 -2.347599983215332
12.857084274291992 -15.747079849243164 -2.347599983215332
15.216591835021973 -13.48074722290039 -2.347599983215332
18.297426223754883 -11.570605278015137 -2.5
19.916532516479492 -8.485639572143555 -2.5
20.28419303894043 -6.771860122680664 -2.469494104385376
21.578691482543945 -1.7420165538787842 -2.5
-19.72798728942871 4.882812390860636e-06 -2.5
-19.664012908935547 -1.5874462127685547 -2.5
-18.71271514892578 -6.247231483459473 -2.5
-16.67389678955078 -10.543940544128418 -2.5
-15.771395683288574 -11.851435661315918 -2.5
-13.666054725646973 -14.227880477905273 -2.5
-12.014677047729492 -14.715312004089355 -2.407388925552368
-8.611664772033691 -14.915824890136719 -2.1826019287109375
-7.941684246063232 -16.736753463745117 -2.347599983215332
-3.705556631088257 -18.150970458984375 -2.347599983215332
-2.232988119125366 -18.390296936035156 -2.347599983215332
0.7459374666213989 -18.51034164428711 -2.347599983215332
1.8609423637390137 -15.326234817504883 -1.9564590454101562
3.1560301780700684 -15.45925235748291 -1.9994584321975708
5.15408182144165 -17.793949127197266 -2.347599983215332
6.204164981842041 -16.359027862548828 -2.2171521186828613
9.262685775756836 -16.043441772460938 -2.347599983215332
13.292987823486328 -13.839487075805664 -2.4317548274993896
14.764535903930664 -13.080248832702637 -2.499650001525879
15.771395683288574 -11.8514404296875 -2.5
18.149335861206055 -7.732705116271973 -2.5
18.712709426879883 -6.24722146987915 -2.5
19.154720306396484 -4.721230506896973 -2.5
19.664012908935547 -1.5874462127685547 -2.5
-18.116058349609375 4.882812390860636e-06 -2.5
-17.881460189819336 -2.9060301780700684 -2.5
-17.183740615844727 -5.736772537231445 -2.5
-16.666400909423828 -7.100883483886719 -2.5
-15.311508178710938 -9.682412147521973 -2.5
-14.48275375366211 -10.883095741271973 -2.5
-12.549443244934082 -13.065336227416992 -2.5
-11.45742130279541 -14.032793045043945 -2.5
-8.505854606628418 -14.732563018798828 -2.347599983215332
-7.292783260345459 -15.369233131408691 -2.347599983215332
-4.732958793640137 -16.340044021606445 -2.347599983215332
-2.050537109375 -16.887664794921875 -2.347599983215332
-0.6849902272224426 -16.997909545898438 -2.347599983215332
0.6849951148033142 -16.997909545898438 -2.347599983215332
4.732958793640137 -16.34004783630371 -2.347599983215332
9.916860580444336 -14.367045402526855 -2.4090864658355713
11.433608055114746 -14.003637313842773 -2.4948065280914307
13.560043334960938 -12.013168334960938 -2.5
14.48275375366211 -10.883075714111328 -2.5
15.311508178710938 -9.682421684265137 -2.5
16.04096221923828 -8.418950080871582 -2.5
16.66639518737793 -7.100883483886719 -2.5
17.589628219604492 -4.335464000701904 -2.5
17.881460189819336 -2.9060254096984863 -2.5
18.057310104370117 -1.457739233970642 -2.5
-16.743764877319336 0.0 -2.5
-16.68946647644043 -1.3473193645477295 -2.5
-15.403915405273438 -6.563002586364746 -2.5
-14.8258638381958 -7.781220436096191 -2.5
-14.151659965515137 -8.948979377746582 -2.5
-13.3856782913208 -10.058691024780273 -2.5
-10.58951187133789 -12.969809532165527 -2.5
-8.358935356140137 -14.478105545043945 -2.49613356590271
-5.585693359375 -14.728281021118164 -2.35190486907959
-3.14501953125 -15.405302047729492 -2.347599983215332
-1.8952099084854126 -15.608417510986328 -2.347599983215332
3.14501953125 -15.405312538146973 -2.347599983215332
6.941616058349609 -14.629169464111328 -2.4176974296569824
10.589496612548828 -12.969804763793945 -2.5
14.151655197143555 -8.948974609375 -2.5
14.8258638381958 -7.781215667724609 -2.5
15.882064819335938 -5.302211761474609 -2.5
16.257221221923828 -4.007094860076904 -2.5
16.689462661743164 -1.347314476966858 -2.5
-15.510629653930664 -1.2521435022354126 -2.5
-13.152079582214355 -8.316884994506836 -2.5
-12.440204620361328 -9.348212242126465 -2.5
-11.6476411819458 -10.318925857543945 -2.5
-10.779550552368164 -11.222704887390137 -2.5
-9.841537475585938 -12.05370044708252 -2.5
-8.839712142944336 -12.806523323059082 -2.5
-7.780551433563232 -13.476298332214355 -2.5
-6.67092752456665 -14.058676719665527 -2.5
-4.259536266326904 -14.705619812011719 -2.45967435836792
-3.003955125808716 -14.714311599731445 -2.4127190113067627
-0.5933056473731995 -14.72274398803711 -2.367231607437134
0.593310534954071 -14.722739219665527 -2.367231607437134
1.787329077720642 -14.71996021270752 -2.382235050201416
3.003955125808716 -14.714311599731445 -2.412717819213867
2.5140624046325684 -6.629047870635986 -1.1390206813812256
6.670912742614746 -14.058676719665527 -2.5
7.780537128448486 -13.476293563842773 -2.5
8.839706420898438 -12.806528091430664 -2.5
9.841537475585938 -12.05370044708252 -2.5
10.779536247253418 -11.222704887390137 -2.5
11.647631645202637 -10.318915367126465 -2.5
13.152070045471191 -8.316869735717773 -2.5
13.778656959533691 -7.23159646987915 -2.5
14.31588363647461 -6.099423885345459 -2.5
14.760263442993164 -4.927700042724609 -2.5
15.10891056060791 -3.7240185737609863 -2.5
15.359569549560547 -2.4961814880371094 -2.5
15.510634422302246 -1.252163052558899 -2.5
-14.483935356140137 -1.1692675352096558 -2.5
-14.108813285827637 -3.4775242805480957 -2.5
-13.783231735229492 -4.601523399353027 -2.5
-12.281503677368164 -7.766362190246582 -2.5
-11.616752624511719 -8.729423522949219 -2.5
-8.254590034484863 -11.958818435668945 -2.5
-6.229355335235596 -13.12807559967041 -2.5
0.5841308236122131 -14.49514102935791 -2.495844602584839
1.7496337890625 -14.409506797790527 -2.497296094894409
2.9065771102905273 -14.23739242553711 -2.5
2.451245069503784 -6.46340799331665 -1.189283013343811
3.0577147006988525 -6.444003582000732 -1.2271395921707153
7.265522480010986 -12.584267616271973 -2.5
8.254579544067383 -11.95882797241211 -2.5
10.066010475158691 -10.479843139648438 -2.5
12.866605758666992 -6.75292444229126 -2.5
13.368270874023438 -5.695688247680664 -2.5
13.78323745727539 -4.601518630981445 -2.5
14.108808517456055 -3.4775195121765137 -2.5
14.342880249023438 -2.3309521675109863 -2.5
14.483930587768555 -1.1692675352096558 -2.5
-13.581488609313965 -1.0964208841323853 -2.5
-13.449223518371582 -2.185717821121216 -2.5
-13.229736328125 -3.260854482650757 -2.5
-12.535341262817383 -5.340805530548096 -2.5
-10.8929443359375 -8.185522079467773 -2.5
-9.438838005065918 -9.82686996459961 -2.5
-5.841225624084473 -12.310121536254883 -2.5
0.5486474633216858 -13.6146240234375 -2.5
1.6423925161361694 -13.52633285522461 -2.5
2.7254834175109863 -13.350312232971191 -2.5
2.4373583793640137 -6.42678689956665 -1.2611212730407715
3.035468578338623 -6.39712381362915 -1.2991585731506348
6.812827110290527 -11.800185203552246 -2.5
7.740258693695068 -11.213706016540527 -2.5
9.438822746276855 -9.826879501342773 -2.5
10.198954582214355 -9.035492897033691 -2.5
12.06493091583252 -6.332162857055664 -2.5
12.5353364944458 -5.340800762176514 -2.5
13.229736328125 -3.2608447074890137 -2.5
-12.823447227478027 -4.882812390860636e-06 -2.5
-12.657392501831055 -2.0570311546325684 -2.5
-12.450824737548828 -3.0689306259155273 -2.5
-10.838252067565918 -6.853705883026123 -2.5
-10.251615524291992 -7.703593730926514 -2.5
-9.598490715026855 -8.503520011901855 -2.5
-8.110136985778809 -9.933110237121582 -2.5
-6.411733150482178 -11.105429649353027 -2.5
-5.497319221496582 -11.58535099029541 -2.5
-4.547255992889404 -11.990140914916992 -2.5
-3.5677146911621094 -12.31716251373291 -2.5
1.5456883907318115 -12.729950904846191 -2.5
1.4939013719558716 -7.317607402801514 -1.4560308456420898
2.4226465225219727 -6.388002872467041 -1.331928014755249
3.0185301303863525 -6.361430644989014 -1.372730016708374
7.28454065322876 -10.553495407104492 -2.5
8.110121726989746 -9.933110237121582 -2.5
8.883105278015137 -9.248310089111328 -2.5
11.354594230651855 -5.9593505859375 -2.5
11.797304153442383 -5.026357173919678 -2.5
12.450819969177246 -3.068852424621582 -2.5
12.781865119934082 -1.0318554639816284 -2.5
-12.107519149780273 -4.882812390860636e-06 -2.5
-11.755693435668945 -2.897534132003784 -2.5
-8.38717269897461 -8.73196792602539 -2.5
-6.877856254577637 -9.9642915725708 -2.5
-6.053759574890137 -10.485414505004883 -2.5
-2.421821117401123 -11.862836837768555 -2.5
-1.4594091176986694 -12.019238471984863 -2.5
-0.4875243902206421 -12.097695350646973 -2.5
0.4875195324420929 -12.097695350646973 -2.5
0.9252148270606995 -7.619833946228027 -1.5849233865737915
1.4117627143859863 -6.915268421173096 -1.4573400020599365
1.842016577720642 -6.359375 -1.3670800924301147
2.9894139766693115 -6.300073146820068 -1.439879059791565
3.61675763130188 -6.264404296875 -1.493599534034729
6.877851486206055 -9.9642915725708 -2.5
7.657338619232178 -9.378544807434082 -2.5
8.387158393859863 -8.731977462768555 -2.5
9.6792573928833 -7.273500919342041 -2.5
11.13866138458252 -4.745737075805664 -2.5
-11.13138198852539 -2.743657112121582 -2.5
-10.874516487121582 -3.630449056625366 -2.5
-10.547119140625 -4.493715763092041 -2.5
-7.941747665405273 -8.268241882324219 -2.5
-7.250683307647705 -8.880473136901855 -2.5
-6.512592792510986 -9.435107231140137 -2.5
-5.732265472412109 -9.928564071655273 -2.5
-4.914755821228027 -10.357626914978027 -2.5
-4.065375804901123 -10.719511032104492 -2.5
-3.18963360786438 -11.011869430541992 -2.5
-1.3819042444229126 -11.380932807922363 -2.5
0.46162107586860657 -11.455214500427246 -2.5
0.8675390481948853 -7.144824028015137 -1.5694719552993774
1.3614940643310547 -6.669052600860596 -1.4842764139175415
6.512578010559082 -9.435107231140137 -2.5
7.941747665405273 -8.268237113952637 -2.5
9.165214538574219 -6.887216567993164 -2.5
9.689677238464355 -6.127402305603027 -2.5
11.131376266479492 -2.743642568588257 -2.5
11.42733383178711 -0.9225146174430847 -2.5
-10.883710861206055 0.0 -2.5
-10.848407745361328 -0.8757763504981995 -2.5
-10.323593139648438 -3.4465184211730957 -2.5
-9.637041091918945 -5.057909965515137 -2.5
-8.146562576293945 -7.217236042022705 -2.5
-6.883349418640137 -8.43056583404541 -2.5
-6.182651042938232 -8.957114219665527 -2.5
-3.0280418395996094 -10.453993797302246 -2.5
-1.3118896484375 -10.80435562133789 -2.5
0.8274657726287842 -6.814770221710205 -1.5768581628799438
1.3089550733566284 -6.411689281463623 -1.503150463104248
1.8165429830551147 -6.271430492401123 -1.499769687652588
2.359267473220825 -6.220878601074219 -1.528254508972168
2.9256200790405273 -6.165629863739014 -1.5676021575927734
3.5282909870147705 -6.111181735992432 -1.6209051609039307
6.182641506195068 -8.957109451293945 -2.5
6.883344650268555 -8.430571556091309 -2.5
7.539399147033691 -7.84935998916626 -2.5
8.146562576293945 -7.217236042022705 -2.5
8.70089340209961 -6.538300514221191 -2.5
9.1987886428833 -5.816972732543945 -2.5
9.637041091918945 -5.057909965515137 -2.5
-10.35635757446289 0.0 -2.5
-10.322772979736328 -0.8333446979522705 -2.5
-10.055419921875 -2.478452205657959 -2.5
-9.527641296386719 -4.059345722198486 -2.5
-9.1701021194458 -4.812841892242432 -2.5
-7.17410135269165 -7.469027996063232 -2.5
-6.54983377456665 -8.022085189819336 -2.5
-5.883090496063232 -8.523115158081055 -2.5
-5.178183555603027 -8.968867301940918 -2.5
-4.439697265625 -9.356454849243164 -2.5
-3.67242169380188 -9.683354377746582 -2.5
-2.8813230991363525 -9.947465896606445 -2.5
-1.248329997062683 -10.280844688415527 -2.5
0.4170019328594208 -10.3479585647583 -2.5
1.7953808307647705 -6.198378562927246 -1.5577770471572876
2.3335790634155273 -6.153149127960205 -1.5885881185531616
2.897402286529541 -6.106162071228027 -1.6315356492996216
6.549818992614746 -8.022089958190918 -2.5
7.751835823059082 -6.867538928985596 -2.5
8.75308609008789 -5.535126686096191 -2.5
9.527631759643555 -4.059345722198486 -2.5
10.222241401672363 -1.66128408908844 -2.5
-9.875307083129883 0.0 -2.5
-9.747421264648438 -1.5841162204742432 -2.5
-9.58834457397461 -2.3633251190185547 -2.5
-8.744150161743164 -4.589282035827637 -2.5
-7.391772270202637 -6.548540115356445 -2.5
-6.840859413146973 -7.122094631195068 -2.5
-3.5018310546875 -9.233573913574219 -2.5
-2.747485399246216 -9.4854097366333 -2.5
-1.9753271341323853 -9.675726890563965 -2.5
-0.3976415991783142 -9.867294311523438 -2.5
0.39763182401657104 -9.867294311523438 -2.5
0.7722021341323853 -6.359692096710205 -1.621824026107788
1.261938452720642 -6.181396484375 -1.5971390008926392
2.314042806625366 -6.101630687713623 -1.6520227193832397
2.888115167617798 -6.086586952209473 -1.7055269479751587
5.609814167022705 -8.127216339111328 -2.5
6.245585918426514 -7.649457931518555 -2.5
6.840854167938232 -7.122104167938232 -2.5
7.894736289978027 -5.932519435882568 -2.5
9.367079734802246 -3.127197265625 -2.5
9.747416496276855 -1.5841162204742432 -2.5
-9.434609413146973 0.0 -2.5
-9.404013633728027 -0.75916987657547 -2.5
-9.312431335449219 -1.5134179592132568 -2.5
-7.97402811050415 -5.042475700378418 -2.5
-5.359467506408691 -7.7645263671875 -2.5
-4.044545650482178 -8.523695945739746 -2.5
-3.3455615043640137 -8.821503639221191 -2.5
-0.37989744544029236 -9.426953315734863 -2.5
2.8766844272613525 -6.062489986419678 -1.778126835823059
3.480351448059082 -6.028149127960205 -1.8444609642028809
5.359457969665527 -7.764531135559082 -2.5
6.535575866699219 -6.804262638092041 -2.5
7.061899185180664 -6.256308555603027 -2.5
7.542421817779541 -5.667763710021973 -2.5
7.974018573760986 -5.04248046875 -2.5
8.679633140563965 -3.6980466842651367 -2.5
8.94906234741211 -2.9876415729522705 -2.5
9.312431335449219 -1.5134228467941284 -2.5
9.403998374938965 -0.7591747641563416 -2.5
-9.000004768371582 -0.7265576124191284 -2.5
-8.912353515625 -1.448403239250183 -2.5
-8.766908645629883 -2.1608495712280273 -2.5
-8.56459903717041 -2.8592822551727295 -2.5
-8.306753158569336 -3.5391697883605957 -2.5
-7.631454944610596 -4.825844764709473 -2.5
-6.254799842834473 -6.511938095092773 -2.5
-5.129223346710205 -7.430947303771973 -2.5
-4.514643669128418 -7.819584846496582 -2.5
-3.87078595161438 -8.157509803771973 -2.5
-2.5121092796325684 -8.6727876663208 -2.5
-1.806093692779541 -8.8468017578125 -2.5
-1.0883691310882568 -8.963446617126465 -2.5
-0.3635790944099426 -9.021957397460938 -2.5
1.2374950647354126 -6.061679363250732 -1.7129573822021484
2.295542001724243 -6.05285120010376 -1.7923709154129028
5.129218578338623 -7.430956840515137 -2.5
7.631454944610596 -4.825844764709473 -2.5
8.306747436523438 -3.539174795150757 -2.5
8.56459903717041 -2.8592870235443115 -2.5
8.912348747253418 -1.448403239250183 -2.5
9.0 -0.7265576124191284 -2.5
-8.543070793151855 -1.3883837461471558 -2.5
-7.962563514709473 -3.392534017562866 -2.5
-7.663764476776123 -4.022255897521973 -2.5
-6.478476524353027 -5.739428520202637 -2.5
-4.916694164276123 -7.123056411743164 -2.5
1.2320263385772705 -6.034868240356445 -1.7790969610214233
1.7507275342941284 -6.044213771820068 -1.817604899406433
2.2871532440185547 -6.030742168426514 -1.8630167245864868
2.860185384750366 -6.027724266052246 -1.9271434545516968
5.473901271820068 -6.704330921173096 -2.5
5.995629787445068 -6.242118835449219 -2.5
6.478471755981445 -5.739433288574219 -2.5
7.663759708404541 -4.022255897521973 -2.5
8.627089500427246 -0.6964550614356995 -2.5
-8.30868148803711 4.882812390860636e-06 -2.5
-8.28173828125 -0.6685693264007568 -2.5
-7.881083965301514 -2.631093740463257 -2.5
-7.356967449188232 -3.8612401485443115 -2.5
-7.022411823272705 -4.440712928771973 -2.5
-6.642314434051514 -4.991381645202637 -2.5
-6.219135761260986 -5.509682655334473 -2.5
-5.755629539489746 -5.992246150970459 -2.5
-5.254785060882568 -6.435946941375732 -2.5
-4.154340744018555 -7.195531845092773 -2.5
-3.5618700981140137 -7.506484031677246 -2.5
-2.946303606033325 -7.768754482269287 -2.5
-1.6619482040405273 -8.140766143798828 -2.5
0.2840527296066284 -7.048691272735596 -2.1226022243499756
0.736767590045929 -6.067827224731445 -1.8391579389572144
1.7468066215515137 -6.030678749084473 -1.8891593217849731
2.2855517864227295 -6.026508808135986 -1.9393424987792969
2.8581249713897705 -6.023388385772705 -2.0060620307922363
3.5044188499450684 -6.069838523864746 -2.108893632888794
5.254775047302246 -6.43594217300415 -2.5
5.755620002746582 -5.992240905761719 -2.5
6.219130516052246 -5.509677410125732 -2.5
6.642309188842773 -4.991376876831055 -2.5
7.35696268081665 -3.8612353801727295 -2.5
7.643808364868164 -3.256723642349243 -2.5
7.881078720092773 -2.631093740463257 -2.5
8.067235946655273 -1.9884033203125 -2.5
-7.986821174621582 0.0 -2.5
-7.960917949676514 -0.6426757574081421 -2.5
-7.883388519287109 -1.2811766862869263 -2.5
-7.754735946655273 -1.911376953125 -2.5
-7.575780868530273 -2.529169797897339 -2.5
-5.532660961151123 -5.760117053985596 -2.5
-4.537031173706055 -6.573017597198486 -2.5
-3.993412971496582 -6.916781902313232 -2.5
-3.42388653755188 -7.2156982421875 -2.5
-2.2220799922943115 -7.671474456787109 -2.5
-1.5975780487060547 -7.825409889221191 -2.5
-0.3215966820716858 -7.98034143447876 -2.5
0.27335450053215027 -6.783227443695068 -2.1249802112579346
0.7351415753364563 -6.054457664489746 -1.9090601205825806
1.2304638624191284 -6.02721643447876 -1.9255268573760986
1.7454785108566284 -6.026098728179932 -1.9637997150421143
4.537026405334473 -6.573017597198486 -2.5
5.051220417022705 -6.186630725860596 -2.5
5.978202819824219 -5.296240329742432 -2.5
6.384999752044678 -4.798022270202637 -2.5
7.347700119018555 -3.130566358566284 -2.5
-7.686972618103027 4.882812390860636e-06 -2.5
-7.071850299835205 -3.0130321979522705 -2.5
-6.806469440460205 -3.5723142623901367 -2.5
-6.14529275894165 -4.617885589599609 -2.5
-5.324946403503418 -5.543867111206055 -2.5
-3.8434910774230957 -6.6571044921875 -2.5
-1.5375927686691284 -7.531620979309082 -2.5
-0.30952635407447815 -7.680732250213623 -2.5
0.2678320109844208 -6.646284103393555 -2.1632978916168213
1.2309863567352295 -6.029770374298096 -2.0014848709106445
3.5036473274230957 -6.068500995635986 -2.2789549827575684
4.366694450378418 -6.326250076293945 -2.5
4.861581802368164 -5.954370021820068 -2.5
6.496938228607178 -4.108422756195068 -2.5
7.291367053985596 -2.434218645095825 -2.5
7.662035942077637 -0.6185497641563416 -2.5
-7.310956954956055 -1.188149333000183 -2.5
-7.025693416595459 -2.345522403717041 -2.5
-6.558461666107178 -3.442153215408325 -2.5
-5.544130802154541 -4.911669731140137 -2.5
-4.6844482421875 -5.737402439117432 -2.5
-3.1752734184265137 -6.691747665405273 -2.5
-2.626518487930298 -6.925546646118164 -2.5
-1.4815722703933716 -7.257187366485596 -2.5
-0.2982470691204071 -7.400868892669678 -2.5
0.7442480325698853 -6.129447937011719 -2.0840327739715576
1.2313427925109863 -6.031508445739746 -2.077770948410034
1.74365234375 -6.019794940948486 -2.115344285964966
2.280815362930298 -6.014028072357178 -2.170956611633301
2.8523242473602295 -6.011157035827637 -2.245734930038452
3.5024900436401367 -6.066493988037109 -2.364351511001587
4.207582950592041 -6.095736980438232 -2.5
5.130918025970459 -5.341865062713623 -2.5
5.544120788574219 -4.911664962768555 -2.5
6.260214805603027 -3.9587254524230957 -2.5
6.814169883728027 -2.903247117996216 -2.5
7.382856369018555 -0.5960107445716858 -2.5
-7.121420860290527 -0.574902355670929 -2.5
-6.776904106140137 -2.262460947036743 -2.5
-6.326220512390137 -3.320258617401123 -2.5
-4.949228286743164 -5.152695178985596 -2.5
-4.518569469451904 -5.534238338470459 -2.5
-3.5722997188568115 -6.187397480010986 -2.5
-3.0628368854522705 -6.454780101776123 -2.5
-2.533510684967041 -6.680312156677246 -2.5
-1.9877538681030273 -6.862509727478027 -2.5
-0.8611913919448853 -7.092499732971191 -2.5
-0.2876855432987213 -7.138798713684082 -2.5
0.2876855432987213 -7.138798713684082 -2.5
1.2314746379852295 -6.032153129577637 -2.154278516769409
2.279736280441284 -6.011181354522705 -2.249588966369629
3.062822103500366 -6.454784870147705 -2.5
3.5722899436950684 -6.187397480010986 -2.5
4.058583736419678 -5.879892349243164 -2.5
4.5185546875 -5.534238338470459 -2.5
4.949223518371582 -5.152699947357178 -2.5
5.711689472198486 -4.292060375213623 -2.5
6.038530349731445 -3.818544864654541 -2.5
6.5728759765625 -2.8004393577575684 -2.5
7.052070140838623 -1.1460790634155273 -2.5
7.121416091918945 -0.574902355670929 -2.5
-6.876039981842041 -0.5550878643989563 -2.5
-6.80907678604126 -1.106591820716858 -2.5
-6.346401214599609 -2.7039549350738525 -2.5
-6.108242034912109 -3.2058544158935547 -2.5
-5.83047342300415 -3.686967611312866 -2.5
-5.514882564544678 -4.144169807434082 -2.5
-5.163535118103027 -4.57449197769165 -2.5
-4.362871170043945 -5.343549728393555 -2.5
-2.9572949409484863 -6.232372760772705 -2.5
-2.446215867996216 -6.450131893157959 -2.5
-0.8315136432647705 -6.848119735717773 -2.5
0.2777734398841858 -6.89281702041626 -2.5
0.7676025032997131 -6.321811199188232 -2.3078665733337402
1.7416698932647705 -6.012948989868164 -2.268676996231079
2.4462060928344727 -6.450131893157959 -2.5
2.957289934158325 -6.232378005981445 -2.5
4.362861156463623 -5.343544960021973 -2.5
6.346396446228027 -2.7039501667022705 -2.5
6.697948932647705 -1.6508984565734863 -2.5
6.876035213470459 -0.5550927519798279 -2.5
-6.645224571228027 -0.5364550948143005 -2.5
-6.580507755279541 -1.0694433450698853 -2.5
-6.323750019073486 -2.1111717224121094 -2.5
-5.329765319824219 -4.005053520202637 -2.5
-3.7872021198272705 -5.486703872680664 -2.5
-3.333427667617798 -5.773657321929932 -2.5
-2.858027219772339 -6.023163795471191 -2.5
-1.854833960533142 -6.403627872467041 -2.5
-1.3335448503494263 -6.5321044921875 -2.5
-0.80360347032547 -6.618237018585205 -2.5
0.26844725012779236 -6.661435604095459 -2.5
0.8035986423492432 -6.618232250213623 -2.5
1.8548290729522705 -6.403617858886719 -2.5
3.3334178924560547 -5.773652076721191 -2.5
3.7871971130371094 -5.486703872680664 -2.5
4.216411113739014 -5.164169788360596 -2.5
4.990200042724609 -4.420942306518555 -2.5
5.634741306304932 -3.5631980895996094 -2.5
5.90319299697876 -3.0982372760772705 -2.5
6.323740005493164 -2.1111814975738525 -2.5
6.473110198974609 -1.595483422279358 -2.5
6.580502986907959 -1.0694433450698853 -2.5
-6.365058422088623 -1.034423828125 -2.5
-6.11669921875 -2.042060613632202 -2.5
-5.932548522949219 -2.5276269912719727 -2.5
-5.155263423919678 -3.8739209175109863 -2.5
-4.467080116271973 -4.650722503662109 -2.5
-3.6631736755371094 -5.307060241699219 -2.5
-3.2242918014526367 -5.58462381362915 -2.5
-2.7644481658935547 -5.825966835021973 -2.5
-1.7941112518310547 -6.19396448135376 -2.5
-0.7772900462150574 -6.401547908782959 -2.5
0.2596533000469208 -6.443334579467773 -2.5
0.7772851586341858 -6.401547908782959 -2.5
2.7644433975219727 -5.825966835021973 -2.5
3.2242822647094727 -5.584619045257568 -2.5
3.663203001022339 -5.307065486907959 -2.5
4.078359127044678 -4.995097637176514 -2.5
4.467074871063232 -4.650722503662109 -2.5
4.826816082000732 -4.276191234588623 -2.5
5.155258655548096 -3.8739354610443115 -2.5
6.11669921875 -2.042055606842041 -2.5
6.261176586151123 -1.543251872062683 -2.5
6.365048885345459 -1.034423828125 -2.5
6.427646160125732 -0.5189013481140137 -2.5
-6.242421627044678 0.0 -2.5
-6.222182273864746 -0.5023095607757568 -2.5
-6.161586761474609 -1.001367211341858 -2.5
-6.06102991104126 -1.4939111471176147 -2.5
-5.92117166519165 -1.9767773151397705 -2.5
-4.67251443862915 -4.139496803283691 -2.5
-4.324277400970459 -4.502050876617432 -2.5
-3.947993040084839 -4.835410118103027 -2.5
-3.546098470687866 -5.137412071228027 -2.5
-3.1212158203125 -5.406098365783691 -2.5
-1.7367528676986694 -5.995961666107178 -2.5
-1.2486474514007568 -6.116269588470459 -2.5
-0.25136229395866394 -6.237358093261719 -2.5
0.75244140625 -6.196908950805664 -2.5
1.7367528676986694 -5.995961666107178 -2.5
2.2135937213897705 -5.836767673492432 -2.5
2.676074266433716 -5.639721393585205 -2.5
3.121210813522339 -5.406093597412109 -2.5
4.324272155761719 -4.502055644989014 -2.5
4.67251443862915 -4.139492034912109 -2.5
4.990454196929932 -3.7500829696655273 -2.5
5.276025295257568 -3.336367130279541 -2.5
6.161581993103027 -1.0013574361801147 -2.5
6.222182273864746 -0.5023095607757568 -2.5
-5.969062328338623 -0.9700732231140137 -2.5
-5.354687213897705 -2.81036114692688 -2.5
-4.834531307220459 -3.6329150199890137 -2.5
-4.189165115356445 -4.361386775970459 -2.5
-3.435307502746582 -4.976894378662109 -2.5
-2.592470645904541 -5.463505744934082 -2.5
-2.1444334983825684 -5.654394626617432 -2.5
-0.7289355397224426 -6.003285884857178 -2.5
0.24350585043430328 -6.04247522354126 -2.5
1.209633708000183 -5.92516565322876 -2.5
1.6824853420257568 -5.808618068695068 -2.5
2.144423723220825 -5.654399394989014 -2.5
3.8246335983276367 -4.684330940246582 -2.5
4.834526062011719 -3.6329197883605957 -2.5
5.354682445526123 -2.810356378555298 -2.5
6.027768611907959 -0.4866113066673279 -2.5
-5.862529277801514 0.0 -2.5
-5.843510627746582 -0.4717333912849426 -2.5
-5.692162990570068 -1.4029979705810547 -2.5
-5.560810565948486 -1.8564696311950684 -2.5
-5.191005706787109 -2.7244482040405273 -2.5
-4.954941272735596 -3.1333203315734863 -2.5
-3.3302929401397705 -4.824765682220459 -2.5
-2.5132176876068115 -5.296494007110596 -2.5
-2.0788769721984863 -5.481552600860596 -2.5
-1.6310644149780273 -5.631054401397705 -2.5
-0.23605956137180328 -5.857763767242432 -2.5
1.6310546398162842 -5.631054401397705 -2.5
2.9312596321105957 -5.077089786529541 -2.5
5.191000938415527 -2.7244529724121094 -2.5
5.692162990570068 -1.4030028581619263 -2.5
5.84350061416626 -0.4717431664466858 -2.5
-5.668583869934082 -0.4576171636581421 -2.5
-5.613383769989014 -0.9122655987739563 -2.5
-5.521772384643555 -1.3610057830810547 -2.5
-5.394350528717041 -1.8008935451507568 -2.5
-5.231947898864746 -2.2291259765625 -2.5
-4.806621074676514 -3.0395214557647705 -2.5
-3.596733331680298 -4.405200004577637 -2.5
-3.230600595474243 -4.68032693862915 -2.5
-2.843515634536743 -4.925107479095459 -2.5
-2.437983274459839 -5.137948989868164 -2.5
-1.1375585794448853 -5.572094440460205 -2.5
-0.685498058795929 -5.645561218261719 -2.5
-0.22899413108825684 -5.682412147521973 -2.5
1.5822265148162842 -5.462494850158691 -2.5
2.843505859375 -4.925107479095459 -2.5
3.939531087875366 -4.101503849029541 -2.5
4.546445369720459 -3.41644024848938 -2.5
4.806606292724609 -3.0395262241363525 -2.5
5.231938362121582 -2.229116201400757 -2.5
5.394345760345459 -1.8009033203125 -2.5
5.521772384643555 -1.361000895500183 -2.5
5.613373756408691 -0.9122704863548279 -2.5
5.668583869934082 -0.45762693881988525 -2.5
-5.520165920257568 0.0 -2.5
-5.502260684967041 -0.4441845715045929 -2.5
-5.448671817779541 -0.8855029344558716 -2.5
-5.359760761260986 -1.3210644721984863 -2.5
-5.078437328338623 -2.1637158393859863 -2.5
-4.131899356842041 -3.6605467796325684 -2.5
-3.491201162338257 -4.275947093963623 -2.5
-3.135815382003784 -4.543002605438232 -2.5
-2.760087728500366 -4.780595779418945 -2.5
-2.366455078125 -4.987196922302246 -2.5
-1.9574804306030273 -5.161445140838623 -2.5
-1.535805583000183 -5.302206993103027 -2.5
-1.1041796207427979 -5.40859842300415 -2.5
-0.22228026390075684 -5.515683650970459 -2.5
0.22227539122104645 -5.515688419342041 -2.5
1.1041796207427979 -5.408608436584473 -2.5
2.366445302963257 -4.987192153930664 -2.5
2.760073184967041 -4.780600547790527 -2.5
3.4911961555480957 -4.275947093963623 -2.5
4.131894588470459 -3.6605420112609863 -2.5
4.413051605224609 -3.3162012100219727 -2.5
4.887856483459473 -2.5653467178344727 -2.5
5.359745979309082 -1.3210644721984863 -2.5
5.448667049407959 -0.8855029344558716 -2.5
-5.361274242401123 -4.882812390860636e-06 -2.5
-5.08535623550415 -1.6977441310882568 -2.5
-4.747172832489014 -2.491508722305298 -2.5
-4.286030292510986 -3.2207469940185547 -2.5
-3.7138867378234863 -3.866567373275757 -2.5
-3.3907127380371094 -4.15286111831665 -2.5
-3.0455565452575684 -4.412240982055664 -2.5
-2.298334836959839 -4.843642234802246 -2.5
-1.9011377096176147 -5.012870788574219 -2.5
-0.646240234375 -5.322182655334473 -2.5
-0.2158837914466858 -5.356923580169678 -2.5
0.21586912870407104 -5.356928825378418 -2.5
1.9011279344558716 -5.012876033782959 -2.5
2.6806347370147705 -4.642992973327637 -2.5
3.3907079696655273 -4.152871131896973 -2.5
4.01296854019165 -3.555180549621582 -2.5
4.286030292510986 -3.2207372188568115 -2.5
4.531289100646973 -2.865419864654541 -2.5
4.747162818908691 -2.491513729095459 -2.5
5.08535623550415 -1.6977392435073853 -2.5
5.205478191375732 -1.2830419540405273 -2.5
5.343881607055664 -0.4314062297344208 -2.5
