ply
format ascii 1.0
element vertex 832
property float x
property float y
property float z
end_header
8.085488319396973 -27.914335250854492 7.442904949188232
-17.434717178344727 -15.445810317993164 5.691099166870117
-5.485576152801514 -26.87009620666504 6.700621604919434
-3.296015501022339 -27.145254135131836 6.68115234375
1.1162890195846558 -27.699920654296875 6.77345085144043
5.676464557647705 -27.805038452148438 6.933773040771484
8.085468292236328 -27.914306640625 7.1006903648376465
-6.043701171875 -15.935888290405273 3.9646379947662354
-7.702323913574219 -26.59148406982422 6.439964294433594
-5.485576152801514 -26.87009620666504 6.379436016082764
-3.296025276184082 -27.145254135131836 6.360897064208984
-1.1050000190734863 -27.420682907104492 6.383763790130615
3.4510838985443115 -28.42207908630371 6.660091876983643
5.676464557647705 -27.805038452148438 6.601406097412109
-17.41377830505371 -15.42724609375 5.140727996826172
-12.341181755065918 -26.008495330810547 6.361219882965088
-7.702323913574219 -26.59148406982422 6.1173996925354
-5.485576152801514 -26.87009620666504 6.059902191162109
-3.296015501022339 -27.145263671875 6.042295932769775
-1.1049902439117432 -27.420682907104492 6.064015865325928
8.085468292236328 -27.91428565979004 6.421709060668945
-12.341181755065918 -26.00847625732422 6.027432918548584
-5.471601486206055 -26.801776885986328 5.72732400894165
-1.1021875143051147 -27.350908279418945 5.731201171875
1.1134471893310547 -27.629384994506836 5.789553165435791
3.4510838985443115 -28.422088623046875 5.994536399841309
5.676464557647705 -27.805038452148438 5.941718101501465
8.085468292236328 -27.914306640625 6.084752082824707
-17.393095016479492 -15.40892505645752 4.597019672393799
-6.05993127822876 -15.978730201721191 3.380812406539917
-7.708535194396973 -26.6129093170166 5.481312274932861
-1.1058886051177979 -27.44271469116211 5.433465957641602
3.429267406463623 -28.242372512817383 5.628294944763184
5.676464557647705 -27.805038452148438 5.614199161529541
11.261576652526855 -13.792909622192383 3.522684335708618
-7.682744026184082 -26.523895263671875 5.1456780433654785
-5.471621036529541 -26.801786422729492 5.097316741943359
11.272226333618164 -13.805956840515137 3.3212175369262695
-12.309814453125 -25.942373275756836 5.022186279296875
-7.682744026184082 -26.52388572692871 4.829690933227539
-3.2876367568969727 -27.076250076293945 4.770394325256348
3.429267406463623 -28.24236297607422 4.975841045379639
5.676464557647705 -27.805038452148438 4.963383674621582
8.085468292236328 -27.914306640625 5.082864761352539
11.262490272521973 -13.794023513793945 3.1145739555358887
-6.011337757110596 -15.850565910339355 2.77168869972229
-5.530409812927246 -27.08968734741211 4.520527362823486
-1.1140332221984863 -27.644725799560547 4.523587703704834
3.4778904914855957 -28.642791748046875 4.717498779296875
5.654911994934082 -27.699520111083984 4.622291564941406
8.085478782653809 -27.914306640625 4.751593112945557
11.248300552368164 -13.776659965515137 2.9079174995422363
-6.00402307510376 -15.831298828125 2.5760176181793213
-7.765233993530273 -26.808738708496094 4.246409893035889
-3.303476572036743 -27.20683479309082 4.169723987579346
1.1188182830810547 -27.762617111206055 4.227308750152588
5.65490198135376 -27.699520111083984 4.301207065582275
11.2315034866333 -13.75609302520752 2.7018797397613525
-25.896015167236328 -13.591288566589355 4.118517875671387
-17.342323303222656 -15.363945007324219 3.2627525329589844
-1.114013671875 -27.644521713256836 3.89615535736084
3.4778318405151367 -28.642478942871094 4.063157081604004
8.085478782653809 -27.914306640625 4.092570781707764
11.22142505645752 -13.743720054626465 2.4986162185668945
-17.332294464111328 -15.355077743530273 2.9995744228363037
-12.441933631896973 -26.2208194732666 3.759615421295166
-1.109462857246399 -27.53162956237793 3.569322347640991
1.1162402629852295 -27.69844627380371 3.5909502506256104
3.4778223037719727 -28.642333984375 3.7375590801239014
11.211073875427246 -13.731063842773438 2.296283006668091
-25.902557373046875 -13.59471607208252 3.460310697555542
-10.016816139221191 -26.412187576293945 3.3413689136505127
-5.507763385772705 -26.9788761138916 3.2570886611938477
-3.2958593368530273 -27.143943786621094 3.234375
-1.109462857246399 -27.53162956237793 3.2592949867248535
1.1162402629852295 -27.69844627380371 3.2790441513061523
3.4591503143310547 -28.48859405517578 3.394597053527832
-17.31239128112793 -15.337430953979492 2.4763240814208984
-10.057812690734863 -26.520233154296875 3.0367345809936523
-7.765146255493164 -26.808368682861328 2.988229274749756
-1.1140038967132568 -27.64426612854004 2.9621434211730957
-17.302490234375 -15.328661918640137 2.2161104679107666
-7.76513671875 -26.808368682861328 2.6757500171661377
3.477792978286743 -28.64204978942871 2.7660679817199707
8.027060508728027 -27.712596893310547 2.7660014629364014
-25.88434600830078 -13.585165977478027 2.4759490489959717
-17.29261589050293 -15.319921493530273 1.9567443132400513
-10.057812690734863 -26.520204544067383 2.4023122787475586
-7.76513671875 -26.808359146118164 2.3639378547668457
-5.530292987823486 -27.0892276763916 2.3417186737060547
8.086845397949219 -27.91903305053711 2.461881399154663
13.295429229736328 -23.028348922729492 2.252183198928833
-17.282793045043945 -15.311201095581055 1.698161005973816
-12.441835403442383 -26.220603942871094 2.1345272064208984
-7.765126705169678 -26.808340072631836 2.052711248397827
1.1188182830810547 -27.762617111206055 2.0435075759887695
-10.016816139221191 -26.41217803955078 1.763059377670288
-7.733505725860596 -26.699140548706055 1.7348965406417847
-5.507773399353027 -26.9788761138916 1.718589425086975
-3.2958593368530273 -27.143943786621094 1.70660400390625
-1.1094530820846558 -27.53162956237793 1.7197530269622803
3.459160089492798 -28.48859405517578 1.7911453247070312
-17.26318359375 -15.293828010559082 1.183071255683899
-7.748105525970459 -26.74955940246582 1.4285634756088257
-5.511386394500732 -26.996522903442383 1.4133926630020142
-1.1103026866912842 -27.55207061767578 1.4144738912582397
-22.35025405883789 -14.13345718383789 1.0628347396850586
-12.22972583770752 -25.773582458496094 1.1465896368026733
-9.774442672729492 -25.773056030273438 1.1078583002090454
-7.534130573272705 -26.01081085205078 1.088392972946167
-5.360732078552246 -26.25863265991211 1.077150583267212
1.118808627128601 -27.76262664794922 1.116735816001892
3.3685545921325684 -27.74236297607422 1.1232045888900757
8.086845397949219 -27.91903305053711 1.1682424545288086
10.616044998168945 -27.992225646972656 1.203249454498291
-22.178876876831055 -14.025068283081055 0.7635415196418762
-9.50741195678711 -25.068944931030273 0.7801254391670227
-5.222187519073486 -25.579891204833984 0.7596490383148193
-3.3034863471984863 -27.20683479309082 0.7974502444267273
3.2685155868530273 -26.918476104736328 0.7889977693557739
8.086854934692383 -27.919052124023438 0.8457549810409546
-22.84830093383789 -14.448378562927246 0.4868490397930145
-5.217919826507568 -25.559101104736328 0.46979400515556335
-1.0510936975479126 -26.082763671875 0.4701116979122162
3.2117576599121094 -26.451141357421875 0.47986358404159546
5.415946960449219 -26.528974533081055 0.48761260509490967
8.086845397949219 -27.91903305053711 0.5234716534614563
10.616044998168945 -27.992225646972656 0.5391537547111511
-22.82821273803711 -14.43569278717041 0.18706634640693665
-11.650263786315918 -24.552392959594727 0.18822081387043
-10.108593940734863 -26.654109954833984 0.1974346935749054
-1.1196386814117432 -27.783817291259766 0.192584827542305
5.3857421875 -26.38106346130371 0.18648192286491394
8.08602523803711 -27.916181564331055 0.20129424333572388
10.616044998168945 -27.992225646972656 0.20734618604183197
-22.833271026611328 -14.43886661529541 -0.11226745694875717
-17.24565315246582 -15.278300285339355 -0.0957460030913353
-12.504648208618164 -26.352996826171875 -0.12122055143117905
-7.804345607757568 -26.94369125366211 -0.116571344435215
-5.553476333618164 -27.202781677246094 -0.11537719517946243
-1.1196386814117432 -27.783817291259766 -0.1155535876750946
3.5008788108825684 -28.83211898803711 -0.12069641053676605
8.08462905883789 -27.911376953125 -0.12077026069164276
10.61605453491211 -27.992216110229492 -0.12441085278987885
-10.108593940734863 -26.654109954833984 -0.43438780307769775
-1.1196386814117432 -27.783817291259766 -0.42371779680252075
1.1188182830810547 -27.762617111206055 -0.4233943223953247
-10.108593940734863 -26.654109954833984 -0.7504217624664307
-1.1196386814117432 -27.783817291259766 -0.7319856286048889
1.118808627128601 -27.76262664794922 -0.7314273118972778
3.5008788108825684 -28.83211898803711 -0.7645620703697205
8.0818452835083 -27.901756286621094 -0.7646940350532532
10.616044998168945 -27.992225646972656 -0.7880914211273193
-17.236143112182617 -15.269882202148438 -0.8616183400154114
-3.3034961223602295 -27.20683479309082 -1.0254839658737183
-1.1196386814117432 -27.783817291259766 -1.040440320968628
1.1188182830810547 -27.762617111206055 -1.0396462678909302
3.500869035720825 -28.832109451293945 -1.0867434740066528
5.385409832000732 -26.379451751708984 -1.007407546043396
10.616044998168945 -27.992225646972656 -1.12018883228302
14.899052619934082 -15.5115327835083 -0.8047683238983154
-22.833261489868164 -14.43887710571289 -1.3107765913009644
-12.504657745361328 -26.35298728942871 -1.4152779579162598
-7.804345607757568 -26.94369125366211 -1.3610275983810425
-3.3034961223602295 -27.20683479309082 -1.3297536373138428
-1.1196386814117432 -27.78382682800293 -1.3491474390029907
1.1188182830810547 -27.762617111206055 -1.3481179475784302
8.079042434692383 -27.892127990722656 -1.4089471101760864
10.61605453491211 -27.992216110229492 -1.4525588750839233
14.894950866699219 -15.507246017456055 -1.0432630777359009
-17.22978401184082 -15.264238357543945 -1.372685194015503
-12.504657745361328 -26.35298728942871 -1.7394585609436035
-3.2958691120147705 -27.143943786621094 -1.6305729150772095
-1.1196386814117432 -27.783817291259766 -1.6581865549087524
-22.833271026611328 -14.43887710571289 -1.91167414188385
-17.226600646972656 -15.261435508728027 -1.6285533905029297
-17.938955307006836 -18.676513671875 -1.8324764966964722
-13.077519416809082 -18.946102142333984 -1.6290277242660522
-12.504648208618164 -26.352996826171875 -2.0640761852264404
-10.108593940734863 -26.654109954833984 -2.017183303833008
-4.804912090301514 -16.58851432800293 -1.2220922708511353
-1.1196386814117432 -27.783817291259766 -1.967635154724121
1.1162402629852295 -27.69844627380371 -1.961588740348816
3.5008788108825684 -28.83211898803711 -2.055203914642334
9.802724838256836 -20.658769607543945 -1.6180815696716309
10.058612823486328 -14.572402000427246 -1.2529667615890503
15.265668869018555 -18.697050094604492 -1.7080227136611938
14.8867769241333 -15.498759269714355 -1.5206903219223022
20.0413761138916 -17.755117416381836 -1.8946533203125
-15.521318435668945 -5.181777000427246 -1.3403009176254272
-14.548876762390137 -6.198700904846191 -1.2953262329101562
-25.37977409362793 -13.3203706741333 -2.3477330207824707
-18.144550323486328 -18.890565872192383 -2.145430564880371
-18.277324676513672 -22.38565444946289 -2.367103099822998
-14.534882545471191 -25.175146102905273 -2.381053924560547
-12.489882469177246 -26.321874618530273 -2.3863823413848877
1.1188182830810547 -27.762617111206055 -2.2758336067199707
3.4510741233825684 -28.42207908630371 -2.3451011180877686
8.074872970581055 -27.877676010131836 -2.377270221710205
9.556903839111328 -20.140663146972656 -1.8259860277175903
10.059316635131836 -14.573397636413574 -1.4504324197769165
14.882685661315918 -15.494482040405273 -1.7597405910491943
24.22566795349121 -15.319355010986328 -2.3477330207824707
26.36933135986328 -11.2349214553833 -2.3477330207824707
27.187850952148438 -9.076640129089355 -2.3477330207824707
29.01434898376465 -7.151386737823486 -2.4476394653320312
-26.861581802368164 0.0 -2.5001330375671387
-26.774471282958984 -2.1614646911621094 -2.5001330375671387
-26.51374053955078 -4.308925628662109 -2.5001330375671387
-14.296181678771973 -6.091054439544678 -1.4463506937026978
-23.43013572692871 -12.29710865020752 -2.462857723236084
-21.31922721862793 -13.481473922729492 -2.3477330207824707
-20.165292739868164 -15.153251647949219 -2.3477330207824707
-16.444805145263672 -14.568827629089355 -2.044853448867798
-17.473407745361328 -18.191757202148438 -2.3477330207824707
-15.959989547729492 -19.54745101928711 -2.3487727642059326
-14.374862670898438 -20.82559585571289 -2.355252742767334
-10.89516544342041 -22.961063385009766 -2.3654799461364746
-7.587773323059082 -20.00723648071289 -1.9915920495986938
-1.0274218320846558 -25.4954776763916 -2.374908208847046
1.027138590812683 -25.487539291381836 -2.3741698265075684
3.0737109184265137 -25.31414031982422 -2.3734097480773926
9.013955116271973 -23.767831802368164 -2.365929126739502
10.883349418640137 -22.936132431030273 -2.362912178039551
12.674511909484863 -21.952871322631836 -2.3593504428863525
10.0598726272583 -14.574228286743164 -1.6482599973678589
15.971025466918945 -19.560937881469727 -2.350395441055298
20.165292739868164 -15.153251647949219 -2.3477330207824707
21.31924819946289 -13.481454849243164 -2.3477330207824707
-13.879316329956055 -5.91344690322876 -1.5729871988296509
-14.24087905883789 -17.441913604736328 -2.3477330207824707
-6.182265281677246 -8.956572532653809 -1.1347111463546753
-5.286982536315918 -9.157333374023438 -1.1024861335754395
-4.852724552154541 -10.226913452148438 -1.1802527904510498
-8.001025199890137 -21.096961975097656 -2.3525309562683105
-4.520839691162109 -22.144550323486328 -2.3565022945404053
-2.725332021713257 -22.4451847076416 -2.357414722442627
-0.9105663895606995 -22.595487594604492 -2.3578104972839355
6.279550552368164 -21.679521560668945 -2.353309154510498
7.995556354522705 -21.082548141479492 -2.3509252071380615
11.2586030960083 -19.50048828125 -2.3477330207824707
10.06044864654541 -14.575048446655273 -1.846519112586975
14.240888595581055 -17.441913604736328 -2.3477330207824707
13.996122360229492 -14.571464538574219 -2.106600046157837
15.810600280761719 -14.006962776184082 -2.202347993850708
19.03129768371582 -12.034647941589355 -2.3477330207824707
20.982074737548828 -11.012246131896973 -2.4706785678863525
23.28206443786621 -5.738534927368164 -2.5001330375671387
-21.020936965942383 -5.181191444396973 -2.5001330375671387
-15.149540901184082 -5.057665824890137 -1.8443777561187744
-13.279833793640137 -5.658027172088623 -1.666937232017517
-18.298398971557617 -11.571210861206055 -2.5001330375671387
-15.217470169067383 -13.4815034866333 -2.3477330207824707
-5.216738224029541 -9.03564453125 -1.2048499584197998
-7.209248065948486 -19.00916862487793 -2.3477330207824707
-4.545419692993164 -15.692636489868164 -1.8866626024246216
-3.374101400375366 -16.527509689331055 -1.947950839996338
0.8186327815055847 -20.313846588134766 -2.3477330207824707
2.450566291809082 -20.182109832763672 -2.3477330207824707
7.209238052368164 -19.009180068969727 -2.3477330207824707
8.71547794342041 -18.367441177368164 -2.3477330207824707
10.165175437927246 -17.60658073425293 -2.3477330207824707
12.857831954956055 -15.747978210449219 -2.3477330207824707
13.918119430541992 -14.490273475646973 -2.3201968669891357
16.634008407592773 -12.499648094177246 -2.402777910232544
18.290164947509766 -11.565996170043945 -2.4990077018737793
19.170166015625 -10.061269760131836 -2.5001330375671387
19.917593002319336 -8.486103057861328 -2.5001330375671387
21.020952224731445 -5.181210994720459 -2.5001330375671387
-19.665058135986328 -1.5875293016433716 -2.5001330375671387
-15.194462776184082 -5.072646141052246 -2.0299649238586426
-13.265888214111328 -5.652080059051514 -1.8273245096206665
-16.674774169921875 -10.544482231140137 -2.5001330375671387
-15.772245407104492 -11.852079391479492 -2.5001330375671387
-14.74447250366211 -13.062460899353027 -2.4962518215179443
-12.975439071655273 -13.508856773376465 -2.3736608028411865
-7.583847522735596 -9.288525581359863 -1.5195802450180054
-4.423447132110596 -9.322216987609863 -1.3075916767120361
-4.545419692993164 -15.692636489868164 -2.070366144180298
-3.3859570026397705 -16.58560562133789 -2.1451363563537598
0.7459960579872131 -18.51138687133789 -2.3477330207824707
10.061201095581055 -14.576132774353027 -2.244443416595459
11.71695327758789 -14.350653648376465 -2.3477330207824707
12.925742149353027 -13.457109451293945 -2.3645689487457275
14.693026542663574 -13.016874313354492 -2.487539529800415
17.46920394897461 -9.16854476928711 -2.5001330375671387
18.150306701660156 -7.733124732971191 -2.5001330375671387
19.47355842590332 -3.1647655963897705 -2.5001330375671387
-18.11701202392578 -9.765624781721272e-06 -2.5001330375671387
-17.88241195678711 -2.906191349029541 -2.5001330375671387
-17.590557098388672 -4.335702896118164 -2.5001330375671387
-15.210000038146973 -5.077851295471191 -2.2128491401672363
-13.2954683303833 -5.66466760635376 -1.9943536520004272
-16.04181671142578 -8.419404029846191 -2.5001330375671387
-14.483515739440918 -10.883662223815918 -2.5001330375671387
-5.15310525894165 -8.92544937133789 -1.4222484827041626
-4.310019493103027 -9.08316421508789 -1.3874255418777466
-2.0506443977355957 -16.888622283935547 -2.3477330207824707
2.050663948059082 -16.888622283935547 -2.3477330207824707
3.4029784202575684 -16.66885757446289 -2.3477330207824707
6.032773494720459 -15.907118797302246 -2.3477330207824707
11.253349304199219 -13.782841682434082 -2.455470323562622
13.560786247253418 -12.01381778717041 -2.5001330375671387
-16.744647979736328 0.0 -2.5001330375671387
-16.69036102294922 -1.3473925590515137 -2.5001330375671387
-16.527801513671875 -2.6860547065734863 -2.5001330375671387
-15.882909774780273 -5.302490234375 -2.5001330375671387
-15.404726028442383 -6.563359260559082 -2.5001330375671387
-12.533544540405273 -11.103759765625 -2.5001330375671387
-8.171669960021973 -8.507607460021973 -1.7613173723220825
-7.021503925323486 -8.59976577758789 -1.6576534509658813
-6.023241996765137 -8.726171493530273 -1.583140254020691
-4.374677658081055 -15.103134155273438 -2.3477330207824707
-1.89529287815094 -15.609315872192383 -2.3477330207824707
-0.6331347227096558 -15.711200714111328 -2.3477330207824707
0.6331542730331421 -15.711191177368164 -2.3477330207824707
3.145205020904541 -15.406171798706055 -2.3477330207824707
4.374667644500732 -15.103134155273438 -2.3477330207824707
9.502568244934082 -13.76683521270752 -2.4976401329040527
10.590078353881836 -12.970478057861328 -2.5001330375671387
11.599443435668945 -12.076289176940918 -2.5001330375671387
12.533554077148438 -11.103759765625 -2.5001330375671387
13.38638687133789 -10.059208869934082 -2.5001330375671387
14.152421951293945 -8.949442863464355 -2.5001330375671387
14.826655387878418 -7.781620979309082 -2.5001330375671387
15.404730796813965 -6.563359260559082 -2.5001330375671387
15.882909774780273 -5.302480220794678 -2.5001330375671387
16.258075714111328 -4.007265567779541 -2.5001330375671387
-15.56191349029541 0.0 -2.5001330375671387
-15.511454582214355 -1.2522265911102295 -2.5001330375671387
-14.316630363464355 -6.099765300750732 -2.5001330375671387
-5.093632698059082 -8.822441101074219 -1.6366595029830933
-3.4596385955810547 -9.122323989868164 -1.567421793937683
-4.197499752044678 -14.491405487060547 -2.4238474369049072
-2.9804394245147705 -14.599160194396973 -2.393836736679077
-1.782070279121399 -14.676689147949219 -2.3752336502075195
-0.5934179425239563 -14.725761413574219 -2.3677196502685547
5.502861022949219 -14.509833335876465 -2.4931228160858154
7.780956745147705 -13.477011680603027 -2.5001330375671387
9.842069625854492 -12.054335594177246 -2.5001330375671387
10.780126571655273 -11.22329044342041 -2.5001330375671387
13.152788162231445 -8.317304611206055 -2.5001330375671387
14.316650390625 -6.099765300750732 -2.5001330375671387
15.360400199890137 -2.4963085651397705 -2.5001330375671387
-14.109560012817383 -3.477714776992798 -2.5001330375671387
-12.867284774780273 -6.75329065322876 -2.5001330375671387
-10.877225875854492 -9.63638687133789 -2.5001330375671387
-4.232841491699219 -8.920546531677246 -1.6987507343292236
-3.448808431625366 -9.09375 -1.6732739210128784
-4.043017387390137 -13.958086013793945 -2.5001330375671387
-2.904902219772339 -14.229188919067383 -2.4985580444335938
-1.7492480278015137 -14.406367301940918 -2.4967520236968994
1.7499511241912842 -14.4121675491333 -2.4977574348449707
4.04299783706665 -13.958086013793945 -2.5001330375671387
9.190595626831055 -11.256415367126465 -2.5001330375671387
10.066567420959473 -10.48038101196289 -2.5001330375671387
10.87723159790039 -9.63638687133789 -2.5001330375671387
11.617362976074219 -8.72989273071289 -2.5001330375671387
12.282167434692383 -7.766757488250732 -2.5001330375671387
12.867294311523438 -6.753281116485596 -2.5001330375671387
13.368979454040527 -5.695995807647705 -2.5001330375671387
14.109560012817383 -3.4777050018310547 -2.5001330375671387
14.48470687866211 -1.1693261861801147 -2.5001330375671387
-13.626405715942383 -9.765624781721272e-06 -2.5001330375671387
-12.92513656616211 -4.315048694610596 -2.5001330375671387
-12.536005973815918 -5.341103553771973 -2.5001330375671387
-12.06557559967041 -6.33251953125 -2.5001330375671387
-11.516894340515137 -7.282841682434082 -2.5001330375671387
-10.199511528015137 -9.035966873168945 -2.5001330375671387
-6.988955020904541 -8.55990219116211 -2.027547836303711
-5.081884860992432 -8.802069664001465 -1.8648189306259155
-1.6424707174301147 -13.527050018310547 -2.5001330375671387
-0.5486621260643005 -13.615351676940918 -2.5001330375671387
0.5486913919448853 -13.615341186523438 -2.5001330375671387
3.7911033630371094 -13.088418006896973 -2.5001330375671387
4.831982135772705 -12.740898132324219 -2.5001330375671387
5.841542720794678 -12.310770988464355 -2.5001330375671387
6.813202857971191 -11.800790786743164 -2.5001330375671387
8.61795425415039 -10.555058479309082 -2.5001330375671387
9.43935489654541 -9.827392578125 -2.5001330375671387
10.893525123596191 -8.185956954956055 -2.5001330375671387
11.5169038772583 -7.282841682434082 -2.5001330375671387
12.925141334533691 -4.315039157867432 -2.5001330375671387
13.582206726074219 -1.0964648723602295 -2.5001330375671387
-12.782538414001465 -1.031923770904541 -2.5001330375671387
-12.658065795898438 -2.0571582317352295 -2.5001330375671387
-12.451483726501465 -3.069033145904541 -2.5001330375671387
-12.164179801940918 -4.060996055603027 -2.5001330375671387
-10.838818550109863 -6.854072093963623 -2.5001330375671387
-10.252158164978027 -7.704003810882568 -2.5001330375671387
-5.988203048706055 -8.675419807434082 -2.0551061630249023
-4.217177867889404 -8.887518882751465 -1.917837142944336
-3.4335155487060547 -9.053437232971191 -1.887683391571045
-2.5651562213897705 -12.564960479736328 -2.5001330375671387
-0.516357421875 -12.813730239868164 -2.5001330375671387
2.5651659965515137 -12.564980506896973 -2.5001330375671387
3.5679004192352295 -12.317802429199219 -2.5001330375671387
6.412070274353027 -11.106035232543945 -2.5001330375671387
7.28494119644165 -10.554052352905273 -2.5001330375671387
8.110566139221191 -9.933632850646973 -2.5001330375671387
8.883593559265137 -9.248788833618164 -2.5001330375671387
9.599003791809082 -8.503984451293945 -2.5001330375671387
10.252167701721191 -7.704003810882568 -2.5001330375671387
11.355204582214355 -5.959687232971191 -2.5001330375671387
11.79793930053711 -5.026620864868164 -2.5001330375671387
12.164159774780273 -4.060996055603027 -2.5001330375671387
12.782553672790527 -1.031923770904541 -2.5001330375671387
-12.108154296875 0.0 -2.5001330375671387
-12.068896293640137 -0.9743066430091858 -2.5001330375671387
-11.951367378234863 -1.9423046112060547 -2.5001330375671387
-11.485029220581055 -3.8342578411102295 -2.5001330375671387
-11.13924789428711 -4.745995998382568 -2.5001330375671387
-10.2337007522583 -6.471405982971191 -2.5001330375671387
-3.4857029914855957 -3.6290037631988525 -1.0389987230300903
-7.657753944396973 -9.379042625427246 -2.5001330375671387
-5.071093559265137 -8.783398628234863 -2.094196319580078
-4.217177867889404 -8.887518882751465 -2.0312411785125732
-3.4290525913238525 -9.041679382324219 -1.9967092275619507
-3.3687009811401367 -11.63011646270752 -2.5001330375671387
-2.421943187713623 -11.863466262817383 -2.5001330375671387
-1.45947265625 -12.019872665405273 -2.5001330375671387
-0.48753905296325684 -12.098340034484863 -2.5001330375671387
0.4875585734844208 -12.098340034484863 -2.5001330375671387
2.421952962875366 -11.863456726074219 -2.5001330375671387
4.293612957000732 -11.321328163146973 -2.5001330375671387
5.190688133239746 -10.93911075592041 -2.5001330375671387
6.054081916809082 -10.485957145690918 -2.5001330375671387
6.878232479095459 -9.964814186096191 -2.5001330375671387
7.657758712768555 -9.379042625427246 -2.5001330375671387
8.387626647949219 -8.732431411743164 -2.5001330375671387
9.063090324401855 -8.029179573059082 -2.5001330375671387
10.233695983886719 -6.471386432647705 -2.5001330375671387
10.721240043640137 -5.626933574676514 -2.5001330375671387
11.951356887817383 -1.9422850608825684 -2.5001330375671387
12.068896293640137 -0.9743066430091858 -2.5001330375671387
-11.465126991271973 9.765624781721272e-06 -2.5001330375671387
-11.427948951721191 -0.9225683212280273 -2.5001330375671387
-11.131972312927246 -2.743788957595825 -2.5001330375671387
-10.87508773803711 -3.6306445598602295 -2.5001330375671387
-10.547675132751465 -4.493945121765137 -2.5001330375671387
-9.690204620361328 -6.12771463394165 -2.5001330375671387
-3.8896679878234863 -2.9228906631469727 -1.0609830617904663
-7.251073837280273 -8.880937576293945 -2.5001330375671387
-3.433544874191284 -9.053496360778809 -2.1114532947540283
-3.1897947788238525 -11.012441635131836 -2.5001330375671387
-2.2933104038238525 -11.233417510986328 -2.5001330375671387
-0.4616406261920929 -11.455820083618164 -2.5001330375671387
0.46166014671325684 -11.455839157104492 -2.5001330375671387
2.293329954147339 -11.233417510986328 -2.5001330375671387
4.915029048919678 -10.358173370361328 -2.5001330375671387
7.942177772521973 -8.268671989440918 -2.5001330375671387
10.151874542236328 -5.328105449676514 -2.5001330375671387
10.547680854797363 -4.493945121765137 -2.5001330375671387
10.875097274780273 -3.6306445598602295 -2.5001330375671387
11.131972312927246 -2.743788957595825 -2.5001330375671387
11.427953720092773 -0.9225585460662842 -2.5001330375671387
-10.884286880493164 0.0 -2.5001330375671387
-10.848994255065918 -0.8758300542831421 -2.5001330375671387
-10.567997932434082 -2.6047754287719727 -2.5001330375671387
-10.32413101196289 -3.446708917617798 -2.5001330375671387
-9.637548446655273 -5.058183670043945 -2.5001330375671387
-4.386904239654541 -2.774111270904541 -1.192251205444336
-3.1524999141693115 -3.282109260559082 -1.045343041419983
-2.984179735183716 -3.654960870742798 -1.0838384628295898
-6.182968616485596 -8.957587242126465 -2.5001330375671387
-5.442138671875 -9.426054000854492 -2.5001330375671387
-4.217187404632568 -8.887518882751465 -2.259643316268921
-3.028193235397339 -10.454550743103027 -2.5001330375671387
-0.4382617175579071 -10.875468254089355 -2.5001330375671387
0.43828123807907104 -10.875468254089355 -2.5001330375671387
1.3119628429412842 -10.804922103881836 -2.5001330375671387
3.028193235397339 -10.454541206359863 -2.5001330375671387
3.859619140625 -10.176981925964355 -2.5001330375671387
4.666025161743164 -9.83339786529541 -2.5001330375671387
6.883720397949219 -8.431005477905273 -2.5001330375671387
7.539814472198486 -7.849765300750732 -2.5001330375671387
8.147011756896973 -7.217617034912109 -2.5001330375671387
8.701367378234863 -6.538632869720459 -2.5001330375671387
9.199292182922363 -5.817265510559082 -2.5001330375671387
9.637557983398438 -5.058173656463623 -2.5001330375671387
10.013319969177246 -4.266269207000732 -2.5001330375671387
10.324140548706055 -3.4466893672943115 -2.5001330375671387
10.568007469177246 -2.604785203933716 -2.5001330375671387
10.848983764648438 -0.8758202791213989 -2.5001330375671387
-10.356904029846191 0.0 -2.5001330375671387
-9.823896408081055 -3.2797069549560547 -2.5001330375671387
-9.528143882751465 -4.0595703125 -2.5001330375671387
-4.300654411315918 -2.7195799350738525 -1.228324055671692
-3.7030272483825684 -2.7826366424560547 -1.1181559562683105
-3.030205011367798 -3.154775381088257 -1.0559520721435547
-5.883388519287109 -8.523573875427246 -2.5001330375671387
-2.881464719772339 -9.947998046875 -2.5001330375671387
-0.4170214831829071 -10.348505973815918 -2.5001330375671387
1.248388648033142 -10.28140640258789 -2.5001330375671387
2.881474494934082 -9.947988510131836 -2.5001330375671387
4.439946174621582 -9.356952667236328 -2.5001330375671387
5.883403301239014 -8.523564338684082 -2.5001330375671387
7.174491882324219 -7.469423770904541 -2.5001330375671387
7.752260684967041 -6.867900371551514 -2.5001330375671387
9.823905944824219 -3.2797069549560547 -2.5001330375671387
10.222792625427246 -1.6613867282867432 -2.5001330375671387
-9.875829696655273 0.0 -2.5001330375671387
-9.843798637390137 -0.7946875095367432 -2.5001330375671387
-9.747929573059082 -1.5842089653015137 -2.5001330375671387
-9.588847160339355 -2.363456964492798 -2.5001330375671387
-9.36758804321289 -3.1273632049560547 -2.5001330375671387
-3.198427677154541 -2.83355450630188 -1.081750750541687
-2.95171856880188 -3.073066234588623 -1.0787097215652466
-5.610116958618164 -8.127646446228027 -2.5001330375671387
-4.233691215515137 -8.922324180603027 -2.5001330375671387
-2.747626781463623 -9.485918045043945 -2.5001330375671387
-1.9754101037979126 -9.676249504089355 -2.5001330375671387
-1.1903905868530273 -9.803828239440918 -2.5001330375671387
-0.3976464867591858 -9.867812156677246 -2.5001330375671387
0.39766600728034973 -9.867812156677246 -2.5001330375671387
1.1904101371765137 -9.803817749023438 -2.5001330375671387
2.747636556625366 -9.485918045043945 -2.5001330375671387
5.610107421875 -8.127636909484863 -2.5001330375671387
6.841239929199219 -7.122470378875732 -2.5001330375671387
7.895165920257568 -5.932812213897705 -2.5001330375671387
9.085566520690918 -3.8709959983825684 -2.5001330375671387
9.747929573059082 -1.5841894149780273 -2.5001330375671387
9.8438081741333 -0.794677734375 -2.5001330375671387
-9.404511451721191 -0.7592675685882568 -2.5001330375671387
-9.312919616699219 -1.513515591621399 -2.5001330375671387
-8.949541091918945 -2.9878125190734863 -2.5001330375671387
-8.680097579956055 -3.698251962661743 -2.5001330375671387
-4.19924783706665 -2.6554393768310547 -1.3165398836135864
-3.643671751022339 -2.738046884536743 -1.207725167274475
-3.1503612995147705 -2.7909862995147705 -1.1152664422988892
-2.879531145095825 -2.9979100227355957 -1.1014831066131592
-2.727724552154541 -3.3408496379852295 -1.1428648233413696
-2.623710870742798 -3.8011131286621094 -1.223867416381836
-4.717548847198486 -8.171025276184082 -2.5001330375671387
-2.625009775161743 -9.062578201293945 -2.5001330375671387
-1.8872557878494263 -9.244423866271973 -2.5001330375671387
-0.37990233302116394 -9.427460670471191 -2.5001330375671387
0.3799218535423279 -9.427460670471191 -2.5001330375671387
1.137294888496399 -9.366308212280273 -2.5001330375671387
3.3457422256469727 -8.821972846984863 -2.5001330375671387
4.044770240783691 -8.524160385131836 -2.5001330375671387
4.717553615570068 -8.17104434967041 -2.5001330375671387
5.967187404632568 -7.30846643447876 -2.5001330375671387
6.535937309265137 -6.804618835449219 -2.5001330375671387
7.062280178070068 -6.256630897521973 -2.5001330375671387
7.542831897735596 -5.668076038360596 -2.5001330375671387
7.974462509155273 -5.042734146118164 -2.5001330375671387
8.949536323547363 -2.987783193588257 -2.5001330375671387
9.312929153442383 -1.5135058164596558 -2.5001330375671387
9.404501914978027 -0.7592187523841858 -2.5001330375671387
-9.000478744506836 -0.7266210913658142 -2.5001330375671387
-8.912821769714355 -1.448486328125 -2.5001330375671387
-8.767363548278809 -2.160966634750366 -2.5001330375671387
-8.565048217773438 -2.859443187713623 -2.5001330375671387
-8.3071870803833 -3.539374828338623 -2.5001330375671387
-2.8137598037719727 -2.929453134536743 -1.1246416568756104
-2.666435480117798 -3.265800714492798 -1.1673376560211182
-2.5487890243530273 -3.692568302154541 -1.2422937154769897
-3.8709959983825684 -8.157929420471191 -2.5001330375671387
-3.2020018100738525 -8.442949295043945 -2.5001330375671387
-1.80618155002594 -8.847265243530273 -2.5001330375671387
-0.36357420682907104 -9.022431373596191 -2.5001330375671387
0.36360350251197815 -9.022431373596191 -2.5001330375671387
2.5122461318969727 -8.67325210571289 -2.5001330375671387
3.2019920349121094 -8.442968368530273 -2.5001330375671387
3.8709959983825684 -8.157938957214355 -2.5001330375671387
6.255141258239746 -6.512285232543945 -2.5001330375671387
6.758876800537109 -5.987832069396973 -2.5001330375671387
7.631869792938232 -4.826083660125732 -2.5001330375671387
7.995463848114014 -4.196337699890137 -2.5001330375671387
8.307196617126465 -3.53936505317688 -2.5001330375671387
8.767373085021973 -2.160957098007202 -2.5001330375671387
8.912841796875 -1.4484667778015137 -2.5001330375671387
9.000478744506836 -0.7266015410423279 -2.5001330375671387
-8.655614852905273 0.0 -2.5001330375671387
-8.627538681030273 -0.6964941024780273 -2.5001330375671387
-7.962987899780273 -3.392704963684082 -2.5001330375671387
-4.769667625427246 -2.503310441970825 -1.5559165477752686
-3.111337900161743 -2.756406307220459 -1.200643539428711
-2.758417844772339 -2.871835947036743 -1.1501787900924683
-2.612060546875 -3.1991796493530273 -1.1929551362991333
-2.4903807640075684 -3.6079492568969727 -1.2662941217422485
-3.0693163871765137 -8.093134880065918 -2.5001330375671387
-2.408144474029541 -8.31386661529541 -2.5001330375671387
-1.7313475608825684 -8.480683326721191 -2.5001330375671387
-0.3485156297683716 -8.648603439331055 -2.5001330375671387
3.069330930709839 -8.093134880065918 -2.5001330375671387
3.7106151580810547 -7.819921493530273 -2.5001330375671387
4.916953086853027 -7.123427391052246 -2.5001330375671387
5.99596643447876 -6.242441177368164 -2.5001330375671387
6.478823184967041 -5.739726543426514 -2.5001330375671387
7.315634727478027 -4.626122951507568 -2.5001330375671387
7.664169788360596 -4.022470474243164 -2.5001330375671387
7.962993144989014 -3.392714738845825 -2.5001330375671387
8.210165977478027 -2.740957021713257 -2.5001330375671387
8.404096603393555 -2.071425676345825 -2.5001330375671387
8.627553939819336 -0.696484386920929 -2.5001330375671387
-8.309121131896973 -1.9531249563442543e-05 -2.5001330375671387
-7.881494045257568 -2.6312499046325684 -2.5001330375671387
-4.71340799331665 -2.4737987518310547 -1.6016829013824463
-3.5542285442352295 -2.670830011367798 -1.3377221822738647
-3.0961620807647705 -2.742968797683716 -1.2446149587631226
-2.7039647102355957 -2.815136671066284 -1.174487590789795
-2.4356541633605957 -3.5286619663238525 -1.290113091468811
-4.154550552368164 -7.19591760635376 -2.5001330375671387
-2.3117382526397705 -7.981044769287109 -2.5001330375671387
-1.001552700996399 -8.24853515625 -2.5001330375671387
0.33458006381988525 -8.302382469177246 -2.5001330375671387
1.662050724029541 -8.14120101928711 -2.5001330375671387
2.946464776992798 -7.76915979385376 -2.5001330375671387
3.5620603561401367 -7.50686502456665 -2.5001330375671387
4.154565334320068 -7.19591760635376 -2.5001330375671387
5.255073070526123 -6.436288833618164 -2.5001330375671387
5.755947113037109 -5.992558479309082 -2.5001330375671387
6.219472408294678 -5.509960651397705 -2.5001330375671387
6.642661094665527 -4.991630554199219 -2.5001330375671387
7.357367992401123 -3.8614354133605957 -2.5001330375671387
7.881503582000732 -2.631230354309082 -2.5001330375671387
8.067670822143555 -1.9884960651397705 -2.5001330375671387
8.201518058776855 -1.3328906297683716 -2.5001330375671387
8.282177925109863 -0.6685937643051147 -2.5001330375671387
-7.987236022949219 0.0 -2.5001330375671387
-7.883798599243164 -1.2812597751617432 -2.5001330375671387
-7.755136489868164 -1.9114843606948853 -2.5001330375671387
-7.576181411743164 -2.529306650161743 -2.5001330375671387
-4.714501857757568 -2.474365234375 -1.666619062423706
-4.036660194396973 -2.5526366233825684 -1.4949785470962524
-3.5250096321105957 -2.648876905441284 -1.3801906108856201
-2.382021427154541 -3.4509570598602295 -1.312546968460083
-2.2348828315734863 -3.870927572250366 -1.3991084098815918
-3.424062490463257 -7.216084003448486 -2.5001330375671387
-2.8323144912719727 -7.468203067779541 -2.5001330375671387
-1.5976464748382568 -7.825819969177246 -2.5001330375671387
-0.32161131501197815 -7.980751991271973 -2.5001330375671387
0.3216210901737213 -7.980761528015137 -2.5001330375671387
1.59765625 -7.825829982757568 -2.5001330375671387
2.2221922874450684 -7.671875 -2.5001330375671387
2.832324266433716 -7.468203067779541 -2.5001330375671387
3.424082040786743 -7.216073989868164 -2.5001330375671387
3.9936230182647705 -6.917148113250732 -2.5001330375671387
4.537275314331055 -6.573349475860596 -2.5001330375671387
5.051503658294678 -6.186953067779541 -2.5001330375671387
5.532958984375 -5.760409832000732 -2.5001330375671387
7.072353363037109 -3.711855411529541 -2.5001330375671387
7.883798599243164 -1.28125 -2.5001330375671387
7.961337566375732 -0.6427148580551147 -2.5001330375671387
-7.68737268447876 0.0 -2.5001330375671387
-7.662450790405273 -0.6185742020606995 -2.5001330375671387
-7.46398401260376 -1.8397167921066284 -2.5001330375671387
-7.291748046875 -2.4343554973602295 -2.5001330375671387
-7.072226524353027 -3.0132031440734863 -2.5001330375671387
-4.686992168426514 -2.4599218368530273 -1.721520185470581
-3.990478515625 -2.523427724838257 -1.535521149635315
-3.4960741996765137 -2.627128839492798 -1.4222545623779297
-2.654189348220825 -2.763310432434082 -1.2461134195327759
-2.3295018672943115 -3.3748631477355957 -1.3336799144744873
-2.1821484565734863 -3.77959942817688 -1.4193862676620483
-2.7259764671325684 -7.187812328338623 -2.5001330375671387
-2.1387596130371094 -7.383866786956787 -2.5001330375671387
-0.30953124165534973 -7.681142330169678 -2.5001330375671387
0.9266210794448853 -7.631328105926514 -2.5001330375671387
2.7259862422943115 -7.187822341918945 -2.5001330375671387
3.295527219772339 -6.945156097412109 -2.5001330375671387
4.366923809051514 -6.326581954956055 -2.5001330375671387
5.325234413146973 -5.544159889221191 -2.5001330375671387
5.754081726074219 -5.09768533706665 -2.5001330375671387
6.497299671173096 -4.108623027801514 -2.5001330375671387
6.806826114654541 -3.572519540786743 -2.5001330375671387
7.072231292724609 -3.01318359375 -2.5001330375671387
7.291762351989746 -2.4343554973602295 -2.5001330375671387
7.587821960449219 -1.2331445217132568 -2.5001330375671387
-7.407265663146973 0.0 -2.5001330375671387
-7.383251667022705 -0.5960448980331421 -2.5001330375671387
-7.026054382324219 -2.345644474029541 -2.5001330375671387
-6.814521312713623 -2.9034178256988525 -2.5001330375671387
-4.64626932144165 -2.438554525375366 -1.7710992097854614
-2.281435489654541 -3.3052244186401367 -1.3555506467819214
-3.1754491329193115 -6.692089557647705 -2.5001330375671387
-2.0608301162719727 -7.114824295043945 -2.5001330375671387
-0.2982519567012787 -7.401249885559082 -2.5001330375671387
0.8928515315055847 -7.353261470794678 -2.5001330375671387
1.4816503524780273 -7.257568359375 -2.5001330375671387
2.0608301162719727 -7.114833831787109 -2.5001330375671387
3.7036426067352295 -6.414892196655273 -2.5001330375671387
4.207817077636719 -6.096074104309082 -2.5001330375671387
5.131201267242432 -5.342148303985596 -2.5001330375671387
5.54443359375 -4.911923885345459 -2.5001330375671387
6.260556697845459 -3.958925724029541 -2.5001330375671387
7.026073932647705 -2.345634698867798 -2.5001330375671387
7.383251667022705 -0.5960351228713989 -2.5001330375671387
-7.144970417022705 -9.765624781721272e-06 -2.5001330375671387
-6.937343597412109 -1.7099120616912842 -2.5001330375671387
-6.777265548706055 -2.2625975608825684 -2.5001330375671387
-4.605947017669678 -2.4173924922943115 -1.8201861381530762
-3.9011619091033936 -2.466933488845825 -1.6151098012924194
-3.425419807434082 -2.574042797088623 -1.4993016719818115
-2.235429525375366 -3.2385740280151367 -1.3769748210906982
-2.0680859088897705 -3.58203125 -1.4473114013671875
-1.858437418937683 -3.9166014194488525 -1.516931414604187
-1.9878515005111694 -6.862871170043945 -2.5001330375671387
-0.2876953184604645 -7.139179706573486 -2.5001330375671387
0.8612402081489563 -7.092880725860596 -2.5001330375671387
1.4291894435882568 -7.000566482543945 -2.5001330375671387
1.987856388092041 -6.862871170043945 -2.5001330375671387
2.533647298812866 -6.680654048919678 -2.5001330375671387
3.062998056411743 -6.455126762390137 -2.5001330375671387
3.5724902153015137 -6.187734127044678 -2.5001330375671387
4.058818340301514 -5.880185604095459 -2.5001330375671387
4.94949197769165 -5.152978420257568 -2.5001330375671387
5.711992263793945 -4.292284965515137 -2.5001330375671387
6.038866996765137 -3.818730354309082 -2.5001330375671387
6.573227405548096 -2.80059552192688 -2.5001330375671387
6.777270317077637 -2.2625975608825684 -2.5001330375671387
7.052451133728027 -1.1461328268051147 -2.5001330375671387
-6.876406192779541 -0.555126965045929 -2.5001330375671387
-6.80944299697876 -1.1066503524780273 -2.5001330375671387
-6.698310375213623 -1.6509960889816284 -2.5001330375671387
-6.346728324890137 -2.7041015625 -2.5001330375671387
-4.541543006896973 -2.3835840225219727 -1.8587762117385864
-3.888017416000366 -2.458622932434082 -1.6671093702316284
-3.005302667617798 -2.6624510288238525 -1.455060362815857
-2.190908193588257 -3.174072265625 -1.3977090120315552
-2.0059568881988525 -3.474433422088623 -1.453932285308838
-1.8014062643051147 -3.79638671875 -1.5228538513183594
-1.9193553924560547 -6.626406192779541 -2.5001330375671387
-0.83154296875 -6.848476409912109 -2.5001330375671387
0.27779296040534973 -6.89318323135376 -2.5001330375671387
0.8315624594688416 -6.848476409912109 -2.5001330375671387
1.9193651676177979 -6.626396179199219 -2.5001330375671387
3.449394464492798 -5.974521160125732 -2.5001330375671387
4.363105297088623 -5.343828201293945 -2.5001330375671387
4.778954982757568 -4.975429534912109 -2.5001330375671387
5.163808345794678 -4.57473611831665 -2.5001330375671387
5.830790996551514 -3.687148332595825 -2.5001330375671387
6.108564376831055 -3.2060253620147705 -2.5001330375671387
6.346738338470459 -2.7041015625 -2.5001330375671387
6.543735027313232 -2.184628963470459 -2.5001330375671387
6.80944299697876 -1.1066405773162842 -2.5001330375671387
6.876406192779541 -0.5551171898841858 -2.5001330375671387
-6.667197227478027 0.0 -2.5001330375671387
-6.645576000213623 -0.5364843606948853 -2.5001330375671387
-6.580849647521973 -1.0695018768310547 -2.5001330375671387
-6.324072360992432 -2.1112987995147705 -2.5001330375671387
-3.8774900436401367 -2.4519920349121094 -1.7203519344329834
-2.9715232849121094 -2.6325390338897705 -1.4886791706085205
-2.146777391433716 -3.1101465225219727 -1.4171297550201416
-1.9484961032867432 -3.3749022483825684 -1.4613419771194458
-1.3336132764816284 -6.532451152801514 -2.5001330375671387
-0.26844725012779236 -6.661777019500732 -2.5001330375671387
1.3336230516433716 -6.532460689544678 -2.5001330375671387
1.8549315929412842 -6.403964519500732 -2.5001330375671387
2.3642187118530273 -6.233935356140137 -2.5001330375671387
3.3336033821105957 -5.773964881896973 -2.5001330375671387
3.7874021530151367 -5.486991882324219 -2.5001330375671387
4.618535041809082 -4.808398246765137 -2.5001330375671387
4.990478515625 -4.42117166519165 -2.5001330375671387
5.330043792724609 -4.005263805389404 -2.5001330375671387
6.473456859588623 -1.5955663919448853 -2.5001330375671387
6.580859184265137 -1.069492220878601 -2.5001330375671387
6.645586013793945 -0.5364941358566284 -2.5001330375671387
-6.448905944824219 -9.765624781721272e-06 -2.5001330375671387
-6.427988052368164 -0.5189355611801147 -2.5001330375671387
-6.26150369644165 -1.5433398485183716 -2.5001330375671387
-6.117031097412109 -2.042167901992798 -2.5001330375671387
-5.932861328125 -2.527763605117798 -2.5001330375671387
-4.541543006896973 -2.3835840225219727 -1.9884428977966309
-3.31884765625 -2.493945360183716 -1.6094483137130737
-2.9366796016693115 -2.6016697883605957 -1.5210235118865967
-2.458329916000366 -2.559384822845459 -1.375801920890808
-2.2560839653015137 -2.7632031440734863 -1.382956862449646
-2.102431535720825 -3.045888662338257 -1.434830904006958
-1.4677734375 -3.8702147006988525 -1.6046990156173706
-0.7773241996765137 -6.40188455581665 -2.5001330375671387
-0.2596679627895355 -6.443671703338623 -2.5001330375671387
0.2596777379512787 -6.443671703338623 -2.5001330375671387
0.7773339748382568 -6.401875019073486 -2.5001330375671387
2.7646093368530273 -5.826269626617432 -2.5001330375671387
3.663398265838623 -5.307343482971191 -2.5001330375671387
4.827075004577637 -4.276415824890137 -2.5001330375671387
5.4505615234375 -3.446718692779541 -2.5001330375671387
5.932861328125 -2.5277538299560547 -2.5001330375671387
6.261513710021973 -1.5433202981948853 -2.5001330375671387
6.365395545959473 -1.0344823598861694 -2.5001330375671387
6.427998065948486 -0.5189257860183716 -2.5001330375671387
-6.242743968963623 -9.765624781721272e-06 -2.5001330375671387
-6.222509860992432 -0.5023437142372131 -2.5001330375671387
-6.161913871765137 -1.001406192779541 -2.5001330375671387
-5.921474456787109 -1.976894497871399 -2.5001330375671387
-5.743203163146973 -2.446953058242798 -2.5001330375671387
-3.856386661529541 -2.4386229515075684 -1.8273135423660278
-2.9018750190734863 -2.5708301067352295 -1.5526293516159058
-2.4220213890075684 -2.521601438522339 -1.4002485275268555
-1.8580175638198853 -3.218193292617798 -1.488222360610962
-1.6428124904632568 -3.462167978286743 -1.534731149673462
-1.4252245426177979 -3.7580175399780273 -1.60962975025177
-1.2487108707427979 -6.116581916809082 -2.5001330375671387
-0.7524706721305847 -6.197246074676514 -2.5001330375671387
2.6762304306030273 -5.640019416809082 -2.5001330375671387
3.9482030868530273 -4.835673809051514 -2.5001330375671387
4.324511528015137 -4.502285003662109 -2.5001330375671387
4.672773361206055 -4.139707088470459 -2.5001330375671387
4.99072265625 -3.7502927780151367 -2.5001330375671387
5.527685642242432 -2.9011523723602295 -2.5001330375671387
5.921484470367432 -1.9768847227096558 -2.5001330375671387
6.222509860992432 -0.5023339986801147 -2.5001330375671387
-6.028085708618164 -0.48665037751197815 -2.5001330375671387
-5.736454963684082 -1.9151171445846558 -2.5001330375671387
-3.8484764099121094 -2.433642625808716 -1.882381796836853
-2.8675878047943115 -2.540458917617798 -1.583768606185913
-2.396669864654541 -2.495195150375366 -1.4302817583084106
-1.8141015768051147 -3.1421191692352295 -1.4999140501022339
-1.5993456840515137 -3.370546817779541 -1.542306661605835
-1.3860448598861694 -3.6546874046325684 -1.6158616542816162
-1.6825683116912842 -5.808916091918945 -2.5001330375671387
-0.7289648056030273 -6.003603458404541 -2.5001330375671387
0.7289843559265137 -6.003603458404541 -2.5001330375671387
1.2097021341323853 -5.925478458404541 -2.5001330375671387
1.6825780868530273 -5.808906078338623 -2.5001330375671387
2.5926170349121094 -5.463788986206055 -2.5001330375671387
3.023852586746216 -5.237451076507568 -2.5001330375671387
5.111464500427246 -3.2322752475738525 -2.5001330375671387
5.736464500427246 -1.9151073694229126 -2.5001330375671387
5.871972560882568 -1.4473143815994263 -2.5001330375671387
5.969374656677246 -0.97010737657547 -2.5001330375671387
-5.692470550537109 -1.403076171875 -2.5001330375671387
-5.561103343963623 -1.8565917015075684 -2.5001330375671387
-4.541543006896973 -2.383593797683716 -2.187218189239502
-2.4950194358825684 -2.597597599029541 -1.5359257459640503
-2.1838672161102295 -2.674746036529541 -1.4725137948989868
-1.9611425399780273 -2.8412303924560547 -1.4722129106521606
-1.561562418937683 -3.2909374237060547 -1.5533593893051147
-1.1334375143051147 -3.913095712661743 -1.7372801303863525
