ply
format ascii 1.0
element vertex 723
property float x
property float y
property float z
end_header
10.731635093688965 -15.547435760498047 4.174429893493652
20.388927459716797 -12.8931884765625 5.3305230140686035
11.248051643371582 -11.710463523864746 3.025712728500366
-1.1839159727096558 -29.378944396972656 5.142517566680908
1.1849365234375 -29.403602600097656 5.146839618682861
11.248051643371582 -11.710468292236328 2.654820442199707
11.125380516052246 -13.626117706298828 2.477231025695801
9.330492973327637 -24.602489471435547 2.22859525680542
8.704086303710938 -22.9508056640625 1.2591195106506348
11.973344802856445 -20.738412857055664 -1.6945137977600098
20.44488525390625 -15.363325119018555 -1.8096779584884644
-25.378339767456055 -13.319594383239746 -2.347599983215332
-24.224306106567383 -15.318534851074219 -2.347599983215332
-22.9130859375 -17.218076705932617 -2.347599983215332
-15.89085865020752 -16.544139862060547 -1.8789501190185547
-18.174619674682617 -22.259891510009766 -2.3538012504577637
-8.063764572143555 -27.839345932006836 -2.3740015029907227
-1.1692187786102295 -29.013944625854492 -2.3784120082855225
3.498911142349243 -28.81612205505371 -2.377615213394165
8.063329696655273 -27.837791442871094 -2.3738715648651123
10.264545440673828 -27.065399169921875 -2.370952844619751
12.096635818481445 -20.951961517333984 -1.9816278219223022
18.16642951965332 -22.24982452392578 -2.352741003036499
17.086933135986328 -17.789379119873047 -2.020371913909912
17.968963623046875 -15.919106483459473 -1.9663119316101074
-26.773056030273438 -2.1613574028015137 -2.5
-26.512313842773438 -4.308686256408691 -2.5
-26.079627990722656 -6.428075790405273 -2.5
-25.47783088684082 -8.50576114654541 -2.5
-24.710790634155273 -10.528281211853027 -2.5
-21.86767578125 -13.828295707702637 -2.408130168914795
-17.68600082397461 -15.66844654083252 -2.1991958618164062
-15.890853881835938 -16.54413604736328 -2.1351044178009033
-15.952006340026855 -19.53767967224121 -2.347599983215332
-12.63167953491211 -21.878705978393555 -2.3513782024383545
-8.984697341918945 -23.69068717956543 -2.3582513332366943
-7.05687952041626 -24.363149642944336 -2.3608014583587646
-4.260058403015137 -20.86707878112793 -1.9822585582733154
-3.061513662338257 -25.21384620666504 -2.3640081882476807
0.8250585794448853 -20.473539352416992 -1.9071139097213745
3.0614891052246094 -25.213573455810547 -2.363981246948242
10.847147941589355 -22.859888076782227 -2.3550562858581543
14.328173637390137 -20.757915496826172 -2.347599983215332
17.859466552734375 -15.822099685668945 -2.2207601070404053
26.079647064208984 -6.428071022033691 -2.5
26.512325286865234 -4.308681488037109 -2.5
26.77306365966797 -2.1613476276397705 -2.5
-23.899805068969727 -1.9294042587280273 -2.5
-23.667055130004883 -3.8462791442871094 -2.5
-19.02603530883789 -14.297138214111328 -2.4813945293426514
-15.597309112548828 -16.2385196685791 -2.347599983215332
-12.790483474731445 -18.530210494995117 -2.347599983215332
-9.652382850646973 -20.341997146606445 -2.347599983215332
-7.986489295959473 -21.058637619018555 -2.3482589721679688
-2.720654249191284 -22.406644821166992 -2.353367567062378
-0.9090673327445984 -22.558412551879883 -2.35394287109375
0.8454784750938416 -20.9802188873291 -2.1892590522766113
2.2139062881469727 -18.232934951782227 -1.9150060415267944
4.512626647949219 -22.104217529296875 -2.3522140979766846
6.272079944610596 -21.653724670410156 -2.3505091667175293
7.986489295959473 -21.05864143371582 -2.3482561111450195
9.652397155761719 -20.34198760986328 -2.347599983215332
12.790483474731445 -18.530223846435547 -2.347599983215332
14.240073204040527 -17.440921783447266 -2.347599983215332
15.597304344177246 -16.238525390625 -2.347599983215332
20.265602111816406 -12.815190315246582 -2.5
22.058874130249023 -9.398407936096191 -2.5
23.667064666748047 -3.8462791442871094 -2.5
-21.578685760498047 -1.7420116662979126 -2.5
-21.01980972290039 -5.180932521820068 -2.5
-11.548280715942383 -16.7305850982666 -2.347599983215332
-10.164589881896973 -17.605581283569336 -2.347599983215332
-8.714956283569336 -18.366411209106445 -2.347599983215332
-4.066352367401123 -19.918338775634766 -2.347599983215332
0.8185741901397705 -20.312679290771484 -2.347599983215332
5.655932426452637 -19.526546478271484 -2.347599983215332
7.208823204040527 -19.00810432434082 -2.347599983215332
8.714970588684082 -18.36640167236328 -2.347599983215332
12.857094764709473 -15.747084617614746 -2.347599983215332
14.14403247833252 -14.725517272949219 -2.357856035232544
16.193828582763672 -14.346488952636719 -2.4983649253845215
19.16915512084961 -10.0607271194458 -2.5
19.916542053222656 -8.485634803771973 -2.5
20.534767150878906 -6.855512619018555 -2.5
21.019817352294922 -5.180932521820068 -2.5
21.57869529724121 -1.7420116662979126 -2.5
-19.727983474731445 -1.4648437172581907e-05 -2.5
-19.663997650146484 -1.5874511003494263 -2.5
-19.472509384155273 -3.164604425430298 -2.5
-18.712709426879883 -6.24722146987915 -2.5
-18.14933967590332 -7.732719421386719 -2.5
-14.7666015625 -13.082079887390137 -2.5
-13.66604995727539 -14.227861404418945 -2.5
-10.523598670959473 -15.246073722839355 -2.347599983215332
-7.941669940948486 -16.736757278442383 -2.347599983215332
-3.7055468559265137 -18.150970458984375 -2.347599983215332
-2.232983350753784 -18.39029312133789 -2.347599983215332
1.933657169342041 -15.924936294555664 -2.032888889312744
5.15408182144165 -17.793954849243164 -2.347599983215332
6.569184303283691 -17.321514129638672 -2.347599983215332
7.941684246063232 -16.73674201965332 -2.347599983215332
9.262700080871582 -16.043432235717773 -2.347599983215332
10.5236177444458 -15.246073722839355 -2.347599983215332
13.666054725646973 -14.227880477905273 -2.5
14.766611099243164 -13.082079887390137 -2.5
15.771395683288574 -11.851435661315918 -2.5
16.67389678955078 -10.5439453125 -2.5
17.468265533447266 -9.168046951293945 -2.5
19.154726028442383 -4.721225261688232 -2.5
19.472515106201172 -3.164599657058716 -2.5
19.664018630981445 -1.587441325187683 -2.5
-17.589628219604492 -4.335473537445068 -2.5
-16.66639518737793 -7.100888729095459 -2.5
-16.04096221923828 -8.418950080871582 -2.5
-15.311508178710938 -9.682416915893555 -2.5
-14.482744216918945 -10.88308048248291 -2.5
-13.560053825378418 -12.013168334960938 -2.5
-12.5494384765625 -13.065336227416992 -2.5
-11.457402229309082 -14.032793045043945 -2.5
-10.149808883666992 -14.704545974731445 -2.46567964553833
-8.505849838256836 -14.732563018798828 -2.347599983215332
-4.732949256896973 -16.340044021606445 -2.347599983215332
-0.684985339641571 -16.997905731201172 -2.347599983215332
6.032436370849609 -15.906220436096191 -2.347599983215332
7.292788028717041 -15.36922836303711 -2.347599983215332
11.457416534423828 -14.032787322998047 -2.5
12.54942798614502 -13.065346717834473 -2.5
16.040971755981445 -8.4189453125 -2.5
17.589637756347656 -4.335468769073486 -2.5
17.881460189819336 -2.9060254096984863 -2.5
18.05731201171875 -1.457739233970642 -2.5
-16.689456939697266 -1.347314476966858 -2.5
-16.526918411254883 -2.6858983039855957 -2.5
-16.257205963134766 -4.007055759429932 -2.5
-14.825859069824219 -7.781215667724609 -2.5
-14.151655197143555 -8.948974609375 -2.5
-11.5988130569458 -12.075634956359863 -2.5
-10.58950138092041 -12.969804763793945 -2.5
-6.980414867401123 -14.710932731628418 -2.431211233139038
-5.585702896118164 -14.728310585021973 -2.3519110679626465
-4.374433517456055 -15.102279663085938 -2.347599983215332
-0.6330956816673279 -15.710311889648438 -2.347599983215332
0.6331152319908142 -15.710302352905273 -2.347599983215332
1.8952099084854126 -15.608417510986328 -2.347599983215332
5.585712909698486 -14.728310585021973 -2.351910352706909
8.3589448928833 -14.478090286254883 -2.496134042739868
13.3856782913208 -10.058686256408691 -2.5
15.40392017364502 -6.56298828125 -2.5
15.882064819335938 -5.302216529846191 -2.5
16.25721549987793 -4.007045745849609 -2.5
-15.561083793640137 4.882812390860636e-06 -2.5
-14.76024341583252 -4.927695274353027 -2.5
-13.152070045471191 -8.316874504089355 -2.5
-11.647631645202637 -10.318915367126465 -2.5
-10.779545783996582 -11.222695350646973 -2.5
-8.839706420898438 -12.8065185546875 -2.5
-7.78054666519165 -13.476293563842773 -2.5
-5.507817268371582 -14.522933959960938 -2.4953742027282715
-3.00396466255188 -14.714350700378418 -2.412724494934082
-1.787329077720642 -14.71999454498291 -2.382241725921631
0.593310534954071 -14.722773551940918 -2.367239236831665
1.7873388528823853 -14.71999454498291 -2.382241725921631
3.00396466255188 -14.71435546875 -2.4127256870269775
6.67092752456665 -14.058661460876465 -2.5
7.780541896820068 -13.476298332214355 -2.5
8.839712142944336 -12.806523323059082 -2.5
9.841537475585938 -12.05370044708252 -2.5
10.779545783996582 -11.222695350646973 -2.5
11.647645950317383 -10.3189058303833 -2.5
14.760258674621582 -4.927700042724609 -2.5
15.10891056060791 -3.7240185737609863 -2.5
15.5106201171875 -1.2521483898162842 -2.5
-14.531044960021973 9.765624781721272e-06 -2.5
-14.108803749084473 -3.4775145053863525 -2.5
-12.86660099029541 -6.752910137176514 -2.5
-12.281498908996582 -7.76635217666626 -2.5
-11.616743087768555 -8.729413986206055 -2.5
-10.066015243530273 -10.479828834533691 -2.5
-6.229350566864014 -13.128090858459473 -2.5
-4.042783260345459 -13.957343101501465 -2.5
-0.5841259360313416 -14.49514102935791 -2.495845317840576
0.5841454863548279 -14.495136260986328 -2.495845317840576
1.7496337890625 -14.40951156616211 -2.4972968101501465
4.042802810668945 -13.957343101501465 -2.5
6.229355335235596 -13.12808609008789 -2.5
7.26553201675415 -12.584257125854492 -2.5
8.254579544067383 -11.958818435668945 -2.5
9.19009780883789 -11.255829811096191 -2.5
10.066010475158691 -10.479833602905273 -2.5
11.616747856140137 -8.729413986206055 -2.5
12.281503677368164 -7.76635217666626 -2.5
12.866616249084473 -6.752914905548096 -2.5
13.368270874023438 -5.695683479309082 -2.5
13.78323745727539 -4.601518630981445 -2.5
14.108808517456055 -3.4775195121765137 -2.5
14.342890739440918 -2.3309521675109863 -2.5
14.483935356140137 -1.1692626476287842 -2.5
-13.6256685256958 4.882812390860636e-06 -2.5
-12.5353364944458 -5.340805530548096 -2.5
-10.892939567565918 -8.185522079467773 -2.5
-8.617485046386719 -10.554521560668945 -2.5
-3.790903329849243 -13.087699890136719 -2.5
-2.7254881858825684 -13.350302696228027 -2.5
-1.6423876285552979 -13.526323318481445 -2.5
-0.5486474633216858 -13.614619255065918 -2.5
0.548657238483429 -13.614619255065918 -2.5
1.6423925161361694 -13.526328086853027 -2.5
7.740268230438232 -11.213706016540527 -2.5
8.617494583129883 -10.554516792297363 -2.5
9.438827514648438 -9.82686996459961 -2.5
10.892949104309082 -8.185517311096191 -2.5
12.06494140625 -6.332162857055664 -2.5
13.229731559753418 -3.2608447074890137 -2.5
13.449228286743164 -2.1857080459594727 -2.5
13.581488609313965 -1.0964062213897705 -2.5
-12.163505554199219 -4.060776233673096 -2.5
-10.838247299194336 -6.853691101074219 -2.5
-8.110121726989746 -9.93310546875 -2.5
-7.284550666809082 -10.55349063873291 -2.5
-6.411723613739014 -11.10543441772461 -2.5
-5.497309684753418 -11.585346221923828 -2.5
-3.5677099227905273 -12.317152976989746 -2.5
-2.565014600753784 -12.564287185668945 -2.5
-1.545693278312683 -12.729950904846191 -2.5
-0.5163378715515137 -12.813041687011719 -2.5
2.5650291442871094 -12.564287185668945 -2.5
3.567700147628784 -12.317148208618164 -2.5
6.411728382110596 -11.105424880981445 -2.5
7.284550666809082 -10.553485870361328 -2.5
8.11013126373291 -9.933100700378418 -2.5
8.883110046386719 -9.248305320739746 -2.5
9.598490715026855 -8.503515243530273 -2.5
10.251615524291992 -7.703583717346191 -2.5
10.838247299194336 -6.853701114654541 -2.5
11.797314643859863 -5.026357173919678 -2.5
12.163515090942383 -4.060776233673096 -2.5
12.781869888305664 -1.0318603515625 -2.5
-12.068251609802246 -0.9742528796195984 -2.5
-11.95071792602539 -1.9421825408935547 -2.5
-11.48440933227539 -3.834062337875366 -2.5
-11.138651847839355 -4.745741844177246 -2.5
-10.720664024353027 -5.626640319824219 -2.5
-10.233149528503418 -6.471049785614014 -2.5
-9.062597274780273 -8.028769493103027 -2.5
-7.65734338760376 -9.378544807434082 -2.5
-6.877851486206055 -9.964286804199219 -2.5
-6.053759574890137 -10.4854097366333 -2.5
-5.190385818481445 -10.938539505004883 -2.5
-4.293378829956055 -11.320722579956055 -2.5
-3.3685154914855957 -11.62948226928711 -2.5
-2.421811580657959 -11.862821578979492 -2.5
-1.4593944549560547 -12.019238471984863 -2.5
6.877856254577637 -9.964286804199219 -2.5
9.062606811523438 -8.028764724731445 -2.5
10.233149528503418 -6.471054553985596 -2.5
10.720673561096191 -5.626640319824219 -2.5
11.484414100646973 -3.834057569503784 -2.5
11.950732231140137 -1.9421825408935547 -2.5
12.068256378173828 -0.9742480516433716 -2.5
-11.464506149291992 9.765624781721272e-06 -2.5
-11.42733383178711 -0.9225048422813416 -2.5
-11.131376266479492 -2.743642568588257 -2.5
-9.689692497253418 -6.127397537231445 -2.5
-7.250673770904541 -8.880477905273438 -2.5
-5.732255935668945 -9.928559303283691 -2.5
-4.914745807647705 -10.357617378234863 -2.5
-4.065371036529541 -10.71950626373291 -2.5
-3.189624071121216 -11.01186466217041 -2.5
-2.2931883335113525 -11.232827186584473 -2.5
-1.381899356842041 -11.380927085876465 -2.5
-0.46163085103034973 -11.455219268798828 -2.5
0.4616357386112213 -11.455209732055664 -2.5
1.3818944692611694 -11.380922317504883 -2.5
2.293207883834839 -11.232816696166992 -2.5
4.065375804901123 -10.719511032104492 -2.5
5.732265472412109 -9.928559303283691 -2.5
6.512582778930664 -9.435102462768555 -2.5
7.250683307647705 -8.880468368530273 -2.5
7.941747665405273 -8.268237113952637 -2.5
9.165224075317383 -6.88720703125 -2.5
10.547119140625 -4.493700981140137 -2.5
10.874506950378418 -3.630444288253784 -2.5
11.13138198852539 -2.743642568588257 -2.5
11.316049575805664 -1.8390331268310547 -2.5
-10.323588371276855 -3.4465184211730957 -2.5
-9.198798179626465 -5.816962718963623 -2.5
-8.70089340209961 -6.538290977478027 -2.5
-8.146557807922363 -7.217231273651123 -2.5
-6.883339881896973 -8.430571556091309 -2.5
-3.8594090938568115 -10.176440238952637 -2.5
-3.028032064437866 -10.453989028930664 -2.5
-1.3118847608566284 -10.80434513092041 -2.5
0.4382421672344208 -10.874873161315918 -2.5
1.3118945360183716 -10.804340362548828 -2.5
2.1770262718200684 -10.663749694824219 -2.5
5.441855430603027 -9.42556095123291 -2.5
6.883344650268555 -8.430561065673828 -2.5
8.700898170471191 -6.538295745849609 -2.5
9.198803901672363 -5.816962718963623 -2.5
9.637045860290527 -5.057905197143555 -2.5
10.01278305053711 -4.266049861907959 -2.5
10.74276351928711 -1.7458691596984863 -2.5
10.84841251373291 -0.8757665753364563 -2.5
-10.356351852416992 4.882812390860636e-06 -2.5
-10.322768211364746 -0.8333398103713989 -2.5
-8.753081321716309 -5.535117149353027 -2.5
-6.549829006195068 -8.022085189819336 -2.5
-3.672416925430298 -9.683359146118164 -2.5
-2.8813230991363525 -9.947465896606445 -2.5
1.2483251094818115 -10.28084945678711 -2.5
3.672416925430298 -9.683363914489746 -2.5
5.178178787231445 -8.968862533569336 -2.5
5.88308572769165 -8.523110389709473 -2.5
6.549829006195068 -8.022085189819336 -2.5
7.751845359802246 -6.867528915405273 -2.5
9.170097351074219 -4.812827110290527 -2.5
9.82338809967041 -3.2795214653015137 -2.5
10.055424690246582 -2.4784374237060547 -2.5
10.222246170043945 -1.6612695455551147 -2.5
-9.8753023147583 0.0 -2.5
-9.843276023864746 -0.7946386337280273 -2.5
-9.747416496276855 -1.5841162204742432 -2.5
-9.588335037231445 -2.3633203506469727 -2.5
-7.894736289978027 -5.932504653930664 -2.5
-7.391762733459473 -6.548534870147705 -2.5
-6.840854167938232 -7.122089862823486 -2.5
-6.245575904846191 -7.649457931518555 -2.5
-5.609809398651123 -8.127216339111328 -2.5
-1.9753124713897705 -9.675722122192383 -2.5
-1.190332055091858 -9.803290367126465 -2.5
-0.39763182401657104 -9.867284774780273 -2.5
0.3976415991783142 -9.867289543151855 -2.5
1.1903369426727295 -9.803300857543945 -2.5
1.9753124713897705 -9.675732612609863 -2.5
2.747495174407959 -9.485404968261719 -2.5
5.609814167022705 -8.127211570739746 -2.5
6.840859413146973 -7.122084617614746 -2.5
7.391772270202637 -6.548534870147705 -2.5
7.894741058349609 -5.932509422302246 -2.5
8.346508979797363 -5.278007507324219 -2.5
9.36708927154541 -3.127192258834839 -2.5
9.58834457397461 -2.3633203506469727 -2.5
9.747421264648438 -1.5841064453125 -2.5
9.843280792236328 -0.7946240305900574 -2.5
-9.434598922729492 4.882812390860636e-06 -2.5
-9.312421798706055 -1.5134228467941284 -2.5
-9.160444259643555 -2.2578563690185547 -2.5
-8.949052810668945 -2.9876415729522705 -2.5
-7.974023342132568 -5.042470455169678 -2.5
-7.0618896484375 -6.256293773651123 -2.5
-6.535575866699219 -6.804252624511719 -2.5
-5.359457969665527 -7.764516353607178 -2.5
-4.717294692993164 -8.170595169067383 -2.5
-2.624868154525757 -9.06209945678711 -2.5
-1.1372168064117432 -9.36581039428711 -2.5
0.3798925578594208 -9.426947593688965 -2.5
3.3455517292022705 -8.821508407592773 -2.5
4.044545650482178 -8.523700714111328 -2.5
5.359467506408691 -7.764516353607178 -2.5
6.535571098327637 -6.804262638092041 -2.5
8.353930473327637 -4.384467601776123 -2.5
8.679648399353027 -3.6980466842651367 -2.5
8.949067115783691 -2.9876365661621094 -2.5
9.160449028015137 -2.2578516006469727 -2.5
9.312426567077637 -1.5134179592132568 -2.5
9.404008865356445 -0.7591650485992432 -2.5
-9.029276847839355 4.882812390860636e-06 -2.5
-8.912348747253418 -1.448403239250183 -2.5
-8.306747436523438 -3.5391650199890137 -2.5
-7.995028972625732 -4.196117877960205 -2.5
-7.631444931030273 -4.825844764709473 -2.5
-5.710517406463623 -6.994115829467773 -2.5
-5.129213809967041 -7.430947303771973 -2.5
-3.8707761764526367 -8.157509803771973 -2.5
-3.2018213272094727 -8.442519187927246 -2.5
-0.36357420682907104 -9.021947860717773 -2.5
1.806093692779541 -8.8468017578125 -2.5
3.2018260955810547 -8.442519187927246 -2.5
4.514643669128418 -7.819580078125 -2.5
5.129218578338623 -7.430947303771973 -2.5
5.710522174835205 -6.994121074676514 -2.5
6.758510589599609 -5.987514495849609 -2.5
7.995028972625732 -4.196108341217041 -2.5
8.306757926940918 -3.5391697883605957 -2.5
8.56459903717041 -2.8592822551727295 -2.5
8.912353515625 -1.4483983516693115 -2.5
9.0 -0.7265576124191284 -2.5
-8.655156135559082 0.0 -2.5
-7.663754940032959 -4.02224588394165 -2.5
-6.919296741485596 -5.199511528015137 -2.5
-6.478466510772705 -5.739428520202637 -2.5
-4.916679382324219 -7.123046875 -2.5
-3.069155216217041 -8.092704772949219 -2.5
-2.408017635345459 -8.313432693481445 -2.5
-1.7312450408935547 -8.480238914489746 -2.5
-0.34850096702575684 -8.648134231567383 -2.5
1.0432665348052979 -8.592041015625 -2.5
1.7312548160552979 -8.480243682861328 -2.5
2.408022403717041 -8.313432693481445 -2.5
3.069159984588623 -8.092704772949219 -2.5
3.710395336151123 -7.819501876831055 -2.5
4.916689395904541 -7.123046875 -2.5
5.473916053771973 -6.704326152801514 -2.5
6.478476524353027 -5.739423751831055 -2.5
7.315253734588623 -4.625878810882568 -2.5
7.663759708404541 -4.02224588394165 -2.5
7.962573051452637 -3.392524242401123 -2.5
8.209731101989746 -2.7408056259155273 -2.5
8.403647422790527 -2.0713231563568115 -2.5
8.627094268798828 -0.6964452862739563 -2.5
-8.308671951293945 0.0 -2.5
-8.281728744506836 -0.6685644388198853 -2.5
-7.022411823272705 -4.440712928771973 -2.5
-6.219130516052246 -5.509677410125732 -2.5
-5.755620002746582 -5.992236137390137 -2.5
-4.719862937927246 -6.837900161743164 -2.5
-4.154330730438232 -7.195512771606445 -2.5
-3.5618603229522705 -7.506479263305664 -2.5
-2.9462890625 -7.768744945526123 -2.5
-1.001499056816101 -8.248090744018555 -2.5
0.3345605432987213 -8.301942825317383 -2.5
1.6619482040405273 -8.140766143798828 -2.5
2.3116209506988525 -7.980629920959473 -2.5
2.946293830871582 -7.768749713897705 -2.5
3.5618650913238525 -7.506479263305664 -2.5
4.154340744018555 -7.195527076721191 -2.5
4.719862937927246 -6.837904930114746 -2.5
5.755624771118164 -5.992246150970459 -2.5
6.642309188842773 -4.991376876831055 -2.5
7.356972694396973 -3.8612256050109863 -2.5
8.067251205444336 -1.9883984327316284 -2.5
-7.347700119018555 -3.130561351776123 -2.5
-7.071967601776123 -3.711660146713257 -2.5
-6.750370979309082 -4.268691539764404 -2.5
-6.384994983673096 -4.798022270202637 -2.5
-5.978208065032959 -5.296235084533691 -2.5
-5.532656192779541 -5.760102272033691 -2.5
-4.537026405334473 -6.573012351989746 -2.5
-2.832163095474243 -7.467792987823486 -2.5
-2.2220702171325684 -7.671469688415527 -2.5
-1.5975682735443115 -7.825409889221191 -2.5
-0.9627050757408142 -7.928578853607178 -2.5
-0.3215917944908142 -7.980331897735596 -2.5
0.9627001881599426 -7.92858362197876 -2.5
1.597573161125183 -7.825400352478027 -2.5
2.832163095474243 -7.46780252456665 -2.5
4.537031173706055 -6.573017597198486 -2.5
5.978217601776123 -5.296240329742432 -2.5
6.38500452041626 -4.798007488250732 -2.5
6.750375747680664 -4.2686767578125 -2.5
7.754731178283691 -1.9113671779632568 -2.5
7.883388519287109 -1.2811766862869263 -2.5
7.960917949676514 -0.6426757574081421 -2.5
-7.587416648864746 -1.2330809831619263 -2.5
-6.806464672088623 -3.5723094940185547 -2.5
-6.145283222198486 -4.617885589599609 -2.5
-5.324951171875 -5.543857097625732 -2.5
-4.861581802368164 -5.954360008239746 -2.5
-2.1386523246765137 -7.383466720581055 -2.5
-0.30952146649360657 -7.680727481842041 -2.5
0.30952635407447815 -7.680727481842041 -2.5
0.9265673756599426 -7.630918025970459 -2.5
2.1386473178863525 -7.383471488952637 -2.5
2.725834846496582 -7.187436580657959 -2.5
3.295351505279541 -6.944794654846191 -2.5
4.366694450378418 -6.326250076293945 -2.5
5.753774166107178 -5.097402095794678 -2.5
6.4969482421875 -4.108413219451904 -2.5
6.806474685668945 -3.5723047256469727 -2.5
7.071855545043945 -3.0130271911621094 -2.5
7.463598251342773 -1.8396142721176147 -2.5
7.587426662445068 -1.233071208000183 -2.5
7.662035942077637 -0.6185400485992432 -2.5
-7.382861137390137 -0.5960058569908142 -2.5
-7.191640377044678 -1.7725781202316284 -2.5
-5.544126033782959 -4.911669731140137 -2.5
-5.130922794342041 -5.341850280761719 -2.5
-4.207582950592041 -6.09573221206665 -2.5
-3.703432559967041 -6.414531230926514 -2.5
-1.4815624952316284 -7.257182598114014 -2.5
-0.29823729395866394 -7.400864124298096 -2.5
0.8928076028823853 -7.352870941162109 -2.5
1.4815722703933716 -7.257182598114014 -2.5
2.626518487930298 -6.925541877746582 -2.5
3.1752734184265137 -6.691747665405273 -2.5
4.207582950592041 -6.095746994018555 -2.5
4.6844482421875 -5.737411975860596 -2.5
5.544130802154541 -4.911669731140137 -2.5
5.921371936798096 -4.449624061584473 -2.5
6.260214805603027 -3.9587156772613525 -2.5
7.310961723327637 -1.1881444454193115 -2.5
7.382856369018555 -0.5960009694099426 -2.5
-7.121425628662109 -0.574902355670929 -2.5
-6.936977386474609 -1.709814429283142 -2.5
-6.776904106140137 -2.262455940246582 -2.5
-6.326220512390137 -3.320258617401123 -2.5
-6.038530349731445 -3.81853985786438 -2.5
-5.711689472198486 -4.292050838470459 -2.5
-5.347797870635986 -4.737739086151123 -2.5
-4.949223518371582 -5.152695178985596 -2.5
-4.5185546875 -5.534233093261719 -2.5
-3.5722949504852295 -6.187392234802246 -2.5
-2.533500909805298 -6.680302619934082 -2.5
-0.8611816167831421 -7.092490196228027 -2.5
-0.28768065571784973 -7.13878870010376 -2.5
0.2876855432987213 -7.13878870010376 -2.5
0.8611865043640137 -7.092490196228027 -2.5
1.42910635471344 -7.000205039978027 -2.5
1.987758755683899 -6.862509727478027 -2.5
2.533510684967041 -6.680302619934082 -2.5
4.058598518371582 -5.8798828125 -2.5
4.949233055114746 -5.152695178985596 -2.5
5.711694240570068 -4.292060375213623 -2.5
6.326225280761719 -3.320253849029541 -2.5
6.572880744934082 -2.800429582595825 -2.5
6.936982154846191 -1.709814429283142 -2.5
7.052070140838623 -1.1460692882537842 -2.5
7.121420860290527 -0.5748974680900574 -2.5
-6.898407936096191 4.882812390860636e-06 -2.5
-6.876035213470459 -0.5550927519798279 -2.5
-6.697948932647705 -1.6509032249450684 -2.5
-6.346396446228027 -2.7039403915405273 -2.5
-5.163530349731445 -4.574487209320068 -2.5
-4.77871561050415 -4.975146293640137 -2.5
-4.362861156463623 -5.343544960021973 -2.5
-3.9187450408935547 -5.67727518081665 -2.5
-3.4492039680480957 -5.974194049835205 -2.5
-2.957285165786743 -6.232372760772705 -2.5
-2.4462060928344727 -6.450126647949219 -2.5
-0.2777685523033142 -6.89281702041626 -2.5
1.379858374595642 -6.758998870849609 -2.5
3.4492039680480957 -5.974199295043945 -2.5
3.9187498092651367 -5.677279949188232 -2.5
4.778696060180664 -4.975156307220459 -2.5
5.163539886474609 -4.574496746063232 -2.5
6.108242034912109 -3.2058496475219727 -2.5
6.697954177856445 -1.6508935689926147 -2.5
6.809086799621582 -1.1065771579742432 -2.5
6.876044750213623 -0.5550927519798279 -2.5
-6.666845321655273 -1.4648437172581907e-05 -2.5
-6.580507755279541 -1.0694384574890137 -2.5
-6.473110198974609 -1.5954785346984863 -2.5
-6.323740005493164 -2.1111814975738525 -2.5
-6.133354187011719 -2.6131787300109863 -2.5
-5.90319299697876 -3.0982372760772705 -2.5
-5.329755783081055 -4.005053520202637 -2.5
-3.7871923446655273 -5.486699104309082 -2.5
-3.3334131240844727 -5.773652076721191 -2.5
-2.8580126762390137 -6.023159027099609 -2.5
-1.854833960533142 -6.403617858886719 -2.5
-1.333535075187683 -6.532109260559082 -2.5
-0.8035937547683716 -6.618227481842041 -2.5
-0.2684423625469208 -6.661440372467041 -2.5
0.8036083579063416 -6.618232250213623 -2.5
1.854833960533142 -6.403627872467041 -2.5
2.3641014099121094 -6.233608245849609 -2.5
2.858027219772339 -6.023163795471191 -2.5
3.3334226608276367 -5.773652076721191 -2.5
3.7872021198272705 -5.486699104309082 -2.5
4.216415882110596 -5.164169788360596 -2.5
4.990204811096191 -4.420937538146973 -2.5
5.329765319824219 -4.005058288574219 -2.5
6.133359432220459 -2.6131787300109863 -2.5
-6.427646160125732 -0.5188964605331421 -2.5
-6.365053653717041 -1.0344287157058716 -2.5
-6.11669397354126 -2.042050838470459 -2.5
-5.709911823272705 -2.9967968463897705 -2.5
-5.450253963470459 -3.446542978286743 -2.5
-5.155258655548096 -3.8739256858825684 -2.5
-4.82681131362915 -4.276186466217041 -2.5
-2.286689519882202 -6.029511451721191 -2.5
-1.2898730039596558 -6.31823205947876 -2.5
0.7772851586341858 -6.401542663574219 -2.5
1.2898778915405273 -6.318242073059082 -2.5
1.794106364250183 -6.193959712982178 -2.5
2.286694288253784 -6.029511451721191 -2.5
2.764453172683716 -5.825961589813232 -2.5
3.663203001022339 -5.307065486907959 -2.5
4.826816082000732 -4.276196002960205 -2.5
5.155268669128418 -3.8739209175109863 -2.5
5.450273513793945 -3.446537971496582 -2.5
5.709931373596191 -2.9967918395996094 -2.5
5.932548522949219 -2.5276122093200684 -2.5
6.261186599731445 -1.54324209690094 -2.5
6.365063190460205 -1.034423828125 -2.5
6.427660942077637 -0.5188915729522705 -2.5
-6.161577224731445 -1.0013525485992432 -2.5
-6.061015605926514 -1.4939111471176147 -2.5
-5.921156883239746 -1.976772427558899 -2.5
-5.742895603179932 -2.4468164443969727 -2.5
-5.527387619018555 -2.900991201400757 -2.5
-5.276025295257568 -3.336357355117798 -2.5
-4.672509670257568 -4.139492034912109 -2.5
-4.324272155761719 -4.502045631408691 -2.5
-3.9479832649230957 -4.835410118103027 -2.5
-3.546098470687866 -5.137407302856445 -2.5
-3.121206045150757 -5.406093597412109 -2.5
-2.2135984897613525 -5.836767673492432 -2.5
-1.7367528676986694 -5.995956897735596 -2.5
-1.2486376762390137 -6.116264343261719 -2.5
-0.7524316310882568 -6.196904182434082 -2.5
-0.2513476610183716 -6.237358093261719 -2.5
0.75244140625 -6.196908950805664 -2.5
2.2135937213897705 -5.836767673492432 -2.5
3.546098470687866 -5.137412071228027 -2.5
4.324277400970459 -4.502050876617432 -2.5
4.672524452209473 -4.139492034912109 -2.5
4.990463733673096 -3.7500877380371094 -2.5
5.276034832000732 -3.33636212348938 -2.5
5.527392387390137 -2.900995969772339 -2.5
5.921162128448486 -1.976772427558899 -2.5
6.06102991104126 -1.4939111471176147 -2.5
-6.047368049621582 4.882812390860636e-06 -2.5
-5.969052791595459 -0.9700683355331421 -2.5
-5.563457012176514 -2.370371103286743 -2.5
-5.354682445526123 -2.810351610183716 -2.5
-4.834521293640137 -3.6329150199890137 -2.5
-4.189169883728027 -4.361381530761719 -2.5
-3.023686408996582 -5.237177848815918 -2.5
-0.728930652141571 -6.003281116485596 -2.5
0.24350585043430328 -6.04247522354126 -2.5
1.209633708000183 -5.92516565322876 -2.5
1.6824853420257568 -5.808613300323486 -2.5
2.1444287300109863 -5.654394626617432 -2.5
2.592465877532959 -5.463505744934082 -2.5
3.023691415786743 -5.2371826171875 -2.5
3.8246335983276367 -4.684330940246582 -2.5
4.834531307220459 -3.6329100131988525 -2.5
5.354692459106445 -2.810351610183716 -2.5
5.736162185668945 -1.9150097370147705 -2.5
5.871650218963623 -1.4472362995147705 -2.5
6.027763366699219 -0.4866113066673279 -2.5
-5.862514495849609 4.882812390860636e-06 -2.5
-5.84350061416626 -0.4717333912849426 -2.5
-5.786596775054932 -0.9404199123382568 -2.5
-5.692152976989746 -1.402993083000183 -2.5
-5.560805320739746 -1.8564696311950684 -2.5
-5.191000938415527 -2.7244482040405273 -2.5
-4.954941272735596 -3.133315324783325 -2.5
-4.686743259429932 -3.521855354309082 -2.5
-4.388149261474609 -3.887563467025757 -2.5
-3.707719564437866 -4.5411376953125 -2.5
-2.9312596321105957 -5.077089786529541 -2.5
-2.5132129192352295 -5.296504020690918 -2.5
-2.0788769721984863 -5.481547832489014 -2.5
-1.1726561784744263 -5.74404764175415 -2.5
-0.23605956137180328 -5.857763767242432 -2.5
0.23606444895267487 -5.857768535614014 -2.5
0.7066552639007568 -5.819770336151123 -2.5
1.1726561784744263 -5.744038105010986 -2.5
2.9312596321105957 -5.077089786529541 -2.5
3.7077245712280273 -4.5411376953125 -2.5
4.061108112335205 -4.228066444396973 -2.5
4.388159275054932 -3.8875732421875 -2.5
4.686748027801514 -3.521865129470825 -2.5
5.191005706787109 -2.724443197250366 -2.5
5.69216775894165 -1.402993083000183 -2.5
5.786601543426514 -0.9404150247573853 -2.5
-5.687016487121582 0.0 -2.5
-5.52175760269165 -1.3609912395477295 -2.5
-5.394340515136719 -1.8008984327316284 -2.5
-5.035605430603027 -2.642895460128784 -2.5
-4.806611061096191 -3.0395164489746094 -2.5
-4.256792068481445 -3.771191358566284 -2.5
-3.5967283248901367 -4.405190467834473 -2.5
-2.843510627746582 -4.925107479095459 -2.5
-1.5822265148162842 -5.462490081787109 -2.5
-0.6854931712150574 -5.645556449890137 -2.5
-0.22899413108825684 -5.682416915893555 -2.5
0.22899413108825684 -5.682412147521973 -2.5
1.5822314023971558 -5.462485313415527 -2.5
2.0166406631469727 -5.317461013793945 -2.5
2.843515634536743 -4.925102233886719 -2.5
3.596733331680298 -4.405190467834473 -2.5
3.9395360946655273 -4.101499080657959 -2.5
4.546450138092041 -3.41644024848938 -2.5
5.035610198974609 -2.642890453338623 -2.5
5.394345760345459 -1.8008935451507568 -2.5
5.521767616271973 -1.3609960079193115 -2.5
-5.448667049407959 -0.885498046875 -2.5
-5.359745979309082 -1.3210644721984863 -2.5
-5.236064434051514 -1.7480615377426147 -2.5
-5.078422546386719 -2.1637158393859863 -2.5
-4.887856483459473 -2.5653467178344727 -2.5
-4.665575981140137 -2.9503417015075684 -2.5
-4.413046836853027 -3.3161864280700684 -2.5
-4.131889343261719 -3.6605420112609863 -2.5
-3.8239500522613525 -3.981152296066284 -2.5
-3.13580060005188 -4.54299783706665 -2.5
-2.760073184967041 -4.780595779418945 -2.5
-2.366445302963257 -4.987192153930664 -2.5
-1.5358006954193115 -5.302211761474609 -2.5
-1.1041747331619263 -5.40859842300415 -2.5
-0.22227539122104645 -5.515683650970459 -2.5
0.22227539122104645 -5.515683650970459 -2.5
1.5358104705810547 -5.302211761474609 -2.5
2.366455078125 -4.987192153930664 -2.5
3.135815382003784 -4.54299783706665 -2.5
3.491201162338257 -4.275942325592041 -2.5
3.8239598274230957 -3.981152296066284 -2.5
4.131899356842041 -3.6605467796325684 -2.5
4.413061618804932 -3.3161864280700684 -2.5
4.887866020202637 -2.5653467178344727 -2.5
5.236069202423096 -1.7480566501617432 -2.5
5.359760761260986 -1.3210644721984863 -2.5
-5.361269474029541 4.882812390860636e-06 -2.5
-5.343876838684082 -0.4314062297344208 -2.5
-3.713876962661743 -3.8665575981140137 -2.5
-3.390702962875366 -4.152865886688232 -2.5
-2.6806297302246094 -4.642992973327637 -2.5
-2.298330068588257 -4.843642234802246 -2.5
-1.491601586341858 -5.149594783782959 -2.5
-0.6462255716323853 -5.322182655334473 -2.5
-0.21587401628494263 -5.356923580169678 -2.5
1.0723974704742432 -5.252919673919678 -2.5
2.6806395053863525 -4.642992973327637 -2.5
3.713881731033325 -3.8665623664855957 -2.5
4.01296854019165 -3.555180549621582 -2.5
4.531293869018555 -2.865410089492798 -2.5
4.747168064117432 -2.491508722305298 -2.5
5.085361003875732 -1.6977392435073853 -2.5
5.205492973327637 -1.2830370664596558 -2.5
5.343881607055664 -0.4314062297344208 -2.5
