ply
format ascii 1.0
element vertex 752
property float x
property float y
property float z
end_header
16.0152645111084 -16.67367172241211 5.920999050140381
16.01233673095703 -16.670629501342773 5.647727966308594
16.009428024291992 -16.6676025390625 5.376033782958984
-8.131508827209473 -17.136816024780273 4.1913628578186035
16.006532669067383 -16.664579391479492 5.1058349609375
16.00365447998047 -16.661590576171875 4.837049961090088
-8.121962547302246 -17.116680145263672 3.7481138706207275
-15.197032928466797 -9.610029220581055 3.350545644760132
-15.974655151367188 -14.152318954467773 3.976900577545166
-15.514269828796387 -6.61001443862915 2.9494481086730957
16.00297737121582 -16.6608829498291 4.040435791015625
-8.107824325561523 -17.086889266967773 3.092266082763672
16.006181716918945 -16.664228439331055 3.777862548828125
-15.415842056274414 -11.584257125854492 2.9338035583496094
16.01258087158203 -16.670883178710938 3.25518798828125
-15.415842056274414 -11.584257125854492 2.497936964035034
-8.093891143798828 -17.057523727416992 2.445756435394287
16.01576042175293 -16.6741943359375 2.994945526123047
-8.089282035827637 -17.047826766967773 2.232048273086548
16.01893424987793 -16.677494049072266 2.735349655151367
-8.084696769714355 -17.038148880004883 2.0191404819488525
-8.080114364624023 -17.028520584106445 1.806978464126587
16.0252628326416 -16.684085845947266 2.2178170680999756
-8.066484451293945 -16.999784469604492 1.1744122505187988
16.03471565246582 -16.69392967224121 1.4447168111801147
-7.170617580413818 -24.75580596923828 1.3220858573913574
0.9982812404632568 -24.77200698852539 1.2717502117156982
3.009650707244873 -24.786693572998047 1.2808114290237427
-16.958776473999023 -24.568998336791992 1.1998690366744995
-8.057456016540527 -16.980756759643555 0.7554232478141785
16.04100227355957 -16.70047378540039 0.9306985139846802
-8.052956581115723 -16.971269607543945 0.5465850830078125
16.04414939880371 -16.703739166259766 0.6739129424095154
-8.048463821411133 -16.961801528930664 0.3381136953830719
-8.04397964477539 -16.952348709106445 0.12995849549770355
16.05042266845703 -16.710277557373047 0.16047362983226776
-8.039499282836914 -16.942909240722656 -0.07793334871530533
16.05356216430664 -16.71354866027832 -0.09630584716796875
9.900426864624023 -6.260653972625732 -0.04867721349000931
11.935722351074219 -6.264350414276123 -0.05601562559604645
9.843263626098633 -6.224511623382568 -0.17746520042419434
16.059850692749023 -16.7200927734375 -0.6102949380874634
8.915456771850586 -6.699526309967041 -0.2935720682144165
9.784831047058105 -6.187558650970459 -0.3047582805156708
11.794638633728027 -6.190297603607178 -0.35065045952796936
8.78176212310791 -6.599071979522705 -0.41102248430252075
11.722439765930176 -6.152411937713623 -0.4953620731830597
-8.021608352661133 -16.905210494995117 -0.9078854322433472
14.718210220336914 -15.323295593261719 -1.0308842658996582
8.667821884155273 -7.679028034210205 -0.5618574619293213
8.674638748168945 -6.518568992614746 -0.5264759659767151
-8.017143249511719 -16.895790100097656 -1.1152269840240479
17.06913948059082 -20.905902862548828 -1.6094508171081543
8.528769493103027 -7.555839538574219 -0.6794807314872742
-22.700294494628906 -17.05815315246582 -2.009298324584961
-14.060529708862305 -20.37017059326172 -1.7514736652374268
17.26454734802246 -21.14522361755371 -1.931667685508728
9.494885444641113 -9.885233879089355 -0.9699050784111023
9.617727279663086 -6.081884860992432 -0.8052262663841248
19.132410049438477 -6.387333869934082 -1.427301287651062
-19.854406356811523 -20.67061996459961 -2.347599983215332
-18.16657829284668 -22.250028610229492 -2.3527579307556152
-14.425089836120605 -24.984954833984375 -2.363067626953125
-8.008197784423828 -16.876953125 -1.530090570449829
-7.739912033081055 -20.408472061157227 -1.7878011465072632
-8.063041687011719 -27.836801528930664 -2.3737857341766357
-3.4986205101013184 -28.81375503540039 -2.3774189949035645
1.1690746545791626 -29.01028823852539 -2.378110647201538
3.49847149848938 -28.81258201599121 -2.37732195854187
4.248898983001709 -20.81254768371582 -1.7398812770843506
8.06258487701416 -27.835277557373047 -2.3736557960510254
5.868237018585205 -15.473280906677246 -1.3554730415344238
9.40045166015625 -9.786918640136719 -1.1115171909332275
8.276784896850586 -7.332592487335205 -0.9057136178016663
8.375700950622559 -6.293935298919678 -0.8581464886665344
9.59737491607666 -6.069023132324219 -0.9300912022590637
18.64885902404785 -6.225908279418945 -1.610370397567749
-26.86016273498535 4.882812390860636e-06 -2.5
-26.512325286865234 -4.308681488037109 -2.5
-26.07964515686035 -6.428071022033691 -2.5
-25.477848052978516 -8.505746841430664 -2.5
-24.710792541503906 -10.528271675109863 -2.5
-20.164152145385742 -15.152377128601074 -2.347599983215332
-18.879499435424805 -16.72579002380371 -2.347599983215332
-17.472423553466797 -18.19070816040039 -2.347599983215332
-15.952009201049805 -19.53767967224121 -2.347599983215332
-14.328166007995605 -20.7579288482666 -2.347599983215332
-8.003725051879883 -16.867523193359375 -1.7377135753631592
-8.984370231628418 -23.689828872680664 -2.3581650257110596
-5.07742166519165 -24.87081527709961 -2.3625900745391846
1.022922396659851 -25.383657455444336 -2.364492654800415
3.061286449432373 -25.211977005004883 -2.363830089569092
5.077316761016846 -24.87030792236328 -2.362541675567627
4.468132019042969 -15.42578125 -1.4947654008865356
5.831655025482178 -15.376835823059082 -1.5306615829467773
14.328161239624023 -20.757915496826172 -2.347599983215332
8.530644416809082 -10.448148727416992 -1.2554231882095337
9.346916198730469 -9.731185913085938 -1.2558547258377075
8.2849702835083 -6.225751876831055 -0.9645721316337585
11.524694442749023 -6.048627853393555 -1.2114156484603882
26.07964515686035 -6.428056716918945 -2.5
26.512319564819336 -4.308676719665527 -2.5
26.773054122924805 -2.1613476276397705 -2.5
-23.97760009765625 4.882812390860636e-06 -2.5
-23.899810791015625 -1.9293993711471558 -2.5
-23.667057037353516 -3.8462889194488525 -2.5
-22.743600845336914 -7.592934608459473 -2.5
-19.150421142578125 -14.390609741210938 -2.49761700630188
-15.597311973571777 -16.238510131835938 -2.347599983215332
-14.240070343017578 -17.440921783447266 -2.347599983215332
-12.790485382080078 -18.530214309692383 -2.347599983215332
-9.173747062683105 -15.889404296875 -1.9129867553710938
-6.27203369140625 -21.653549194335938 -2.3504903316497803
-4.512553691864014 -22.10393524169922 -2.352184295654297
-2.7206029891967773 -22.406200408935547 -2.353321075439453
2.720595598220825 -22.40610694885254 -2.353311777114868
4.468237400054932 -15.426142692565918 -1.6745057106018066
7.29678201675415 -15.377670288085938 -1.7746832370758057
11.257949829101562 -19.49933624267578 -2.347599983215332
12.790486335754395 -18.53020477294922 -2.347599983215332
9.296449661254883 -9.678637504577637 -1.3992382287979126
8.2138671875 -6.172319412231445 -1.071262001991272
17.383499145507812 -7.406415939331055 -1.970125436782837
18.33734893798828 -6.121909141540527 -2.0156610012054443
23.28081703186035 -5.738217830657959 -2.5
23.66706085205078 -3.8462743759155273 -2.5
-21.578693389892578 -1.7420165538787842 -2.5
-21.019817352294922 -5.18093729019165 -2.5
-20.534767150878906 -6.855507850646973 -2.5
-19.916540145874023 -8.485639572143555 -2.5
-19.169147491455078 -10.060742378234863 -2.5
-14.14532470703125 -14.726850509643555 -2.358071804046631
-12.857091903686523 -15.747084617614746 -2.347599983215332
-9.173747062683105 -15.889404296875 -2.1187584400177
-7.208827972412109 -19.00810432434082 -2.347599983215332
-5.65593957901001 -19.52654266357422 -2.347599983215332
-2.4504199028015137 -20.180952072143555 -2.347599983215332
2.4504125118255615 -20.180952072143555 -2.347599983215332
4.468342304229736 -15.426508903503418 -1.8546690940856934
10.164591789245605 -17.6055850982666 -2.347599983215332
7.690112113952637 -11.141044616699219 -1.563287377357483
9.244726181030273 -9.624794960021973 -1.541126012802124
7.8081955909729 -6.917460918426514 -1.2046384811401367
9.552624702453613 -6.040722370147705 -1.3051867485046387
11.483978271484375 -6.027255535125732 -1.4977154731750488
21.019813537597656 -5.180922508239746 -2.5
21.57868766784668 -1.7420116662979126 -2.5
-19.72797966003418 4.882812390860636e-06 -2.5
-19.472517013549805 -3.164599657058716 -2.5
-19.15472412109375 -4.721225261688232 -2.5
-18.149343490600586 -7.732705116271973 -2.5
-17.468263626098633 -9.168051719665527 -2.5
-7.545048713684082 -15.900874137878418 -2.2303555011749268
-6.569194316864014 -17.321517944335938 -2.347599983215332
0.7459374666213989 -18.510332107543945 -2.347599983215332
4.468434810638428 -15.426840782165527 -2.0353047847747803
5.822279930114746 -15.352099418640137 -2.0806832313537598
7.296789169311523 -15.377670288085938 -2.1569669246673584
9.262685775756836 -16.043432235717773 -2.347599983215332
11.48324203491211 -6.026865005493164 -1.6434434652328491
19.154720306396484 -4.721225261688232 -2.5
19.47250747680664 -3.1645946502685547 -2.5
-18.05730628967285 -1.457739233970642 -2.5
-17.589635848999023 -4.335473537445068 -2.5
-17.18373680114746 -5.736772537231445 -2.5
-15.311506271362305 -9.682416915893555 -2.5
-13.560065269470215 -12.01317310333252 -2.5
-7.292792797088623 -15.36922836303711 -2.347599983215332
-4.732961177825928 -16.34004783630371 -2.347599983215332
-0.40327635407447815 -10.007143020629883 -1.3820980787277222
0.6849877834320068 -16.997894287109375 -2.347599983215332
3.402775764465332 -16.667905807495117 -2.347599983215332
4.468527793884277 -15.427152633666992 -2.2164387702941895
5.822277545928955 -15.352099418640137 -2.265817165374756
8.505844116210938 -14.732558250427246 -2.347599983215332
7.197861194610596 -10.427909851074219 -1.7485662698745728
7.481076717376709 -7.788632869720459 -1.4903218746185303
7.464469909667969 -6.61294412612915 -1.3761855363845825
8.103520393371582 -6.089404106140137 -1.398822546005249
11.484106063842773 -6.027324199676514 -1.789807677268982
16.66639518737793 -7.100888729095459 -2.5
17.183734893798828 -5.736777305603027 -2.5
17.589632034301758 -4.335458755493164 -2.5
18.05730628967285 -1.4577441215515137 -2.5
-16.74376106262207 4.882812390860636e-06 -2.5
-16.689464569091797 -1.347314476966858 -2.5
-16.52692985534668 -2.6858935356140137 -2.5
-16.257219314575195 -4.007050514221191 -2.5
-15.882067680358887 -5.302206993103027 -2.5
-15.403913497924805 -6.56298303604126 -2.5
-14.825861930847168 -7.781215667724609 -2.5
-14.15166187286377 -8.948969841003418 -2.5
-11.598811149597168 -12.075634956359863 -2.5
-9.511549949645996 -13.779848098754883 -2.5
-6.980414867401123 -14.710912704467773 -2.4312100410461426
-4.374438285827637 -15.102290153503418 -2.347599983215332
-3.145026683807373 -15.405302047729492 -2.347599983215332
-0.4030737280845642 -10.002084732055664 -1.494616985321045
0.6331030130386353 -15.710297584533691 -2.347599983215332
1.8952001333236694 -15.60842227935791 -2.347599983215332
3.145012140274048 -15.40529727935791 -2.347599983215332
4.374426364898682 -15.102279663085938 -2.347599983215332
5.585700511932373 -14.72829532623291 -2.3519086837768555
8.358932495117188 -14.4780855178833 -2.496134042739868
7.139010906219482 -10.3426513671875 -1.8764086961746216
7.728141784667969 -9.465263366699219 -1.8244811296463013
7.416916370391846 -7.721840858459473 -1.598638892173767
15.403915405273438 -6.562993049621582 -2.5
15.88205623626709 -5.302221775054932 -2.5
16.25720977783203 -4.007050514221191 -2.5
16.52692985534668 -2.6858935356140137 -2.5
16.68946075439453 -1.3473095893859863 -2.5
-15.10891342163086 -3.7240233421325684 -2.5
-14.760246276855469 -4.927685260772705 -2.5
-14.315885543823242 -6.099423885345459 -2.5
-8.839709281921387 -12.806523323059082 -2.5
-5.507829666137695 -14.52294921875 -2.4953739643096924
-0.4028686285018921 -9.997050285339355 -1.607400894165039
0.5933056473731995 -14.722753524780273 -2.367236852645874
1.7873265743255615 -14.719980239868164 -2.382239818572998
3.003957509994507 -14.714340209960938 -2.4127233028411865
4.259538650512695 -14.705638885498047 -2.4596786499023438
5.507824420928955 -14.522944450378418 -2.4953737258911133
7.780544281005859 -13.476293563842773 -2.5
9.586130142211914 -6.061909198760986 -1.822170615196228
11.47742748260498 -6.023818016052246 -2.0824644565582275
15.359573364257812 -2.4961767196655273 -2.5
15.510613441467285 -1.2521483898162842 -2.5
-14.53105640411377 4.882812390860636e-06 -2.5
-14.342883110046387 -2.330947160720825 -2.5
-14.10881519317627 -3.4775242805480957 -2.5
-13.783239364624023 -4.601518630981445 -2.5
-12.281500816345215 -7.766347408294678 -2.5
-10.876657485961914 -9.635873794555664 -2.5
-9.19009780883789 -11.255829811096191 -2.5
-7.265534400939941 -12.584267616271973 -2.5
-6.229352951049805 -13.128090858459473 -2.5
-5.152782917022705 -13.586767196655273 -2.5
-1.7496386766433716 -14.40951156616211 -2.4972968101501465
-0.40395262837409973 -10.023935317993164 -1.7259719371795654
0.5841308236122131 -14.495131492614746 -2.495845317840576
2.9065845012664795 -14.237382888793945 -2.5
4.042792797088623 -13.9573335647583 -2.5
5.152775764465332 -13.586776733398438 -2.5
6.229348182678223 -13.128090858459473 -2.5
7.265524864196777 -12.584257125854492 -2.5
7.319850921630859 -7.620786190032959 -1.817962646484375
9.59545612335205 -6.067807674407959 -1.9532334804534912
13.783231735229492 -4.601513385772705 -2.5
-13.62567138671875 4.882812390860636e-06 -2.5
-13.581486701965332 -1.0964062213897705 -2.5
-13.449235916137695 -2.185717821121216 -2.5
-12.535344123840332 -5.340805530548096 -2.5
-10.198957443237305 -9.035492897033691 -2.5
-9.4388427734375 -9.826865196228027 -2.5
-8.617487907409668 -10.554516792297363 -2.5
-7.740265846252441 -11.213706016540527 -2.5
-6.812839031219482 -11.800180435180664 -2.5
-5.841220378875732 -12.3101167678833 -2.5
-4.831733226776123 -12.74022388458252 -2.5
-3.790905714035034 -13.087699890136719 -2.5
-2.7254858016967773 -13.350302696228027 -2.5
-0.4115917980670929 -10.213476181030273 -1.8754616975784302
0.5486596822738647 -13.614628791809082 -2.5
2.7254858016967773 -13.350302696228027 -2.5
3.790898323059082 -13.087699890136719 -2.5
5.84121561050415 -12.310121536254883 -2.5
7.094304084777832 -10.277871131896973 -2.291363477706909
7.697145938873291 -9.427294731140137 -2.233001470565796
11.602239608764648 -6.089325904846191 -2.4041244983673096
13.229729652404785 -3.2608447074890137 -2.5
13.581483840942383 -1.096411108970642 -2.5
-11.354601860046387 -5.95934534072876 -2.5
-10.83825397491455 -6.853686332702637 -2.5
-10.251618385314941 -7.703583717346191 -2.5
-9.598488807678223 -8.503515243530273 -2.5
-8.88311767578125 -9.248295783996582 -2.5
-7.284550666809082 -10.55349063873291 -2.5
-5.497314453125 -11.585355758666992 -2.5
-4.547258377075195 -11.990126609802246 -2.5
-2.565019369125366 -12.564291954040527 -2.5
-1.5457006692886353 -12.72994613647461 -2.5
-0.4163842797279358 -10.332436561584473 -2.015998125076294
2.565016984939575 -12.564291954040527 -2.5
3.567704916000366 -12.317148208618164 -2.5
4.547253131866455 -11.990126609802246 -2.5
5.497312068939209 -11.58535099029541 -2.5
7.284550666809082 -10.553485870361328 -2.5
8.009267807006836 -6.018574237823486 -1.9531729221343994
10.838249206542969 -6.853696346282959 -2.5
11.354597091674805 -5.95934534072876 -2.5
12.16350269317627 -4.060776233673096 -2.5
12.45081615447998 -3.068852424621582 -2.5
12.657384872436523 -2.0570311546325684 -2.5
12.781864166259766 -1.0318603515625 -2.5
-12.107511520385742 4.882812390860636e-06 -2.5
-12.068254470825195 -0.9742528796195984 -2.5
-11.755685806274414 -2.897524356842041 -2.5
-11.484420776367188 -3.834057569503784 -2.5
-11.138664245605469 -4.745741844177246 -2.5
-10.23315143585205 -6.471049785614014 -2.5
-9.679265022277832 -7.273496150970459 -2.5
-6.877849102020264 -9.964282035827637 -2.5
-4.293388366699219 -11.320727348327637 -2.5
2.421816349029541 -11.86281681060791 -2.5
3.368522882461548 -11.629477500915527 -2.5
5.190395355224609 -10.9385347366333 -2.5
6.053757190704346 -10.4854097366333 -2.5
6.877851486206055 -9.964286804199219 -2.5
7.657338619232178 -9.378535270690918 -2.5
7.285924911499023 -6.454770565032959 -2.0098891258239746
11.484414100646973 -3.834062337875366 -2.5
12.06824779510498 -0.9742480516433716 -2.5
-11.427346229553223 -0.9225097298622131 -2.5
-11.316052436828613 -1.8390429019927979 -2.5
-11.13137435913086 -2.743647336959839 -2.5
-10.874513626098633 -3.630439281463623 -2.5
-8.581311225891113 -7.602377891540527 -2.5
-7.250676155090332 -8.880468368530273 -2.5
-6.512585163116455 -9.435107231140137 -2.5
-4.914748191833496 -10.357617378234863 -2.5
-4.065373420715332 -10.719496726989746 -2.5
-2.293200731277466 -11.232827186584473 -2.5
-1.38189697265625 -11.380927085876465 -2.5
-0.41939452290534973 -10.40713882446289 -2.271265745162964
4.914751052856445 -10.357617378234863 -2.5
7.250678539276123 -8.880468368530273 -2.5
7.941742897033691 -8.268237113952637 -2.5
10.151318550109863 -5.327822208404541 -2.5
10.54711627960205 -4.493700981140137 -2.5
10.874499320983887 -3.630439281463623 -2.5
11.13137149810791 -2.743642568588257 -2.5
11.316041946411133 -1.8390380144119263 -2.5
-10.883708000183105 0.0 -2.5
-10.848410606384277 -0.8757763504981995 -2.5
-10.56744384765625 -2.6046435832977295 -2.5
-10.323586463928223 -3.4465184211730957 -2.5
-10.012784957885742 -4.266039848327637 -2.5
-9.198796272277832 -5.816962718963623 -2.5
-8.146564483642578 -7.217231273651123 -2.5
-7.539411544799805 -7.849340438842773 -2.5
-3.0280418395996094 -10.453993797302246 -2.5
-2.1770238876342773 -10.663744926452637 -2.5
2.177018880844116 -10.663740158081055 -2.5
3.0280346870422363 -10.453989028930664 -2.5
3.8594090938568115 -10.176430702209473 -2.5
4.665761470794678 -9.832876205444336 -2.5
7.5393967628479 -7.84935998916626 -2.5
8.146562576293945 -7.217226505279541 -2.5
8.009267807006836 -6.018574237823486 -2.3012771606445312
9.198793411254883 -5.816967487335205 -2.5
9.637036323547363 -5.057909965515137 -2.5
10.01278018951416 -4.266039848327637 -2.5
10.742758750915527 -1.74587881565094 -2.5
-10.356359481811523 0.0 -2.5
-10.322775840759277 -0.8333398103713989 -2.5
-10.222243309020996 -1.6612792015075684 -2.5
-9.823376655578613 -3.2795214653015137 -2.5
-9.527636528015137 -4.059345722198486 -2.5
-8.753087997436523 -5.535117149353027 -2.5
-8.279315948486328 -6.221498966217041 -2.5
-7.751842975616455 -6.867534160614014 -2.5
-7.174103736877441 -7.46902322769165 -2.5
-6.549829006195068 -8.022085189819336 -2.5
-5.178178787231445 -8.968867301940918 -2.5
-2.071540594100952 -10.14706039428711 -2.5
-0.41700926423072815 -10.3479585647583 -2.5
0.41700437664985657 -10.3479585647583 -2.5
2.8813159465789795 -9.947465896606445 -2.5
4.439684867858887 -9.356450080871582 -2.5
5.178175926208496 -8.968862533569336 -2.5
6.549821853637695 -8.022074699401855 -2.5
9.527631759643555 -4.059340953826904 -2.5
10.322772979736328 -0.8333398103713989 -2.5
-9.87530517578125 0.0 -2.5
-9.843278884887695 -0.7946337461471558 -2.5
-9.747419357299805 -1.5841162204742432 -2.5
-9.367082595825195 -3.127187490463257 -2.5
-8.744147300720215 -4.589282035827637 -2.5
-8.346506118774414 -5.278012752532959 -2.5
-6.245588302612305 -7.649457931518555 -2.5
-4.937655925750732 -8.552260398864746 -2.5
-4.233464241027832 -8.921845436096191 -2.5
-2.747487783432007 -9.485404968261719 -2.5
-1.1903369426727295 -9.803300857543945 -2.5
0.3976367115974426 -9.867294311523438 -2.5
1.190334439277649 -9.803296089172363 -2.5
2.7474780082702637 -9.485414505004883 -2.5
4.233461856842041 -8.921845436096191 -2.5
4.937648773193359 -8.552255630493164 -2.5
6.245585918426514 -7.649457931518555 -2.5
6.840856552124023 -7.122094631195068 -2.5
7.391765117645264 -6.548530101776123 -2.5
8.744142532348633 -4.589282035827637 -2.5
9.085075378417969 -3.87078595161438 -2.5
9.367082595825195 -3.127187490463257 -2.5
9.747416496276855 -1.5841113328933716 -2.5
-9.404010772705078 -0.75916987657547 -2.5
-9.312429428100586 -1.5134179592132568 -2.5
-9.160449028015137 -2.257861375808716 -2.5
-8.679640769958496 -3.6980419158935547 -2.5
-7.974032878875732 -5.042475700378418 -2.5
-6.535581111907959 -6.804252624511719 -2.5
-5.966867446899414 -7.308085918426514 -2.5
-4.717307090759277 -8.170599937438965 -2.5
-3.3455591201782227 -8.821503639221191 -2.5
-2.624872922897339 -9.062104225158691 -2.5
-1.8871630430221558 -9.24393081665039 -2.5
-0.37989500164985657 -9.426947593688965 -2.5
1.8871654272079468 -9.24393081665039 -2.5
4.044536113739014 -8.523695945739746 -2.5
5.966865062713623 -7.308080673217773 -2.5
7.061892032623291 -6.256298542022705 -2.5
7.54241943359375 -5.667763710021973 -2.5
7.974023342132568 -5.04248046875 -2.5
9.160444259643555 -2.2578516006469727 -2.5
-9.0 -0.7265576124191284 -2.5
-8.912353515625 -1.448403239250183 -2.5
-8.56460189819336 -2.8592822551727295 -2.5
-7.995031356811523 -4.196113109588623 -2.5
-5.710524559020996 -6.994121074676514 -2.5
-3.87078595161438 -8.15750503540039 -2.5
-3.201833486557007 -8.442523956298828 -2.5
-1.8060961961746216 -8.8468017578125 -2.5
0.36356687545776367 -9.021947860717773 -2.5
1.0883617401123047 -8.963441848754883 -2.5
1.8060888051986694 -8.8468017578125 -2.5
2.512099504470825 -8.672782897949219 -2.5
3.8707761764526367 -8.15750503540039 -2.5
4.514633655548096 -7.81957483291626 -2.5
5.129213809967041 -7.430942058563232 -2.5
6.758508205413818 -5.987514495849609 -2.5
7.218386173248291 -5.424257755279541 -2.5
7.995026588439941 -4.196113109588623 -2.5
-8.655160903930664 0.0 -2.5
-8.543068885803223 -1.3883788585662842 -2.5
-7.315251350402832 -4.62588357925415 -2.5
-6.919303894042969 -5.199516296386719 -2.5
-6.478478908538818 -5.739428520202637 -2.5
-3.710397958755493 -7.819501876831055 -2.5
-3.069164991378784 -8.092714309692383 -2.5
-2.408022403717041 -8.313432693481445 -2.5
0.34850096702575684 -8.648134231567383 -2.5
1.7312499284744263 -8.480234146118164 -2.5
2.408010244369507 -8.313427925109863 -2.5
3.069157600402832 -8.092695236206055 -2.5
3.710392951965332 -7.819501876831055 -2.5
5.473908424377441 -6.704316139221191 -2.5
5.995627403259277 -6.242118835449219 -2.5
7.962563514709473 -3.392524242401123 -2.5
8.209729194641113 -2.7408056259155273 -2.5
8.403644561767578 -2.0713231563568115 -2.5
-8.30868148803711 4.882812390860636e-06 -2.5
-8.201086044311523 -1.3328075408935547 -2.5
-7.881083965301514 -2.6310887336730957 -2.5
-7.643813133239746 -3.256723642349243 -2.5
-6.642316818237305 -4.991376876831055 -2.5
-5.254785060882568 -6.435952186584473 -2.5
-4.719870567321777 -6.837904930114746 -2.5
-4.154343128204346 -7.195527076721191 -2.5
-3.5618650913238525 -7.506474494934082 -2.5
-1.001503825187683 -8.248095512390137 -2.5
-0.3345629870891571 -8.3019380569458 -2.5
2.3116137981414795 -7.980629920959473 -2.5
2.946293830871582 -7.768744945526123 -2.5
3.5618650913238525 -7.506474494934082 -2.5
4.154335975646973 -7.195522308349609 -2.5
5.755615234375 -5.992236137390137 -2.5
7.356965065002441 -3.8612256050109863 -2.5
8.281730651855469 -0.6685693264007568 -2.5
-7.883388519287109 -1.2811815738677979 -2.5
-7.575788497924805 -2.529169797897339 -2.5
-7.071974754333496 -3.7116503715515137 -2.5
-6.750373363494873 -4.268681526184082 -2.5
-6.385002136230469 -4.798017501831055 -2.5
-5.051222801208496 -6.186630725860596 -2.5
-3.993412971496582 -6.916791915893555 -2.5
-2.832167863845825 -7.467807292938232 -2.5
-1.5975756645202637 -7.825409889221191 -2.5
-0.3215991258621216 -7.980336666107178 -2.5
0.9627001881599426 -7.928574085235596 -2.5
2.2220654487609863 -7.671479225158691 -2.5
2.832155704498291 -7.46780252456665 -2.5
4.537024021148682 -6.573007583618164 -2.5
5.53265380859375 -5.760107517242432 -2.5
5.97821044921875 -5.296230316162109 -2.5
6.384999752044678 -4.79800271987915 -2.5
7.071967601776123 -3.7116503715515137 -2.5
7.347704887390137 -3.130561351776123 -2.5
-7.686967372894287 4.882812390860636e-06 -2.5
-7.662035942077637 -0.6185449361801147 -2.5
-7.463593482971191 -1.8396142721176147 -2.5
-7.291367053985596 -2.434218645095825 -2.5
-7.071850299835205 -3.0130321979522705 -2.5
-6.496950626373291 -4.108422756195068 -2.5
-5.324948787689209 -5.54385232925415 -2.5
-4.366696834564209 -6.326244831085205 -2.5
-2.1386547088623047 -7.383466720581055 -2.5
-1.5375951528549194 -7.5316162109375 -2.5
0.3095166087150574 -7.680727481842041 -2.5
2.725830078125 -7.187421798706055 -2.5
3.295339345932007 -6.944794654846191 -2.5
4.366689205169678 -6.326240062713623 -2.5
5.324943542480469 -5.543862342834473 -2.5
5.7537841796875 -5.097397327423096 -2.5
6.145283222198486 -4.617880821228027 -2.5
6.496935844421387 -4.108422756195068 -2.5
7.071845531463623 -3.0130271911621094 -2.5
7.291362285614014 -2.434213876724243 -2.5
7.587421894073486 -1.233071208000183 -2.5
-7.382858753204346 -0.5960058569908142 -2.5
-7.310956954956055 -1.1881542205810547 -2.5
-7.191642761230469 -1.7725830078125 -2.5
-7.02569055557251 -2.345517635345459 -2.5
-6.558464050292969 -3.442148447036743 -2.5
-6.260217189788818 -3.9587206840515137 -2.5
-5.544126033782959 -4.911674499511719 -2.5
-3.703439950942993 -6.414535999298096 -2.5
-3.1752710342407227 -6.691742897033691 -2.5
-2.626520872116089 -6.925546646118164 -2.5
-2.060727596282959 -7.114443302154541 -2.5
-1.4815673828125 -7.257187366485596 -2.5
0.8927978277206421 -7.352860927581787 -2.5
1.4815624952316284 -7.257177352905273 -2.5
2.060717821121216 -7.114428520202637 -2.5
2.6265087127685547 -6.925546646118164 -2.5
4.207582950592041 -6.095736980438232 -2.5
4.684440612792969 -5.737402439117432 -2.5
5.130915641784668 -5.341855525970459 -2.5
5.921367168426514 -4.449618816375732 -2.5
6.260212421417236 -3.9587206840515137 -2.5
6.814172267913818 -2.9032373428344727 -2.5
7.025688171386719 -2.345522403717041 -2.5
7.191648006439209 -1.7725830078125 -2.5
7.310954570770264 -1.1881444454193115 -2.5
-7.121423244476318 -0.574902355670929 -2.5
-6.936977386474609 -1.709814429283142 -2.5
-6.038535118103027 -3.81853985786438 -2.5
-5.347805023193359 -4.737739086151123 -2.5
-4.949233055114746 -5.152690410614014 -2.5
-4.058591365814209 -5.879887580871582 -2.5
-3.0628318786621094 -6.454780101776123 -2.5
-2.533510684967041 -6.680302619934082 -2.5
-0.8611889481544495 -7.092494964599609 -2.5
1.4290990829467773 -7.000195026397705 -2.5
1.9877465963363647 -6.862499713897705 -2.5
3.0628294944763184 -6.454775333404541 -2.5
3.5722973346710205 -6.187397480010986 -2.5
4.058588981628418 -5.879872798919678 -2.5
4.518564224243164 -5.534228324890137 -2.5
4.949223518371582 -5.152695178985596 -2.5
5.347800254821777 -4.737734317779541 -2.5
6.038532733917236 -3.818535089492798 -2.5
6.936975002288818 -1.709814429283142 -2.5
7.052065372467041 -1.1460741758346558 -2.5
-6.898417949676514 0.0 -2.5
-6.697954177856445 -1.6509032249450684 -2.5
-6.346396446228027 -2.7039451599121094 -2.5
-6.108239650726318 -3.2058544158935547 -2.5
-5.830471038818359 -3.686962842941284 -2.5
-5.163535118103027 -4.57449197769165 -2.5
-4.778700828552246 -4.975151062011719 -2.5
-4.362868785858154 -5.343544960021973 -2.5
-3.918752431869507 -5.67727518081665 -2.5
-3.449208974838257 -5.974199295043945 -2.5
-2.9572949409484863 -6.232372760772705 -2.5
-2.4462132453918457 -6.450126647949219 -2.5
-1.9192602634429932 -6.626044750213623 -2.5
-1.3798632621765137 -6.758998870849609 -2.5
-0.8315111994743347 -6.848110198974609 -2.5
0.2777661085128784 -6.89281702041626 -2.5
0.8315087556838989 -6.848110198974609 -2.5
1.919252872467041 -6.626039981842041 -2.5
2.4462060928344727 -6.450121879577637 -2.5
3.4492063522338867 -5.974194049835205 -2.5
3.9187426567077637 -5.677270412445068 -2.5
4.362863540649414 -5.343539714813232 -2.5
4.778691291809082 -4.975146293640137 -2.5
5.514880180358887 -4.144160270690918 -2.5
5.830463886260986 -3.686962842941284 -2.5
6.876039981842041 -0.5550878643989563 -2.5
-6.666842937469482 4.882812390860636e-06 -2.5
-6.580512523651123 -1.0694384574890137 -2.5
-5.634746074676514 -3.5631980895996094 -2.5
-5.329760551452637 -4.005058288574219 -2.5
-4.9902024269104 -4.420932292938232 -2.5
-4.216413497924805 -5.164165019989014 -2.5
-3.333425283432007 -5.773652076721191 -2.5
-2.3640966415405273 -6.233598709106445 -2.5
-1.8548388481140137 -6.403617858886719 -2.5
-1.3335448503494263 -6.532109260559082 -2.5
0.26844480633735657 -6.661430358886719 -2.5
0.8035961985588074 -6.618227481842041 -2.5
3.7871947288513184 -5.486699104309082 -2.5
4.216408729553223 -5.164169788360596 -2.5
5.329755783081055 -4.005053520202637 -2.5
5.634748458862305 -3.5631933212280273 -2.5
5.903190612792969 -3.0982322692871094 -2.5
6.133354187011719 -2.6131787300109863 -2.5
6.58050012588501 -1.0694384574890137 -2.5
-6.427653789520264 -0.5188964605331421 -2.5
-5.932546138763428 -2.5276172161102295 -2.5
-5.709921836853027 -2.9967968463897705 -2.5
-5.155261039733887 -3.8739209175109863 -2.5
-4.826821327209473 -4.276186466217041 -2.5
-4.078366756439209 -4.995092868804932 -2.5
-2.7644505500793457 -5.825961589813232 -2.5
-1.289882779121399 -6.3182373046875 -2.5
-0.25966063141822815 -6.443334579467773 -2.5
1.2898730039596558 -6.318242073059082 -2.5
1.7940990924835205 -6.193959712982178 -2.5
2.286689519882202 -6.029506683349609 -2.5
2.7644481658935547 -5.82595682144165 -2.5
4.078359127044678 -4.995092868804932 -2.5
4.467072486877441 -4.650722503662109 -2.5
4.826813697814941 -4.276186466217041 -2.5
5.155256271362305 -3.8739209175109863 -2.5
5.450258731842041 -3.446537971496582 -2.5
5.709917068481445 -2.9967918395996094 -2.5
6.261178970336914 -1.543237328529358 -2.5
6.427651405334473 -0.5188915729522705 -2.5
-6.24242639541626 4.882812390860636e-06 -2.5
-6.061027526855469 -1.4939160346984863 -2.5
-5.921166896820068 -1.976772427558899 -2.5
-5.527390003204346 -2.900995969772339 -2.5
-4.672519207000732 -4.139487266540527 -2.5
-4.324282169342041 -4.502045631408691 -2.5
-3.947993040084839 -4.835414886474609 -2.5
-3.546098470687866 -5.137412071228027 -2.5
-1.2486498355865479 -6.116264343261719 -2.5
1.2486400604248047 -6.116259574890137 -2.5
3.121208429336548 -5.406088829040527 -2.5
3.546098470687866 -5.137407302856445 -2.5
4.324267387390137 -4.502040863037109 -2.5
4.990456581115723 -3.7500829696655273 -2.5
5.276027679443359 -3.336357355117798 -2.5
5.742895603179932 -2.4468114376068115 -2.5
5.921159744262695 -1.976772427558899 -2.5
6.061022758483887 -1.4939160346984863 -2.5
6.161577224731445 -1.0013574361801147 -2.5
-6.047377586364746 0.0 -2.5
-6.02777099609375 -0.4866113066673279 -2.5
-5.969067096710205 -0.9700683355331421 -2.5
-5.736156940460205 -1.9150097370147705 -2.5
-5.354689598083496 -2.810356378555298 -2.5
-5.111184120178223 -3.23211407661438 -2.5
-4.834531307220459 -3.6329100131988525 -2.5
-4.189167499542236 -4.361376762390137 -2.5
-3.824636220932007 -4.684330940246582 -2.5
-3.023693799972534 -5.237177848815918 -2.5
-1.2096362113952637 -5.925160884857178 -2.5
-0.7289379835128784 -6.003281116485596 -2.5
-0.2435034066438675 -6.042470455169678 -2.5
0.2435009777545929 -6.042470455169678 -2.5
0.7289282083511353 -6.003276348114014 -2.5
1.2096264362335205 -5.925156116485596 -2.5
2.144423723220825 -5.654394626617432 -2.5
2.592458486557007 -5.463496208190918 -2.5
3.435297727584839 -4.976889610290527 -2.5
4.189159870147705 -4.361376762390137 -2.5
4.526523113250732 -4.010151386260986 -2.5
4.834526062011719 -3.6329100131988525 -2.5
5.969062328338623 -0.9700634479522705 -2.5
6.027763366699219 -0.4866113066673279 -2.5
-5.843510627746582 -0.4717333912849426 -2.5
-5.786601543426514 -0.9404150247573853 -2.5
-5.692162990570068 -1.4029979705810547 -2.5
-5.560815334320068 -1.8564696311950684 -2.5
-4.388156414031982 -3.887568235397339 -2.5
-3.7077221870422363 -4.541132926940918 -2.5
-3.3302953243255615 -4.824755668640137 -2.5
-2.0788793563842773 -5.481547832489014 -2.5
-0.706652820110321 -5.819770336151123 -2.5
-0.23606444895267487 -5.857763767242432 -2.5
0.2360571175813675 -5.857758522033691 -2.5
0.7066454887390137 -5.819770336151123 -2.5
1.6310522556304932 -5.631044864654541 -2.5
2.078871965408325 -5.481547832489014 -2.5
2.5132153034210205 -5.296489238739014 -2.5
3.3302855491638184 -4.824750900268555 -2.5
4.061103343963623 -4.228061199188232 -2.5
4.3881516456604 -3.887568235397339 -2.5
4.686748027801514 -3.521860361099243 -2.5
5.393393516540527 -2.297905206680298 -2.5
5.560810565948486 -1.8564696311950684 -2.5
5.692160606384277 -1.4029881954193115 -2.5
5.786596775054932 -0.9404150247573853 -2.5
5.843508243560791 -0.4717333912849426 -2.5
-5.668583869934082 -0.4576171636581421 -2.5
-5.231947898864746 -2.229120969772339 -2.5
-5.035610198974609 -2.642895460128784 -2.5
-4.256799221038818 -3.771196126937866 -2.5
-3.9395434856414795 -4.101493835449219 -2.5
-3.596733331680298 -4.405195236206055 -2.5
-3.230600595474243 -4.680322170257568 -2.5
-2.843513011932373 -4.925107479095459 -2.5
-2.437985897064209 -5.137944221496582 -2.5
-2.016650438308716 -5.317465782165527 -2.5
-1.1375585794448853 -5.572094440460205 -2.5
-0.6855005025863647 -5.645556449890137 -2.5
-0.22899657487869263 -5.682412147521973 -2.5
0.22898681461811066 -5.682412147521973 -2.5
2.0166430473327637 -5.317461013793945 -2.5
3.5967283248901367 -4.405190467834473 -2.5
3.9395337104797363 -4.101493835449219 -2.5
4.256792068481445 -3.771186351776123 -2.5
4.54644775390625 -3.4164257049560547 -2.5
4.806611061096191 -3.0395214557647705 -2.5
5.035607814788818 -2.642885684967041 -2.5
5.231943130493164 -2.229120969772339 -2.5
5.521765232086182 -1.360986351966858 -2.5
5.6685791015625 -0.4576123058795929 -2.5
-5.520165920257568 0.0 -2.5
-5.502260684967041 -0.4441894292831421 -2.5
-5.359753131866455 -1.3210644721984863 -2.5
-5.078437328338623 -2.1637158393859863 -2.5
-4.66558837890625 -2.9503417015075684 -2.5
-4.413049221038818 -3.3161914348602295 -2.5
-4.131901741027832 -3.6605467796325684 -2.5
-3.4911985397338867 -4.275937557220459 -2.5
-3.135810375213623 -4.543002605438232 -2.5
-2.366450071334839 -4.987192153930664 -2.5
-1.9574804306030273 -5.161435604095459 -2.5
-1.5358104705810547 -5.302216529846191 -2.5
-0.6653857231140137 -5.479911804199219 -2.5
-0.22227782011032104 -5.515683650970459 -2.5
1.9574682712554932 -5.161435604095459 -2.5
2.366450071334839 -4.9871826171875 -2.5
3.4911961555480957 -4.275937557220459 -2.5
4.413046836853027 -3.3161816596984863 -2.5
4.665578365325928 -2.9503369331359863 -2.5
4.887854099273682 -2.5653417110443115 -2.5
5.236069202423096 -1.7480566501617432 -2.5
5.359748363494873 -1.3210595846176147 -2.5
5.502255916595459 -0.4441894292831421 -2.5
-5.343886375427246 -0.4314013719558716 -2.5
-5.291842937469482 -0.8600146174430847 -2.5
-5.205478191375732 -1.2830370664596558 -2.5
-4.932258129119873 -2.101435422897339 -2.5
-4.531291484832764 -2.865410089492798 -2.5
-4.012966156005859 -3.555180549621582 -2.5
-3.7138867378234863 -3.8665575981140137 -2.5
-3.0455541610717773 -4.4122314453125 -2.5
-2.298337459564209 -4.843642234802246 -2.5
-1.9011352062225342 -5.012870788574219 -2.5
-0.6462329030036926 -5.322177410125732 -2.5
-0.21588134765625 -5.356918811798096 -2.5
1.901125431060791 -5.012866020202637 -2.5
2.6806323528289795 -4.642997741699219 -2.5
3.045544385910034 -4.4122314453125 -2.5
3.713876962661743 -3.8665525913238525 -2.5
5.205478191375732 -1.2830321788787842 -2.5
