ply
format ascii 1.0
element vertex 714
property float x
property float y
property float z
end_header
20.41985321044922 -15.344531059265137 1.3102481365203857
18.43120765686035 -16.32862663269043 0.9896764755249023
20.352523803710938 -15.293930053710938 1.0232226848602295
18.390209197998047 -16.292314529418945 0.7148849368095398
18.39021110534668 -16.292308807373047 0.4424697756767273
19.447147369384766 -17.22867202758789 -0.10796844214200974
-14.411526679992676 -6.140175819396973 -0.41237151622772217
-13.752419471740723 -7.217826843261719 -0.4088543653488159
19.590383529663086 -17.355566024780273 -0.6889746189117432
-13.712053298950195 -7.196645259857178 -0.5794395208358765
19.590383529663086 -17.355566024780273 -0.97930508852005
-13.696354866027832 -7.188403129577637 -0.7505022883415222
-12.441728591918945 -15.23836898803711 -0.9544937014579773
14.724825859069824 -13.045058250427246 -0.9544808864593506
-18.055265426635742 -6.027743816375732 -1.1351115703582764
-14.245418548583984 -6.069399356842041 -0.9233911037445068
-20.587448120117188 -15.470458984375 -1.5356926918029785
14.595687866210938 -12.930648803710938 -1.1628286838531494
-15.354965209960938 -9.709901809692383 -1.2855663299560547
14.469474792480469 -12.81883716583252 -1.3679019212722778
-17.9478702545166 -5.991884708404541 -1.5498385429382324
-14.152715682983398 -6.02990198135376 -1.260054111480713
-13.659793853759766 -7.169213771820068 -1.2635835409164429
-15.262072563171387 -9.651171684265137 -1.4790613651275635
-21.453304290771484 -19.0059814453125 -2.347599983215332
-6.175145149230957 -13.013856887817383 -1.1798553466796875
-5.325192928314209 -14.041377067565918 -1.2300370931625366
-8.062499046325684 -27.834945678710938 -2.373628616333008
-2.45878267288208 -20.24989128112793 -1.670815110206604
-0.6379177570343018 -15.829887390136719 -1.2976510524749756
1.1689321994781494 -29.006723403930664 -2.3778183460235596
3.498128652572632 -28.809593200683594 -2.3770692348480225
14.421875 -24.97941780090332 -2.3625407218933105
18.162296295166016 -22.244775772094727 -2.3521997928619385
21.837438583374023 -13.80916976928711 -2.116288661956787
-26.07964515686035 -6.428075790405273 -2.5
-17.97661590576172 -6.001484394073486 -1.7639459371566772
-13.663033485412598 -7.170912742614746 -1.4361871480941772
-12.474565505981445 -15.27858829498291 -1.8358359336853027
-10.970035552978516 -15.892850875854492 -1.7973870038986206
-7.056437969207764 -24.36164093017578 -2.360654592514038
-5.077287197113037 -24.870161056518555 -2.362527370452881
-0.6379513144493103 -15.830727577209473 -1.4746379852294922
1.0228649377822876 -25.38193702697754 -2.3643338680267334
10.559622764587402 -18.289804458618164 -1.9656658172607422
12.749937057495117 -13.274101257324219 -1.7130862474441528
22.701932907104492 -14.355839729309082 -2.5
23.783519744873047 -12.482528686523438 -2.5
24.710798263549805 -10.528271675109863 -2.5
25.47783088684082 -8.505751609802246 -2.5
26.77305030822754 -2.1613476276397705 -2.5
-23.97759437561035 -4.882812390860636e-06 -2.5
-23.667091369628906 -3.8462939262390137 -2.5
-17.989572525024414 -6.005810260772705 -1.9774330854415894
-14.125370025634766 -6.018251895904541 -1.6008715629577637
-16.853391647338867 -14.930805206298828 -2.347599983215332
-12.474563598632812 -15.27858829498291 -2.056539297103882
-10.985796928405762 -15.91567325592041 -2.01636004447937
-7.396184921264648 -12.810556411743164 -1.5423121452331543
-3.7836287021636963 -9.976601600646973 -1.112493872642517
-6.272167682647705 -21.654027938842773 -2.3505406379699707
-4.512587070465088 -22.104101181030273 -2.3521978855133057
6.271981239318848 -21.65336799621582 -2.3504703044891357
7.986417293548584 -21.0584659576416 -2.3482367992401123
9.23159408569336 -15.98958969116211 -1.9250441789627075
14.240091323852539 -17.440942764282227 -2.347599983215332
14.278660774230957 -12.649789810180664 -1.9889501333236694
21.23108673095703 -11.142919540405273 -2.5
22.058868408203125 -9.39840316772461 -2.5
23.280847549438477 -5.738227367401123 -2.5
-21.648889541625977 0.0 -2.5
-21.57868766784668 -1.7420214414596558 -2.5
-21.36854362487793 -3.4727439880371094 -2.5
-21.01982879638672 -5.18093729019165 -2.5
-14.127522468566895 -6.019169807434082 -1.7733410596847534
-13.66869068145752 -7.173881530761719 -1.7826415300369263
-7.310076713562012 -6.476166725158691 -1.1277903318405151
-6.515945911407471 -6.783823013305664 -1.0862281322479248
-12.499542236328125 -15.309179306030273 -2.282315731048584
-7.347306728363037 -12.725903511047363 -1.6969234943389893
-4.656439304351807 -9.813251495361328 -1.254332423210144
-3.7524831295013428 -9.894487380981445 -1.2220196723937988
-3.0529274940490723 -10.539936065673828 -1.2671737670898438
-4.066359043121338 -19.9183349609375 -2.347599983215332
-2.4504127502441406 -20.18095588684082 -2.347599983215332
-0.6379879713058472 -15.831640243530273 -1.8297141790390015
4.066366672515869 -19.9183292388916 -2.347599983215332
5.6559367179870605 -19.52654266357422 -2.347599983215332
12.857094764709473 -15.747079849243164 -2.347599983215332
12.657398223876953 -13.17775821685791 -2.1100292205810547
21.368558883666992 -3.47271466255188 -2.5
21.578693389892578 -1.7420116662979126 -2.5
-19.66400909423828 -1.5874462127685547 -2.5
-19.472515106201172 -3.164599657058716 -2.5
-19.15472412109375 -4.721230506896973 -2.5
-18.349899291992188 -6.126103401184082 -2.451528310775757
-14.129687309265137 -6.020092487335205 -1.94630765914917
-15.230022430419922 -9.630898475646973 -2.2835135459899902
-15.771390914916992 -11.851435661315918 -2.5
-7.271708965301514 -6.442172527313232 -1.2311056852340698
-6.25752067565918 -6.5147705078125 -1.1447187662124634
-6.092823505401611 -7.462372779846191 -1.2208237648010254
-3.705550193786621 -18.150985717773438 -2.347599983215332
0.7459414601325989 -18.51034164428711 -2.347599983215332
3.7055561542510986 -18.150981903076172 -2.347599983215332
9.188922882080078 -15.915688514709473 -2.3289053440093994
10.523611068725586 -15.24608325958252 -2.347599983215332
12.03996467590332 -14.746288299560547 -2.4124577045440674
12.675490379333496 -13.196596145629883 -2.3187925815582275
14.766606330871582 -13.082070350646973 -2.5
15.771397590637207 -11.85142993927002 -2.5
16.67389488220215 -10.543940544128418 -2.5
18.149341583251953 -7.732705116271973 -2.5
19.154722213745117 -4.721230506896973 -2.5
19.472509384155273 -3.164604425430298 -2.5
-18.05731201171875 -1.4577441215515137 -2.5
-14.583088874816895 -7.653798580169678 -2.27278733253479
-7.22760009765625 -6.403095722198486 -1.3325152397155762
-5.999638557434082 -7.348237037658691 -1.3091175556182861
-6.792569637298584 -9.840737342834473 -1.6501083374023438
-3.6856026649475098 -9.7181396484375 -1.4343005418777466
-0.6380337476730347 -15.8326997756958 -2.186676025390625
2.050539493560791 -16.887664794921875 -2.347599983215332
8.508444786071777 -14.73702621459961 -2.348311424255371
10.159868240356445 -14.719111442565918 -2.468121290206909
13.560062408447266 -12.013163566589355 -2.5
16.666399002075195 -7.100888729095459 -2.5
17.589632034301758 -4.335468769073486 -2.5
18.057310104370117 -1.457739233970642 -2.5
-16.689464569091797 -1.3473193645477295 -2.5
-14.578033447265625 -6.211118221282959 -2.3659627437591553
-14.151652336120605 -8.948979377746582 -2.5
-8.321041107177734 -6.252851486206055 -1.5540939569473267
-7.180939674377441 -6.361767292022705 -1.4324196577072144
-6.157264232635498 -6.410385608673096 -1.3271325826644897
-6.657106876373291 -9.644482612609863 -1.7497448921203613
-4.560206413269043 -9.610444068908691 -1.5882760286331177
-3.6535756587982178 -9.633695602416992 -1.538369059562683
-2.8154847621917725 -9.720175743103027 -1.510968804359436
-0.6331002712249756 -15.710311889648438 -2.347599983215332
1.895207166671753 -15.608427047729492 -2.347599983215332
4.374434471130371 -15.10228443145752 -2.347599983215332
5.584536075592041 -14.72520923614502 -2.351414918899536
8.359151840209961 -14.478471755981445 -2.496199369430542
9.511539459228516 -13.7798433303833 -2.5
10.589513778686523 -12.969794273376465 -2.5
13.385677337646484 -10.058686256408691 -2.5
14.151657104492188 -8.948965072631836 -2.5
15.882052421569824 -5.302211761474609 -2.5
16.257213592529297 -4.007055759429932 -2.5
16.68946075439453 -1.3473095893859863 -2.5
-15.561088562011719 -4.882812390860636e-06 -2.5
-15.359577178955078 -2.4961814880371094 -2.5
-15.108912467956543 -3.7240283489227295 -2.5
-14.31588363647461 -6.099428653717041 -2.5
-13.152070999145508 -8.316879272460938 -2.5
-7.114112377166748 -6.302563190460205 -1.526943325996399
-5.837220191955566 -7.149306297302246 -1.482802391052246
-3.6431503295898438 -9.606205940246582 -1.6505647897720337
-2.8029165267944336 -9.67678165435791 -1.6185479164123535
-1.786865472793579 -14.716171264648438 -2.381622552871704
-0.5933065414428711 -14.722831726074219 -2.3672478199005127
0.5934268236160278 -14.725605010986328 -2.3676950931549072
1.7877593040466309 -14.72350025177002 -2.382807493209839
4.259488105773926 -14.705458641052246 -2.459646224975586
5.5077104568481445 -14.522645950317383 -2.495321035385132
7.780548095703125 -13.476303100585938 -2.5
8.83970832824707 -12.806523323059082 -2.5
10.779544830322266 -11.222700119018555 -2.5
13.152077674865723 -8.316879272460938 -2.5
14.315884590148926 -6.099413871765137 -2.5
14.760259628295898 -4.927695274353027 -2.5
15.108909606933594 -3.7240185737609863 -2.5
15.359576225280762 -2.4961767196655273 -2.5
-14.342879295349121 -2.3309521675109863 -2.5
-7.001803874969482 -6.203061580657959 -1.6093652248382568
-6.061705112457275 -6.310903072357178 -1.505487322807312
-5.786037445068359 -7.086616039276123 -1.573987364768982
-6.616750240325928 -9.586020469665527 -2.0039639472961426
-4.545605182647705 -9.579672813415527 -1.8242686986923218
-3.63642954826355 -9.588476181030273 -1.7643036842346191
-2.9065890312194824 -14.237397193908691 -2.5
-0.5841317772865295 -14.495156288146973 -2.495846748352051
0.5841488242149353 -14.495400428771973 -2.4958901405334473
1.7496660947799683 -14.409838676452637 -2.4973528385162354
4.042796611785889 -13.957338333129883 -2.5
5.152780532836914 -13.586762428283691 -2.5
6.22935152053833 -13.128090858459473 -2.5
7.265531063079834 -12.58426284790039 -2.5
9.190099716186523 -11.255829811096191 -2.5
11.616714477539062 -8.729423522949219 -2.5
13.368273735046387 -5.695693016052246 -2.5
13.783233642578125 -4.601523399353027 -2.5
14.108805656433105 -3.4775195121765137 -2.5
14.342879295349121 -2.3309619426727295 -2.5
-13.581487655639648 -1.0964159965515137 -2.5
-13.449223518371582 -2.185722589492798 -2.5
-13.22973346710205 -3.2608494758605957 -2.5
-12.064934730529785 -6.332172870635986 -2.5
-8.134344100952148 -6.112558364868164 -1.8668830394744873
-6.003516674041748 -6.250327110290527 -1.590110421180725
-6.633494853973389 -9.610278129577637 -2.142528533935547
-5.537564754486084 -9.591337203979492 -2.0320329666137695
-4.543457984924316 -9.575146675109863 -1.9445672035217285
-2.7920901775360107 -9.639409065246582 -1.8413094282150269
-1.6423922777175903 -13.526323318481445 -2.5
-0.5486465096473694 -13.614619255065918 -2.5
0.5486508011817932 -13.614628791809082 -2.5
1.642395257949829 -13.526323318481445 -2.5
2.7254912853240967 -13.35030746459961 -2.5
3.7909040451049805 -13.0877046585083 -2.5
5.841221809387207 -12.310121536254883 -2.5
6.812835693359375 -11.800180435180664 -2.5
7.740270137786865 -11.213706016540527 -2.5
8.617493629455566 -10.554511070251465 -2.5
10.892945289611816 -8.185517311096191 -2.5
11.516280174255371 -7.282514572143555 -2.5
12.53538703918457 -5.340810298919678 -2.5
13.229732513427734 -3.2608447074890137 -2.5
13.449222564697266 -2.185722589492798 -2.5
13.581488609313965 -1.096411108970642 -2.5
-12.823451042175293 -9.765624781721272e-06 -2.5
-12.163508415222168 -4.060771465301514 -2.5
-11.797310829162598 -5.026362419128418 -2.5
-11.35460090637207 -5.959355354309082 -2.5
-10.838244438171387 -6.853701114654541 -2.5
-5.955937385559082 -6.200786113739014 -1.6761956214904785
-6.634804725646973 -9.612173080444336 -2.2770111560821533
-5.534871578216553 -9.586674690246582 -2.158104658126831
-2.565019130706787 -12.564291954040527 -2.5
-1.5456948280334473 -12.729950904846191 -2.5
0.5163455009460449 -12.813051223754883 -2.5
2.5650243759155273 -12.56429672241211 -2.5
3.5677123069763184 -12.317157745361328 -2.5
4.5472564697265625 -11.99013614654541 -2.5
5.497313499450684 -11.585355758666992 -2.5
6.411726951599121 -11.10543441772461 -2.5
7.284548759460449 -10.55349063873291 -2.5
8.883109092712402 -9.24831485748291 -2.5
10.838249206542969 -6.853696346282959 -2.5
11.35460090637207 -5.959364891052246 -2.5
11.797311782836914 -5.0263671875 -2.5
12.163508415222168 -4.060781002044678 -2.5
12.450820922851562 -3.068857431411743 -2.5
-11.484414100646973 -3.8340673446655273 -2.5
-10.720672607421875 -5.626645565032959 -2.5
-10.233147621154785 -6.4710693359375 -2.5
-5.691626071929932 -6.970986366271973 -1.8582261800765991
-6.87785005569458 -9.964296340942383 -2.5
-2.790095567703247 -9.632513999938965 -2.0707101821899414
-2.421814203262329 -11.862832069396973 -2.5
2.4218151569366455 -11.86282730102539 -2.5
3.3685269355773926 -11.62948226928711 -2.5
6.0537590980529785 -10.4854097366333 -2.5
6.877853870391846 -9.9642915725708 -2.5
8.387178421020508 -8.731977462768555 -2.5
9.679264068603516 -7.273496150970459 -2.5
10.720673561096191 -5.626640319824219 -2.5
11.484416007995605 -3.8340673446655273 -2.5
11.755690574645996 -2.89751935005188 -2.5
-11.464516639709473 -4.882812390860636e-06 -2.5
-11.31605339050293 -1.8390429019927979 -2.5
-11.131378173828125 -2.743647336959839 -2.5
-10.874512672424316 -3.6304540634155273 -2.5
-9.689693450927734 -6.127407073974609 -2.5
-8.12447452545166 -6.105146408081055 -2.2161142826080322
-5.900794506072998 -6.143378734588623 -1.8575224876403809
-5.633074760437012 -6.899277210235596 -1.9422587156295776
-6.51258659362793 -9.435111999511719 -2.5
-5.732254505157471 -9.928564071655273 -2.5
-4.914745807647705 -10.357626914978027 -2.5
-3.6364283561706543 -9.588480949401855 -2.2362213134765625
-2.7907400131225586 -9.634745597839355 -2.1873528957366943
-2.293199062347412 -11.232827186584473 -2.5
0.4616299271583557 -11.455219268798828 -2.5
1.3818966150283813 -11.3809175491333 -2.5
4.065372943878174 -10.71950626373291 -2.5
7.250678539276123 -8.880477905273438 -2.5
8.58131217956543 -7.602387428283691 -2.5
9.165224075317383 -6.887221336364746 -2.5
9.689695358276367 -6.127402305603027 -2.5
10.151327133178711 -5.327826976776123 -2.5
-10.883707046508789 0.0 -2.5
-10.567437171936035 -2.6046533584594727 -2.5
-9.198800086975098 -5.816982269287109 -2.5
-5.863224983215332 -6.104267597198486 -1.9441922903060913
-5.615119457244873 -6.877285003662109 -2.0393879413604736
-6.182647705078125 -8.957114219665527 -2.5
-5.441854000091553 -9.425565719604492 -2.5
-4.665757179260254 -9.8328857421875 -2.5
-0.438240647315979 -10.874882698059082 -2.5
1.3118890523910522 -10.804349899291992 -2.5
4.665757656097412 -9.8328857421875 -2.5
6.8833465576171875 -8.430571556091309 -2.5
7.539406776428223 -7.849365234375 -2.5
9.198795318603516 -5.816977500915527 -2.5
10.01278305053711 -4.266049861907959 -2.5
10.567439079284668 -2.6046483516693115 -2.5
10.848406791687012 -0.8757763504981995 -2.5
-10.322772979736328 -0.8333495855331421 -2.5
-9.52763557434082 -4.059350490570068 -2.5
-8.753087997436523 -5.535121917724609 -2.5
-6.894091606140137 -6.107636451721191 -2.223371982574463
-5.611374378204346 -6.872694969177246 -2.141803741455078
-4.439686298370361 -9.356454849243164 -2.5
-2.881319761276245 -9.947465896606445 -2.5
-1.248321771621704 -10.28084945678711 -2.5
-0.41700589656829834 -10.347949028015137 -2.5
2.881321668624878 -9.947465896606445 -2.5
4.439690589904785 -9.356454849243164 -2.5
5.178179740905762 -8.9688720703125 -2.5
5.883080959320068 -8.523115158081055 -2.5
7.751842975616455 -6.867538928985596 -2.5
8.75308609008789 -5.535126686096191 -2.5
9.527636528015137 -4.059345722198486 -2.5
10.055416107177734 -2.478447198867798 -2.5
-9.843279838562012 -0.7946386337280273 -2.5
-9.747418403625488 -1.5841162204742432 -2.5
-9.367083549499512 -3.127202033996582 -2.5
-8.346497535705566 -5.278017520904541 -2.5
-5.620954513549805 -6.88442850112915 -2.2499709129333496
-4.937647819519043 -8.552265167236328 -2.5
-4.233463287353516 -8.921850204467773 -2.5
-1.1903365850448608 -9.803305625915527 -2.5
4.937653064727783 -8.552260398864746 -2.5
6.245588302612305 -7.649457931518555 -2.5
7.894739627838135 -5.932509422302246 -2.5
8.346506118774414 -5.278022289276123 -2.5
8.744146347045898 -4.589282035827637 -2.5
9.085074424743652 -3.870781183242798 -2.5
9.843279838562012 -0.7946337461471558 -2.5
-9.404008865356445 -0.7591796517372131 -2.5
-9.160446166992188 -2.2578563690185547 -2.5
-8.679640769958496 -3.698051691055298 -2.5
-8.353926658630371 -4.384477615356445 -2.5
-7.97402811050415 -5.04248046875 -2.5
-7.542426586151123 -5.667768478393555 -2.5
-7.061899185180664 -6.256303787231445 -2.5
-5.966866493225098 -7.308095455169678 -2.5
-5.359464168548584 -7.76452112197876 -2.5
-4.0445404052734375 -8.523691177368164 -2.5
-2.6248714923858643 -9.062104225158691 -2.5
-1.1372170448303223 -9.36581039428711 -2.5
0.379891037940979 -9.426947593688965 -2.5
1.88716459274292 -9.243940353393555 -2.5
2.6248741149902344 -9.062108993530273 -2.5
3.3455560207366943 -8.821513175964355 -2.5
4.044541358947754 -8.523700714111328 -2.5
6.535575866699219 -6.804267406463623 -2.5
7.061899185180664 -6.256293773651123 -2.5
7.974029541015625 -5.042475700378418 -2.5
8.353926658630371 -4.384477615356445 -2.5
8.67963981628418 -3.6980466842651367 -2.5
8.94906234741211 -2.9876365661621094 -2.5
9.160446166992188 -2.2578563690185547 -2.5
9.312427520751953 -1.513427734375 -2.5
9.404007911682129 -0.7591747641563416 -2.5
-8.912353515625 -1.4484130144119263 -2.5
-8.766905784606934 -2.1608641147613525 -2.5
-8.306751251220703 -3.539174795150757 -2.5
-7.995028018951416 -4.196117877960205 -2.5
-7.21839714050293 -5.424277305603027 -2.5
-6.758508205413818 -5.987524509429932 -2.5
-5.863224983215332 -6.104267597198486 -2.3434906005859375
-5.710521221160889 -6.994130611419678 -2.5
-5.129218578338623 -7.430952072143555 -2.5
-4.5146403312683105 -7.819589614868164 -2.5
-3.870779037475586 -8.157500267028809 -2.5
-3.2018258571624756 -8.442514419555664 -2.5
-2.5121054649353027 -8.672782897949219 -2.5
-1.088358998298645 -8.963452339172363 -2.5
-0.3635696470737457 -9.021952629089355 -2.5
0.3635726869106293 -9.021952629089355 -2.5
1.0883632898330688 -8.963441848754883 -2.5
1.8060888051986694 -8.8468017578125 -2.5
2.5121045112609863 -8.6727876663208 -2.5
5.129214763641357 -7.430952072143555 -2.5
5.710524559020996 -6.994121074676514 -2.5
6.758510589599609 -5.987524509429932 -2.5
7.218390941619873 -5.424272537231445 -2.5
7.631453514099121 -4.825849533081055 -2.5
8.76690673828125 -2.1608543395996094 -2.5
-8.543070793151855 -1.388393521308899 -2.5
-8.40364933013916 -2.0713231563568115 -2.5
-8.20972728729248 -2.7408201694488525 -2.5
-7.663762092590332 -4.022255897521973 -2.5
-7.315248966217041 -4.625888347625732 -2.5
-5.988577842712402 -6.23477029800415 -2.4970579147338867
-5.473908424377441 -6.704330921173096 -2.5
-4.916688442230225 -7.123051643371582 -2.5
-4.327577114105225 -7.495580673217773 -2.5
-3.7103970050811768 -7.819501876831055 -2.5
-3.069159746170044 -8.0927095413208 -2.5
-2.408015489578247 -8.313427925109863 -2.5
-1.7312545776367188 -8.480238914489746 -2.5
-1.0432602167129517 -8.592045783996582 -2.5
-0.34850555658340454 -8.648134231567383 -2.5
1.7312536239624023 -8.480243682861328 -2.5
2.408017158508301 -8.313427925109863 -2.5
3.069159507751465 -8.092714309692383 -2.5
3.7103984355926514 -7.819506645202637 -2.5
4.327578544616699 -7.495585918426514 -2.5
5.473912239074707 -6.704320907592773 -2.5
5.995633602142334 -6.242118835449219 -2.5
6.919300556182861 -5.199516296386719 -2.5
7.663759708404541 -4.022250652313232 -2.5
7.962564468383789 -3.392529249191284 -2.5
8.209729194641113 -2.7408103942871094 -2.5
-8.308680534362793 0.0 -2.5
-8.28173542022705 -0.6685742139816284 -2.5
-8.201082229614258 -1.3328173160552979 -2.5
-7.881086349487305 -2.631093740463257 -2.5
-7.356969833374023 -3.8612401485443115 -2.5
-7.022409439086914 -4.440717697143555 -2.5
-6.219134330749512 -5.509677410125732 -2.5
-5.755624771118164 -5.992236137390137 -2.5
-5.254781246185303 -6.435946941375732 -2.5
-4.719867706298828 -6.837904930114746 -2.5
-4.154337406158447 -7.195527076721191 -2.5
-2.9462978839874268 -7.768749713897705 -2.5
-2.311619520187378 -7.980634689331055 -2.5
-1.6619497537612915 -8.14077091217041 -2.5
1.6619521379470825 -8.140756607055664 -2.5
3.5618650913238525 -7.506479263305664 -2.5
4.154341220855713 -7.195522308349609 -2.5
4.7198686599731445 -6.837914943695068 -2.5
5.254785537719727 -6.435946941375732 -2.5
6.21913480758667 -5.509677410125732 -2.5
7.022410869598389 -4.440712928771973 -2.5
7.356969833374023 -3.8612401485443115 -2.5
7.64381217956543 -3.256723642349243 -2.5
7.88108491897583 -2.6310887336730957 -2.5
8.201080322265625 -1.3328075408935547 -2.5
-7.960914134979248 -0.6426708698272705 -2.5
-7.347704887390137 -3.130571126937866 -2.5
-6.750371932983398 -4.268686294555664 -2.5
-3.4238839149475098 -7.21569299697876 -2.5
-2.832162618637085 -7.46780252456665 -2.5
-1.5975680351257324 -7.825409889221191 -2.5
-0.9627047777175903 -7.928578853607178 -2.5
-0.32159513235092163 -7.980336666107178 -2.5
0.9627062678337097 -7.928578853607178 -2.5
1.597570776939392 -7.825409889221191 -2.5
2.222071409225464 -7.671479225158691 -2.5
3.4238879680633545 -7.21569299697876 -2.5
5.051223278045654 -6.186625957489014 -2.5
5.978218078613281 -5.296245098114014 -2.5
6.385000705718994 -4.798017501831055 -2.5
6.750373840332031 -4.268686294555664 -2.5
7.071971893310547 -3.711660146713257 -2.5
7.347704887390137 -3.130561351776123 -2.5
7.754734992980957 -1.911376953125 -2.5
7.883384704589844 -1.2811815738677979 -2.5
7.960914134979248 -0.6426757574081421 -2.5
-7.463592529296875 -1.8396190404891968 -2.5
-7.291364669799805 -2.4342236518859863 -2.5
-6.806468486785889 -3.572319269180298 -2.5
-6.496944427490234 -4.10842752456665 -2.5
-6.145288944244385 -4.617885589599609 -2.5
-5.753774166107178 -5.097402095794678 -2.5
-4.861581802368164 -5.954365253448486 -2.5
-3.8434834480285645 -6.657109260559082 -2.5
-3.295341968536377 -6.944789886474609 -2.5
-0.3095223903656006 -7.680737018585205 -2.5
0.3095230162143707 -7.680727481842041 -2.5
0.9265643358230591 -7.630918025970459 -2.5
1.5375912189483643 -7.531620979309082 -2.5
2.1386499404907227 -7.383471488952637 -2.5
2.72583270072937 -7.187436580657959 -2.5
4.861586093902588 -5.954365253448486 -2.5
5.753775119781494 -5.097407341003418 -2.5
6.145287990570068 -4.617880821228027 -2.5
6.80647087097168 -3.5723142623901367 -2.5
7.0718512535095215 -3.0130321979522705 -2.5
7.291365623474121 -2.4342236518859863 -2.5
-7.406876087188721 -4.882812390860636e-06 -2.5
-7.382856369018555 -0.5960107445716858 -2.5
-7.310957908630371 -1.1881591081619263 -2.5
-7.191641807556152 -1.7725927829742432 -2.5
-6.260213375091553 -3.958730459213257 -2.5
-5.921370506286621 -4.449624061584473 -2.5
-5.130922794342041 -5.341855525970459 -2.5
-4.684439182281494 -5.737402439117432 -2.5
-4.207583904266357 -6.095736980438232 -2.5
-3.7034382820129395 -6.414540767669678 -2.5
-3.1752712726593018 -6.691742897033691 -2.5
-2.6265127658843994 -6.925546646118164 -2.5
0.8928011655807495 -7.352875709533691 -2.5
1.4815664291381836 -7.257187366485596 -2.5
3.1752705574035645 -6.691747665405273 -2.5
3.7034389972686768 -6.414540767669678 -2.5
4.207584381103516 -6.095742225646973 -2.5
4.684443473815918 -5.737402439117432 -2.5
5.544124126434326 -4.911664962768555 -2.5
6.260215759277344 -3.9587254524230957 -2.5
6.814174175262451 -2.903251886367798 -2.5
7.02569055557251 -2.345522403717041 -2.5
7.191642761230469 -1.7725878953933716 -2.5
7.310956954956055 -1.188149333000183 -2.5
7.3828558921813965 -0.5960107445716858 -2.5
-7.14459228515625 -4.882812390860636e-06 -2.5
-7.121421813964844 -0.5749072432518005 -2.5
-7.052068710327148 -1.146083950996399 -2.5
-6.776904106140137 -2.262465715408325 -2.5
-6.5728759765625 -2.8004393577575684 -2.5
-6.32621955871582 -3.320263624191284 -2.5
-5.711689472198486 -4.292050838470459 -2.5
-4.9492292404174805 -5.152699947357178 -2.5
-4.51855993270874 -5.534238338470459 -2.5
-4.058590412139893 -5.8798828125 -2.5
-3.0628297328948975 -6.454784870147705 -2.5
-2.5335049629211426 -6.680307388305664 -2.5
-0.861183762550354 -7.092494964599609 -2.5
0.28768613934516907 -7.138803482055664 -2.5
1.987752079963684 -6.862504959106445 -2.5
3.06282901763916 -6.454790115356445 -2.5
4.518562316894531 -5.534233093261719 -2.5
4.949230194091797 -5.152699947357178 -2.5
5.347801208496094 -4.737739086151123 -2.5
5.711690425872803 -4.292050838470459 -2.5
6.038533687591553 -3.818544864654541 -2.5
6.326220512390137 -3.320253849029541 -2.5
6.5728759765625 -2.8004345893859863 -2.5
6.936978816986084 -1.7098193168640137 -2.5
7.121420860290527 -0.5749072432518005 -2.5
-6.876043319702148 -0.5550927519798279 -2.5
-6.809078216552734 -1.106591820716858 -2.5
-6.543392181396484 -2.184511661529541 -2.5
-6.346396446228027 -2.7039501667022705 -2.5
-6.108239650726318 -3.2058496475219727 -2.5
-5.830464839935303 -3.686967611312866 -2.5
-4.778696060180664 -4.975151062011719 -2.5
-2.4462087154388428 -6.450126647949219 -2.5
-1.919258713722229 -6.626044750213623 -2.5
0.2777725160121918 -6.892812252044678 -2.5
1.91926109790802 -6.626049518585205 -2.5
3.449207067489624 -5.974194049835205 -2.5
4.362867832183838 -5.343539714813232 -2.5
4.7786946296691895 -4.975156307220459 -2.5
5.163534641265869 -4.574496746063232 -2.5
5.5148844718933105 -4.144174575805664 -2.5
6.3463969230651855 -2.7039501667022705 -2.5
6.543393611907959 -2.184506893157959 -2.5
6.6979546546936035 -1.65090811252594 -2.5
6.809076309204102 -1.1065869331359863 -2.5
6.876040935516357 -0.5550927519798279 -2.5
-6.645223140716553 -0.5364599227905273 -2.5
-6.580508708953857 -1.0694482326507568 -2.5
-6.473114013671875 -1.59548819065094 -2.5
-6.323741436004639 -2.1111814975738525 -2.5
-6.13335657119751 -2.6131834983825684 -2.5
-4.9902024269104 -4.420937538146973 -2.5
-4.618284702301025 -4.80813455581665 -2.5
-3.787198066711426 -5.486708641052246 -2.5
-2.3640952110290527 -6.233603477478027 -2.5
-1.333540916442871 -6.532109260559082 -2.5
0.26844847202301025 -6.661435604095459 -2.5
0.8036013841629028 -6.618237018585205 -2.5
1.854833960533142 -6.403623104095459 -2.5
2.858022451400757 -6.023169040679932 -2.5
3.3334221839904785 -5.773657321929932 -2.5
5.634746551513672 -3.5631980895996094 -2.5
6.323742389678955 -2.1111814975738525 -2.5
6.645223140716553 -0.5364599227905273 -2.5
-6.365056037902832 -1.034423828125 -2.5
-5.709920406341553 -2.9967968463897705 -2.5
-5.450258731842041 -3.446537971496582 -2.5
-4.826817989349365 -4.276196002960205 -2.5
-3.663200855255127 -5.307065486907959 -2.5
-3.2242794036865234 -5.584628582000732 -2.5
-2.764448404312134 -5.82595682144165 -2.5
-2.2866921424865723 -6.029511451721191 -2.5
-1.7941030263900757 -6.193959712982178 -2.5
-1.2898776531219482 -6.318246841430664 -2.5
0.777289092540741 -6.401547908782959 -2.5
1.7941051721572876 -6.19396448135376 -2.5
2.7644481658935547 -5.825961589813232 -2.5
4.078362464904785 -4.995087623596191 -2.5
4.467074871063232 -4.650727272033691 -2.5
5.450261116027832 -3.446542978286743 -2.5
6.116696834564209 -2.042060613632202 -2.5
6.261179447174072 -1.5432469844818115 -2.5
-6.222177505493164 -0.5023144483566284 -2.5
-6.161581993103027 -1.0013574361801147 -2.5
-6.061027526855469 -1.4939111471176147 -2.5
-5.527388572692871 -2.900991201400757 -2.5
-5.276029109954834 -3.33636212348938 -2.5
-4.9904584884643555 -3.7500877380371094 -2.5
-4.672516822814941 -4.139492034912109 -2.5
-4.324276447296143 -4.502045631408691 -2.5
-3.947986602783203 -4.835405349731445 -2.5
-3.121211290359497 -5.406088829040527 -2.5
-2.6760764122009277 -5.639721393585205 -2.5
-1.248645305633545 -6.116264343261719 -2.5
-0.7524392604827881 -6.196904182434082 -2.5
-0.25135529041290283 -6.237358093261719 -2.5
1.7367528676986694 -5.995956897735596 -2.5
2.6760764122009277 -5.639707088470459 -2.5
3.121211528778076 -5.406098365783691 -2.5
4.324275016784668 -4.502055644989014 -2.5
4.672518253326416 -4.139492034912109 -2.5
4.990458011627197 -3.7500927448272705 -2.5
5.276030540466309 -3.336367130279541 -2.5
5.527388572692871 -2.9010009765625 -2.5
5.742898941040039 -2.4468212127685547 -2.5
5.921163082122803 -1.976772427558899 -2.5
6.161581516265869 -1.0013574361801147 -2.5
-6.02776575088501 -0.48661619424819946 -2.5
-5.969064712524414 -0.9700732231140137 -2.5
-5.736153602600098 -1.915004849433899 -2.5
-5.354684829711914 -2.810356378555298 -2.5
-4.834530830383301 -3.6329150199890137 -2.5
-4.526524066925049 -4.010156154632568 -2.5
-3.4353010654449463 -4.976894378662109 -2.5
-3.02366304397583 -5.2371826171875 -2.5
-1.6824861764907837 -5.808618068695068 -2.5
-0.7289309501647949 -6.003285884857178 -2.5
2.1444287300109863 -5.654399394989014 -2.5
4.189162731170654 -4.361376762390137 -2.5
5.736156463623047 -1.915014624595642 -2.5
6.027766704559326 -0.48661619424819946 -2.5
-5.78660249710083 -0.9404199123382568 -2.5
-5.692162990570068 -1.4029881954193115 -2.5
-5.560810565948486 -1.8564696311950684 -2.5
-5.393395900726318 -2.297905206680298 -2.5
-5.191001892089844 -2.7244529724121094 -2.5
-4.9549384117126465 -3.1333203315734863 -2.5
-4.388156414031982 -3.8875732421875 -2.5
-3.3302900791168213 -4.824755668640137 -2.5
-2.5132107734680176 -5.296498775482178 -2.5
-2.0788753032684326 -5.481552600860596 -2.5
-1.631054401397705 -5.631054401397705 -2.5
-1.1726559400558472 -5.744042873382568 -2.5
-0.7066482305526733 -5.819775104522705 -2.5
0.23606200516223907 -5.857758522033691 -2.5
0.7066506743431091 -5.819780349731445 -2.5
1.172656536102295 -5.744042873382568 -2.5
2.0788793563842773 -5.481557369232178 -2.5
3.330289840698242 -4.824750900268555 -2.5
3.7077226638793945 -4.5411376953125 -2.5
4.0611090660095215 -4.228066444396973 -2.5
4.388157367706299 -3.8875732421875 -2.5
4.686747074127197 -3.521860361099243 -2.5
5.19100284576416 -2.7244529724121094 -2.5
5.692163467407227 -1.402993083000183 -2.5
-5.68702507019043 0.0 -2.5
-5.39434814453125 -1.8008984327316284 -2.5
-5.231944561004639 -2.229116201400757 -2.5
-5.035608768463135 -2.642890453338623 -2.5
-4.806612968444824 -3.0395262241363525 -2.5
-4.546449661254883 -3.416435480117798 -2.5
-4.256795883178711 -3.771196126937866 -2.5
-2.843512773513794 -4.925107479095459 -2.5
-2.437988519668579 -5.137948989868164 -2.5
-2.0166451930999756 -5.317461013793945 -2.5
-1.5822292566299438 -5.462494850158691 -2.5
-0.22899200022220612 -5.682412147521973 -2.5
0.22899505496025085 -5.682406902313232 -2.5
0.6854965090751648 -5.645561218261719 -2.5
1.5822304487228394 -5.462485313415527 -2.5
2.437983274459839 -5.137953758239746 -2.5
2.843512535095215 -4.925107479095459 -2.5
3.230597496032715 -4.680331707000732 -2.5
3.596731185913086 -4.405200004577637 -2.5
3.9395370483398438 -4.101499080657959 -2.5
4.546449661254883 -3.416435480117798 -2.5
4.806614875793457 -3.0395214557647705 -2.5
5.035609722137451 -2.642890453338623 -2.5
5.521767616271973 -1.361000895500183 -2.5
5.613377094268799 -0.9122655987739563 -2.5
-5.502260684967041 -0.44419431686401367 -2.5
-5.448676586151123 -0.885498046875 -2.5
-5.359753131866455 -1.3210595846176147 -2.5
-5.078433036804199 -2.163710832595825 -2.5
-4.665581703186035 -2.9503467082977295 -2.5
-3.823948621749878 -3.981152296066284 -2.5
-3.491196632385254 -4.275947093963623 -2.5
-2.3664491176605225 -4.987196922302246 -2.5
-0.6653817892074585 -5.479911804199219 -2.5
-0.22227202355861664 -5.515683650970459 -2.5
0.22227446734905243 -5.515678405761719 -2.5
0.6653835773468018 -5.479911804199219 -2.5
1.9574764966964722 -5.161440372467041 -2.5
3.8239476680755615 -3.981157064437866 -2.5
4.131898880004883 -3.6605420112609863 -2.5
4.665583610534668 -2.9503417015075684 -2.5
4.887859344482422 -2.5653467178344727 -2.5
5.236073017120361 -1.7480615377426147 -2.5
5.359753131866455 -1.3210644721984863 -2.5
5.448674201965332 -0.885498046875 -2.5
5.502259254455566 -0.44419431686401367 -2.5
-5.343883991241455 -0.4314062297344208 -2.5
-5.291840553283691 -0.8600097298622131 -2.5
-5.085357666015625 -1.6977441310882568 -2.5
-4.74716854095459 -2.491503953933716 -2.5
-4.531290054321289 -2.86541485786438 -2.5
-4.2860260009765625 -3.2207422256469727 -2.5
-4.012966632843018 -3.55517578125 -2.5
-3.7138826847076416 -3.8665623664855957 -2.5
-3.3907077312469482 -4.152865886688232 -2.5
-3.0455477237701416 -4.412236213684082 -2.5
-2.6806349754333496 -4.642992973327637 -2.5
-2.2983338832855225 -4.843637466430664 -2.5
-1.9011330604553223 -5.012870788574219 -2.5
-1.4916073083877563 -5.149594783782959 -2.5
-1.0723928213119507 -5.252919673919678 -2.5
-0.2158755511045456 -5.356923580169678 -2.5
0.6462304592132568 -5.322182655334473 -2.5
1.4915953874588013 -5.149594783782959 -2.5
2.6806352138519287 -4.643002986907959 -2.5
3.39070987701416 -4.152865886688232 -2.5
4.012966632843018 -3.555180549621582 -2.5
5.085358619689941 -1.6977441310882568 -2.5
5.291841506958008 -0.8600146174430847 -2.5
