ply
format ascii 1.0
element vertex 767
property float x
property float y
property float z
end_header
5.150107383728027 -25.226863861083984 6.898934364318848
7.475273132324219 -19.710702896118164 5.648522853851318
11.172236442565918 -19.35087776184082 5.987178802490234
6.144550800323486 -21.213407516479492 5.6562113761901855
11.371161460876465 -19.6954288482666 5.824460983276367
6.460986137390137 -22.305917739868164 5.674053192138672
9.615556716918945 -20.264404296875 5.480347156524658
7.541464805603027 -26.036151885986328 6.305466175079346
9.787626266479492 -20.62700080871582 5.311018943786621
7.820820331573486 -20.621883392333984 4.873470306396484
9.914032936096191 -20.893407821655273 5.110160827636719
11.623183250427246 -20.131933212280273 5.13670539855957
-14.117060661315918 -14.697421073913574 4.26683235168457
8.022509574890137 -21.153671264648438 4.7368268966674805
13.02318286895752 -22.556825637817383 5.453415870666504
4.74246072769165 -23.230058670043945 4.690447807312012
6.415234088897705 -22.147958755493164 4.561689376831055
8.142997741699219 -21.47134780883789 4.542945384979248
13.391542434692383 -23.194881439208984 5.298571586608887
4.869912147521973 -23.854394912719727 4.53676176071167
6.580869197845459 -22.719764709472656 4.4076714515686035
9.281484603881836 -19.560340881347656 4.034437656402588
12.686307907104492 -21.973329544067383 4.72798490524292
11.16454029083252 -19.33755874633789 3.905336856842041
25.841083526611328 -13.562440872192383 5.104242324829102
6.133505821228027 -21.17534065246582 3.6044812202453613
7.766406059265137 -20.47835922241211 3.580914258956909
9.977558135986328 -21.027265548706055 3.805368661880493
5.02783203125 -24.627920150756836 3.824241876602173
6.383857250213623 -22.03963851928711 3.491000175476074
8.224687576293945 -21.686737060546875 3.528792142868042
9.775487899780273 -20.6014347076416 3.4693188667297363
5.260653972625732 -25.768388748168945 3.703639507293701
7.956611156463623 -20.97989273071289 3.1597936153411865
10.13720703125 -21.363719940185547 3.3300230503082275
-18.27705955505371 -22.385351181030273 3.7435619831085205
6.411943435668945 -22.136581420898438 2.9854278564453125
8.04677677154541 -21.21761703491211 2.9395365715026855
11.605439186096191 -24.45798683166504 3.5068540573120117
4.814814567565918 -23.58452033996582 2.8472979068756104
9.263867378234863 -24.426836013793945 3.0902013778686523
6.673271179199219 -23.03879737854004 2.5680441856384277
8.759706497192383 -23.097509384155273 2.6448075771331787
-20.249794006347656 -21.082284927368164 2.8024699687957764
8.025918006896973 -27.708681106567383 2.7656102180480957
9.255966186523438 -24.405996322631836 2.502405881881714
9.255009651184082 -24.403467178344727 2.210566997528076
9.224091529846191 -24.32195281982422 1.3343429565429688
9.216933250427246 -24.303085327148438 1.0446707010269165
9.217050552368164 -24.30339813232422 -0.10801452398300171
9.223261833190918 -24.319746017456055 -0.39634275436401367
9.229745864868164 -24.336854934692383 -0.6851772665977478
9.251044273376465 -24.393016815185547 -0.976154625415802
-16.171424865722656 -19.80635643005371 -1.24062180519104
-11.423681259155273 -19.786317825317383 -1.1085357666015625
-9.357645988464355 -19.720741271972656 -1.0590929985046387
9.259413719177246 -24.415096282958984 -1.2669336795806885
11.33617115020752 -19.634872436523438 -1.1000502109527588
-19.46646499633789 -20.26677703857422 -1.6757787466049194
-16.668973922729492 -20.415790557861328 -1.5717179775238037
-9.357645988464355 -19.720741271972656 -1.301693081855774
-7.497851371765137 -19.7701358795166 -1.260898232460022
-5.333105564117432 -18.412031173706055 -1.143103003501892
-4.033300876617432 -19.75615119934082 -1.2024260759353638
0.79530268907547 -19.735721588134766 -1.1778634786605835
9.347783088684082 -19.700077056884766 -1.3003286123275757
6.690536975860596 -4.230839729309082 -0.47205838561058044
6.912704944610596 -2.9452147483825684 -0.44808319211006165
-19.232440948486328 -20.023056030273438 -1.9645981788635254
-16.458515167236328 -20.158037185668945 -1.8414859771728516
-7.697880744934082 -20.297616958618164 -1.5361251831054688
-4.13037109375 -20.23186492919922 -1.4611785411834717
0.8013671636581421 -19.88629913330078 -1.4083377122879028
2.4096484184265137 -19.845458984375 -1.4146195650100708
4.06008768081665 -19.887773513793945 -1.4363266229629517
5.903876781463623 -20.38245964050293 -1.5015904903411865
7.518984317779541 -19.8260440826416 -1.5004345178604126
9.58974552154541 -20.209911346435547 -1.5829272270202637
6.344833850860596 -3.330019474029541 -0.5070533752441406
-25.37834358215332 -13.31956958770752 -2.347599983215332
-24.22425651550293 -15.31850528717041 -2.347599983215332
-21.453319549560547 -19.0059757232666 -2.347599983215332
-19.239179611206055 -20.030057907104492 -2.2748498916625977
-16.500654220581055 -20.20964813232422 -2.137002468109131
-11.501435279846191 -19.92098617553711 -1.8841198682785034
-7.661865234375 -20.202674865722656 -1.769774079322815
-5.251543045043945 -18.130430221557617 -1.5460747480392456
-4.138427734375 -20.271221160888672 -1.6946264505386353
-2.4215428829193115 -19.94291877746582 -1.64548921585083
-0.8003906011581421 -19.860586166381836 -1.628064513206482
0.80311518907547 -19.930057525634766 -1.6337593793869019
4.066054821014404 -19.917011260986328 -1.6650179624557495
9.434052467346191 -19.88192367553711 -1.8025256395339966
11.33617115020752 -19.634872436523438 -1.8570575714111328
12.75551700592041 -18.479530334472656 -1.839194655418396
21.453350067138672 -19.00601577758789 -2.347599983215332
5.651533126831055 -4.246835708618164 -0.579037606716156
5.8076171875 -3.672499895095825 -0.5628219246864319
6.038730144500732 -2.5728514194488525 -0.5376442074775696
-12.35245132446289 0.0 -1.1497001647949219
-26.773056030273438 -2.1613476276397705 -2.5
-26.512319564819336 -4.308691501617432 -2.5
-23.52994155883789 -12.349472045898438 -2.47334885597229
-21.31802749633789 -13.480722427368164 -2.347599983215332
-17.472412109375 -18.190711975097656 -2.347599983215332
-15.952011108398438 -19.53768539428711 -2.347599983215332
-13.624560356140137 -19.738506317138672 -2.2323148250579834
-11.511542320251465 -19.938495635986328 -2.14285945892334
-9.357645988464355 -19.720741271972656 -2.031658172607422
0.8007031083106995 -19.870019912719727 -1.8508973121643066
5.749326229095459 -19.849023818969727 -1.923383116722107
7.518984317779541 -19.8260440826416 -1.97355055809021
11.33617115020752 -19.634872436523438 -2.1102254390716553
18.8795108795166 -16.72579002380371 -2.347599983215332
5.294023513793945 -3.9781835079193115 -0.6163529753684998
5.447089672088623 -3.444531202316284 -0.5998495221138
5.574541091918945 -2.925732374191284 -0.585966944694519
7.506962776184082 -2.5061912536621094 -0.736617386341095
26.079647064208984 -6.428066253662109 -2.5
26.5123233795166 -4.308681488037109 -2.5
26.7730655670166 -2.1613378524780273 -2.5
-12.035868644714355 0.0 -1.2549078464508057
-23.899843215942383 -1.9293944835662842 -2.5
-23.667083740234375 -3.8462889194488525 -2.5
-23.280839920043945 -5.738242149353027 -2.5
-22.058866500854492 -9.398398399353027 -2.5
-20.26559066772461 -12.815204620361328 -2.5
-16.8533878326416 -14.930800437927246 -2.347599983215332
-14.240087509155273 -17.440956115722656 -2.347599983215332
-9.357645988464355 -19.720741271972656 -2.2759063243865967
-7.65771484375 -20.19171905517578 -2.251591682434082
-5.251874923706055 -18.131572723388672 -1.9681811332702637
-4.086093425750732 -20.01473617553711 -2.1298623085021973
-0.8003906011581421 -19.860586166381836 -2.072425127029419
0.8023925423622131 -19.911787033081055 -2.0777719020843506
2.4096484184265137 -19.845458984375 -2.084367275238037
4.061698913574219 -19.895605087280273 -2.1171865463256836
5.751386642456055 -19.856142044067383 -2.155383586883545
12.755654335021973 -18.479705810546875 -2.341203451156616
14.240068435668945 -17.440927505493164 -2.347599983215332
15.59731388092041 -16.238515853881836 -2.347599983215332
4.828437328338623 -4.277626991271973 -0.6725796461105347
5.14016580581665 -3.250429630279541 -0.6340991258621216
5.25930643081665 -2.7602930068969727 -0.6192929148674011
5.854677677154541 -2.494433641433716 -0.6635292172431946
23.28083038330078 -5.738222599029541 -2.5
23.667070388793945 -3.8462791442871094 -2.5
23.899824142456055 -1.9293944835662842 -2.5
-11.820429801940918 9.765624781721272e-06 -1.3650158643722534
-21.57868194580078 -1.7420116662979126 -2.5
-21.36854362487793 -3.4727439880371094 -2.5
-21.019813537597656 -5.180927753448486 -2.5
-19.169124603271484 -10.060742378234863 -2.5
-18.29741668701172 -11.570595741271973 -2.5
-17.307050704956055 -13.005390167236328 -2.5
-14.08251953125 -14.661455154418945 -2.347599983215332
-11.548300743103027 -16.730594635009766 -2.347599983215332
-8.714961051940918 -18.36638641357422 -2.347599983215332
-5.252050876617432 -18.132205963134766 -2.179964542388916
-4.061718463897705 -19.895429611206055 -2.344902515411377
0.8008886575698853 -19.874853134155273 -2.2969985008239746
2.4096484184265137 -19.845458984375 -2.308574676513672
4.054794788360596 -19.861854553222656 -2.3409440517425537
5.655947208404541 -19.526533126831055 -2.347599983215332
5.720664024353027 -15.084139823913574 -1.862952709197998
8.714961051940918 -18.366405487060547 -2.347599983215332
10.164579391479492 -17.605575561523438 -2.347599983215332
4.731620788574219 -3.555556535720825 -0.6834806799888611
4.873847484588623 -3.08203125 -0.6659187078475952
4.992851257324219 -2.6204490661621094 -0.6511572003364563
7.280243873596191 -2.430488109588623 -0.8863308429718018
21.019813537597656 -5.18093729019165 -2.5
-19.664003372192383 -1.587441325187683 -2.5
-17.468252182006836 -9.168046951293945 -2.5
-15.77138614654541 -11.851425170898438 -2.5
-13.648016929626465 -14.209091186523438 -2.496699571609497
-10.523612976074219 -15.24609375 -2.347599983215332
-9.262675285339355 -16.043437957763672 -2.347599983215332
-7.941669940948486 -16.73674774169922 -2.347599983215332
-6.569189071655273 -17.321523666381836 -2.347599983215332
-3.705556631088257 -18.150976181030273 -2.347599983215332
-0.7459374666213989 -18.510332107543945 -2.347599983215332
0.7459472417831421 -18.51034164428711 -2.347599983215332
3.705556631088257 -18.150976181030273 -2.347599983215332
5.711122989654541 -15.058955192565918 -2.0409536361694336
11.952372550964355 -14.63900375366211 -2.3949060440063477
4.633173942565918 -2.9298338890075684 -0.6946738958358765
4.75149393081665 -2.493779182434082 -0.6800194978713989
5.745654106140137 -2.447988271713257 -0.7914419174194336
9.525673866271973 -2.3478710651397705 -1.243253469467163
19.472509384155273 -3.164599657058716 -2.5
19.664012908935547 -1.5874511003494263 -2.5
-17.881454467773438 -2.9060351848602295 -2.5
-17.183734893798828 -5.736777305603027 -2.5
-16.66639518737793 -7.100878715515137 -2.5
-16.04097557067871 -8.4189453125 -2.5
-14.48275375366211 -10.883095741271973 -2.5
-12.549423217773438 -13.065351486206055 -2.5
-11.457411766052246 -14.03280258178711 -2.5
-10.162392616271973 -14.722763061523438 -2.4687345027923584
-6.032431602478027 -15.906210899353027 -2.347599983215332
-4.732949256896973 -16.34004783630371 -2.347599983215332
-3.320810556411743 -16.266395568847656 -2.291049003601074
3.402783155441284 -16.667909622192383 -2.347599983215332
8.505859375 -14.73256778717041 -2.347599983215332
10.107558250427246 -14.643310546875 -2.4554126262664795
4.111630916595459 -3.642578125 -0.7580401301383972
4.275126934051514 -3.212529182434082 -0.7379673719406128
4.636084079742432 -2.4332029819488525 -0.7225372195243835
5.701943397521973 -2.4293651580810547 -0.8553054332733154
9.525673866271973 -2.3478710651397705 -1.3538758754730225
17.881454467773438 -2.906005859375 -2.5
18.05730438232422 -1.4577343463897705 -2.5
-16.526918411254883 -2.6858983039855957 -2.5
-15.88206958770752 -5.302226543426514 -2.5
-14.825859069824219 -7.781210899353027 -2.5
-14.151650428771973 -8.948974609375 -2.5
-13.385663986206055 -10.058691024780273 -2.5
-12.532880783081055 -11.10317325592041 -2.5
-3.145009756088257 -15.405292510986328 -2.347599983215332
-1.895205020904541 -15.608417510986328 -2.347599983215332
3.14501953125 -15.405292510986328 -2.347599983215332
5.577519416809082 -14.706727981567383 -2.348461627960205
8.356435775756836 -14.473759651184082 -2.495387315750122
4.078105449676514 -3.0644922256469727 -0.7616539001464844
4.215087890625 -2.6654491424560547 -0.7446264624595642
4.613203048706055 -2.4211816787719727 -0.7778974771499634
7.185654163360596 -2.39892578125 -1.1310949325561523
9.525673866271973 -2.3478710651397705 -1.4648382663726807
16.526933670043945 -2.6858885288238525 -2.5
16.689472198486328 -1.3473241329193115 -2.5
-10.5792818069458 0.0 -1.6996374130249023
-13.152060508728027 -8.316874504089355 -2.5
-10.779541015625 -11.222704887390137 -2.5
-9.841532707214355 -12.05370044708252 -2.5
-8.839696884155273 -12.806532859802246 -2.5
-5.508466720581055 -14.524628639221191 -2.495664119720459
-3.003916025161743 -14.714120864868164 -2.4126906394958496
-0.5932323932647705 -14.720742225646973 -2.3669095039367676
0.5932323932647705 -14.720878601074219 -2.3669354915618896
1.786962866783142 -14.717001914978027 -2.3817577362060547
4.255214691162109 -14.690673828125 -2.457176446914673
5.507001876831055 -14.52074146270752 -2.4949967861175537
7.78054666519165 -13.476288795471191 -2.5
3.5500974655151367 -4.348085880279541 -0.9018152952194214
3.759228467941284 -3.33038067817688 -0.8068632483482361
9.525673866271973 -2.3478710651397705 -1.5761675834655762
-10.48373031616211 9.765624781721272e-06 -1.8036772012710571
-13.78322696685791 -4.601523399353027 -2.5
-13.368270874023438 -5.695693016052246 -2.5
-12.866605758666992 -6.752900123596191 -2.5
-10.876640319824219 -9.635859489440918 -2.5
-10.06600570678711 -10.47982406616211 -2.5
-9.19008731842041 -11.255820274353027 -2.5
-2.9065818786621094 -14.237382888793945 -2.5
-1.7495898008346558 -14.409198760986328 -2.497246742248535
-0.5841211080551147 -14.494951248168945 -2.4958131313323975
4.042802810668945 -13.957324028015137 -2.5
7.265527248382568 -12.584257125854492 -2.5
8.254590034484863 -11.958818435668945 -2.5
3.6044628620147705 -3.1932811737060547 -0.8284878134727478
5.62194299697876 -2.395273447036743 -1.051360011100769
7.157402038574219 -2.389482259750366 -1.2982076406478882
9.525673866271973 -2.3478710651397705 -1.6878942251205444
14.342870712280273 -2.3309569358825684 -2.5
-10.454912185668945 0.0 -1.9182391166687012
-10.788544654846191 -0.8709276914596558 -1.9858919382095337
-12.924443244934082 -4.314824104309082 -2.5
-12.06493091583252 -6.332167625427246 -2.5
-10.892939567565918 -8.185526847839355 -2.5
-9.438827514648438 -9.826865196228027 -2.5
-6.812831878662109 -11.80019474029541 -2.5
-5.841171741485596 -12.3101167678833 -2.5
-3.790908098220825 -13.087695121765137 -2.5
-2.7254881858825684 -13.350302696228027 -2.5
2.7254881858825684 -13.350302696228027 -2.5
3.790908098220825 -13.087695121765137 -2.5
4.831737995147705 -12.74022388458252 -2.5
5.841220378875732 -12.310126304626465 -2.5
6.812831878662109 -11.800175666809082 -2.5
3.539911985397339 -3.1360936164855957 -0.8677129745483398
3.606279134750366 -2.7099413871765137 -0.8276617527008057
3.789130687713623 -2.3961033821105957 -0.8225613236427307
4.571396350860596 -2.3992576599121094 -0.9472477436065674
5.615370750427246 -2.3924803733825684 -1.1199089288711548
9.525673866271973 -2.3478710651397705 -1.8000494241714478
13.581493377685547 -1.0964159965515137 -2.5
-10.45361328125 1.9531249563442543e-05 -2.0379889011383057
-10.725565910339355 -0.8658496141433716 -2.0978102684020996
-12.450819969177246 -3.06884765625 -2.5
-12.163505554199219 -4.060771465301514 -2.5
-11.354598999023438 -5.959364891052246 -2.5
-8.110116958618164 -9.933115005493164 -2.5
-7.284550666809082 -10.553495407104492 -2.5
-6.411728382110596 -11.105429649353027 -2.5
-0.5163476467132568 -12.8130464553833 -2.5
0.516357421875 -12.813027381896973 -2.5
1.5457030534744263 -12.729950904846191 -2.5
3.5677146911621094 -12.317157745361328 -2.5
4.547255992889404 -11.99013614654541 -2.5
6.411728382110596 -11.105409622192383 -2.5
3.539911985397339 -3.1360936164855957 -0.9219962954521179
3.535888671875 -2.657041072845459 -0.862274169921875
4.56155252456665 -2.3940820693969727 -1.0043412446975708
5.608788967132568 -2.3896679878234863 -1.1885735988616943
7.141757488250732 -2.3842577934265137 -1.4678651094436646
9.252216339111328 -2.280468702316284 -1.8577520847320557
12.781865119934082 -1.0318652391433716 -2.5
-10.697470664978027 -0.8635937571525574 -2.216038227081299
-11.950727462768555 -1.9421874284744263 -2.5
-11.755682945251465 -2.897538900375366 -2.5
-11.484414100646973 -3.8340721130371094 -2.5
-11.13866138458252 -4.745722770690918 -2.5
-10.720673561096191 -5.626640319824219 -2.5
-9.679266929626465 -7.273505687713623 -2.5
-6.877851486206055 -9.964296340942383 -2.5
-6.053750038146973 -10.4854097366333 -2.5
-5.190390586853027 -10.9385347366333 -2.5
-3.368525266647339 -11.62948226928711 -2.5
-2.421816349029541 -11.862812042236328 -2.5
-0.48750975728034973 -12.097684860229492 -2.5
0.4875195324420929 -12.097695350646973 -2.5
5.190400123596191 -10.938525199890137 -2.5
6.877851486206055 -9.964286804199219 -2.5
3.5500974655151367 -4.348085880279541 -1.1590511798858643
3.539911985397339 -3.1360936164855957 -0.9765153527259827
5.603867053985596 -2.387578010559082 -1.2577511072158813
7.133896350860596 -2.381640672683716 -1.5529507398605347
12.068251609802246 -0.9742382764816284 -2.5
-11.316049575805664 -1.8390429019927979 -2.5
-11.13137149810791 -2.74365234375 -2.5
-10.151318550109863 -5.327822208404541 -2.5
-9.165214538574219 -6.887226581573486 -2.5
-8.581308364868164 -7.602372646331787 -2.5
-7.941747665405273 -8.268241882324219 -2.5
-7.250683307647705 -8.880488395690918 -2.5
-6.512587547302246 -9.4351167678833 -2.5
-3.189638614654541 -11.01186466217041 -2.5
-2.293203115463257 -11.232831954956055 -2.5
-0.46163085103034973 -11.45522403717041 -2.5
0.4616406261920929 -11.455214500427246 -2.5
1.3819042444229126 -11.3809175491333 -2.5
2.293203115463257 -11.23282241821289 -2.5
6.512597560882568 -9.435097694396973 -2.5
3.5500974655151367 -4.348085880279541 -1.2240574359893799
3.544570207595825 -3.6902928352355957 -1.1158021688461304
3.539911985397339 -3.1360936164855957 -1.031284213066101
3.535888671875 -2.657041072845459 -0.9644824266433716
3.789130687713623 -2.3961033821105957 -0.9776209592819214
11.316054344177246 -1.8390331268310547 -2.5
-10.848398208618164 -0.875781238079071 -2.5
-10.742753982543945 -1.74587881565094 -2.5
-10.5674409866333 -2.6046385765075684 -2.5
-10.323583602905273 -3.446523427963257 -2.5
-10.01278305053711 -4.266054630279541 -2.5
-8.146562576293945 -7.217246055603027 -2.5
-7.539403915405273 -7.849355220794678 -2.5
-6.18264627456665 -8.95711898803711 -2.5
-3.0280370712280273 -10.453993797302246 -2.5
-2.1770215034484863 -10.663740158081055 -2.5
-1.3118847608566284 -10.804335594177246 -2.5
-0.4382421672344208 -10.874882698059082 -2.5
1.3118847608566284 -10.804335594177246 -2.5
4.665751934051514 -9.832890510559082 -2.5
5.441845417022705 -9.425556182861328 -2.5
6.18264627456665 -8.957109451293945 -2.5
3.544570207595825 -3.6902928352355957 -1.1753475666046143
3.539911985397339 -3.1360936164855957 -1.086319088935852
3.535888671875 -2.657041072845459 -1.015952467918396
4.555038928985596 -2.3906543254852295 -1.1816476583480835
7.118124961853027 -2.3763670921325684 -1.7237517833709717
-10.322763442993164 -0.8333398103713989 -2.5
-9.823378562927246 -3.279531240463257 -2.5
-8.75308609008789 -5.535146236419678 -2.5
-7.751845359802246 -6.867538928985596 -2.5
-5.883076190948486 -8.52310562133789 -2.5
-3.6724119186401367 -9.683349609375 -2.5
-2.8813183307647705 -9.947470664978027 -2.5
-2.071542978286743 -10.14706039428711 -2.5
-0.41701170802116394 -10.347949028015137 -2.5
0.4170214831829071 -10.347949028015137 -2.5
1.2483203411102295 -10.280839920043945 -2.5
2.071542978286743 -10.14706039428711 -2.5
2.8813281059265137 -9.947470664978027 -2.5
5.178183555603027 -8.968856811523438 -2.5
5.88308572769165 -8.52310562133789 -2.5
3.5500974655151367 -4.348085880279541 -1.355035424232483
3.544570207595825 -3.6902928352355957 -1.2351964712142944
3.535888671875 -2.657041072845459 -1.0676847696304321
3.789140462875366 -2.396113157272339 -1.082229733467102
5.148612976074219 -2.7021875381469727 -1.4036407470703125
-9.875297546386719 9.765624781721272e-06 -2.5
-9.747416496276855 -1.584130883216858 -2.5
-9.588335037231445 -2.3633203506469727 -2.5
-8.346503257751465 -5.278027057647705 -2.5
-7.391767501831055 -6.548554420471191 -2.5
-6.245585918426514 -7.649462699890137 -2.5
-2.747490167617798 -9.485400199890137 -2.5
-0.3976367115974426 -9.867294311523438 -2.5
0.3976367115974426 -9.867284774780273 -2.5
1.1903417110443115 -9.803300857543945 -2.5
1.9753124713897705 -9.675722122192383 -2.5
3.501835823059082 -9.233564376831055 -2.5
4.233466625213623 -8.921845436096191 -2.5
4.937646389007568 -8.552255630493164 -2.5
3.544570207595825 -3.6902928352355957 -1.2953661680221558
3.539911985397339 -3.1360936164855957 -1.1972466707229614
3.535888671875 -2.657041072845459 -1.119694471359253
3.789130687713623 -2.3961033821105957 -1.1349478960037231
5.208173751831055 -2.733457088470459 -1.4890453815460205
7.102255821228027 -2.371083974838257 -1.8955341577529907
9.588349342346191 -2.3633203506469727 -2.5
9.747421264648438 -1.5841113328933716 -2.5
9.843280792236328 -0.7946386337280273 -2.5
-9.43460464477539 0.0 -2.5
-9.404004096984863 -0.75916987657547 -2.5
-9.160439491271973 -2.2578516006469727 -2.5
-8.949052810668945 -2.9876365661621094 -2.5
-8.679638862609863 -3.6980466842651367 -2.5
-8.353925704956055 -4.384482383728027 -2.5
-7.542421817779541 -5.66775369644165 -2.5
-7.061894416809082 -6.256308555603027 -2.5
-5.966865062713623 -7.30810546875 -2.5
-5.359453201293945 -7.764511585235596 -2.5
-4.717294692993164 -8.170595169067383 -2.5
-3.3455564975738525 -8.821503639221191 -2.5
-1.1372168064117432 -9.36581039428711 -2.5
1.1372168064117432 -9.365800857543945 -2.5
1.8871679306030273 -9.243926048278809 -2.5
2.624882698059082 -9.062089920043945 -2.5
3.5500974655151367 -4.348085880279541 -1.4874212741851807
3.539911985397339 -3.1360936164855957 -1.2531710863113403
3.789140462875366 -2.396113157272339 -1.1879631280899048
5.259042739868164 -2.7601561546325684 -1.573822021484375
5.595224380493164 -2.3838865756988525 -1.6115940809249878
9.160449028015137 -2.2578418254852295 -2.5
-9.0 -0.7265625 -2.5
-8.912353515625 -1.4484179019927979 -2.5
-8.766899108886719 -2.1608593463897705 -2.5
-7.631450176239014 -4.825849533081055 -2.5
-7.218398094177246 -5.424277305603027 -2.5
-6.758505821228027 -5.987509727478027 -2.5
-6.254804611206055 -6.511952877044678 -2.5
-2.512099504470825 -8.672792434692383 -2.5
-1.806093692779541 -8.846786499023438 -2.5
-1.0883593559265137 -8.963446617126465 -2.5
-0.36357420682907104 -9.021952629089355 -2.5
1.8061034679412842 -8.846796989440918 -2.5
2.512099504470825 -8.672782897949219 -2.5
3.870781183242798 -8.157489776611328 -2.5
5.129218578338623 -7.43093729019165 -2.5
3.5500974655151367 -4.348085880279541 -1.554192066192627
3.539911985397339 -3.1360936164855957 -1.309426188468933
8.7669038772583 -2.160839796066284 -2.5
-8.655156135559082 0.0 -2.5
-8.627079963684082 -0.6964550614356995 -2.5
-8.543070793151855 -1.3883984088897705 -2.5
-7.315248966217041 -4.625888347625732 -2.5
-5.995625019073486 -6.242128849029541 -2.5
-4.916689395904541 -7.123036861419678 -2.5
-4.327578067779541 -7.495566368103027 -2.5
-3.710400342941284 -7.819501876831055 -2.5
-2.408007860183716 -8.313417434692383 -2.5
-1.0432616472244263 -8.592041015625 -2.5
-0.3485058546066284 -8.648124694824219 -2.5
1.0432714223861694 -8.592050552368164 -2.5
2.408017635345459 -8.313417434692383 -2.5
3.069159984588623 -8.092704772949219 -2.5
3.710400342941284 -7.819482326507568 -2.5
3.544570207595825 -3.6902928352355957 -1.4779789447784424
3.535888671875 -2.657041072845459 -1.2775421142578125
3.789140462875366 -2.396113157272339 -1.2949460744857788
5.591933250427246 -2.3824901580810547 -1.7556943893432617
8.40365219116211 -2.0713281631469727 -2.5
8.543075561523438 -1.3883886337280273 -2.5
-8.067235946655273 -1.9883984327316284 -2.5
-7.881073951721191 -2.631093740463257 -2.5
-7.643813133239746 -3.256718635559082 -2.5
-6.219130516052246 -5.509677410125732 -2.5
-5.254785060882568 -6.435927391052246 -2.5
-4.719862937927246 -6.837900161743164 -2.5
-2.9462890625 -7.768740177154541 -2.5
-1.6619433164596558 -8.140751838684082 -2.5
0.3345605432987213 -8.301933288574219 -2.5
1.001503825187683 -8.248095512390137 -2.5
2.3116307258605957 -7.980624675750732 -2.5
2.9463086128234863 -7.768749713897705 -2.5
4.154345512390137 -7.195527076721191 -2.5
3.5500974655151367 -4.348085880279541 -1.6889840364456177
3.544570207595825 -3.6902928352355957 -1.5396113395690918
3.539911985397339 -3.1360936164855957 -1.4229906797409058
3.535888671875 -2.657041072845459 -1.3308162689208984
3.789130687713623 -2.3961033821105957 -1.3489450216293335
5.591943264007568 -2.382499933242798 -1.828909993171692
8.067245483398438 -1.9883984327316284 -2.5
8.20108413696289 -1.3328124284744263 -2.5
8.281747817993164 -0.6685644388198853 -2.5
-7.98681116104126 -9.765624781721272e-06 -2.5
-7.960917949676514 -0.6426659822463989 -2.5
-7.347700119018555 -3.130566358566284 -2.5
-7.071962833404541 -3.711660146713257 -2.5
-6.750380516052246 -4.268691539764404 -2.5
-6.384990215301514 -4.798007488250732 -2.5
-5.978212833404541 -5.296240329742432 -2.5
-5.532646179199219 -5.760107517242432 -2.5
-4.537021160125732 -6.573007583618164 -2.5
-3.42388653755188 -7.21569299697876 -2.5
-2.832158088684082 -7.46780252456665 -2.5
-0.3215917944908142 -7.980312347412109 -2.5
0.9627148509025574 -7.928564071655273 -2.5
1.5975682735443115 -7.825400352478027 -2.5
2.2220702171325684 -7.671474456787109 -2.5
4.537031173706055 -6.573007583618164 -2.5
3.539911985397339 -3.1360936164855957 -1.4803364276885986
5.591952800750732 -2.382499933242798 -1.9026159048080444
7.754735946655273 -1.9113671779632568 -2.5
7.883388519287109 -1.2811717987060547 -2.5
-7.662040710449219 -0.6185546517372131 -2.5
-7.071845531463623 -3.0130271911621094 -2.5
-4.861581802368164 -5.954345703125 -2.5
-4.366689205169678 -6.326250076293945 -2.5
-2.725839853286743 -7.187450885772705 -2.5
-1.5375878810882568 -7.531601428985596 -2.5
-0.30952146649360657 -7.680712699890137 -2.5
0.30952146649360657 -7.680722713470459 -2.5
1.5375878810882568 -7.53161096572876 -2.5
2.138662099838257 -7.383456707000732 -2.5
3.8434765338897705 -6.65709924697876 -2.5
4.36669921875 -6.326230525970459 -2.5
3.789140462875366 -2.396113157272339 -1.4580470323562622
5.589931488037109 -2.3816308975219727 -1.9761173725128174
7.291367053985596 -2.434218645095825 -2.5
7.463603496551514 -1.8396093845367432 -2.5
7.587421894073486 -1.2330663204193115 -2.5
-7.382846355438232 -0.5960156321525574 -2.5
-6.260214805603027 -3.9587206840515137 -2.5
-5.921367168426514 -4.449618816375732 -2.5
-5.130927562713623 -5.341845512390137 -2.5
-4.684433460235596 -5.737402439117432 -2.5
-4.207578182220459 -6.095722675323486 -2.5
-3.1752636432647705 -6.691728591918945 -2.5
-2.6265039443969727 -6.925546646118164 -2.5
-2.0607128143310547 -7.114433288574219 -2.5
-0.29823240637779236 -7.400849342346191 -2.5
4.684443473815918 -5.737411975860596 -2.5
3.535888671875 -2.657041072845459 -1.4928460121154785
7.310956954956055 -1.1881444454193115 -2.5
-7.144579887390137 0.0 -2.5
-7.121420860290527 -0.574902355670929 -2.5
-5.711689472198486 -4.292070388793945 -2.5
-5.347792625427246 -4.737734317779541 -2.5
-4.949238300323486 -5.152695178985596 -2.5
-4.058583736419678 -5.879863262176514 -2.5
-3.5722851753234863 -6.187382698059082 -2.5
-3.0628318786621094 -6.454775333404541 -2.5
-1.429101586341858 -7.000205039978027 -2.5
-0.2876855432987213 -7.138798713684082 -2.5
2.533505916595459 -6.68029260635376 -2.5
3.062822103500366 -6.454775333404541 -2.5
3.5722949504852295 -6.187392234802246 -2.5
3.544570207595825 -3.6902928352355957 -1.7904647588729858
3.535888671875 -2.657041072845459 -1.5476500988006592
4.438593864440918 -2.3295507431030273 -1.754045009613037
6.572880744934082 -2.800429582595825 -2.5
6.776914119720459 -2.2624707221984863 -2.5
6.936982154846191 -1.709804654121399 -2.5
7.052070140838623 -1.1460644006729126 -2.5
-6.809072017669678 -1.106591820716858 -2.5
-6.543393611907959 -2.184511661529541 -2.5
-6.346396446228027 -2.7039451599121094 -2.5
-6.108232498168945 -3.2058591842651367 -2.5
-5.514882564544678 -4.144169807434082 -2.5
-5.163525104522705 -4.57449197769165 -2.5
-4.362861156463623 -5.343544960021973 -2.5
-3.9187400341033936 -5.67727518081665 -2.5
-3.4491991996765137 -5.974189281463623 -2.5
-2.9572949409484863 -6.232363224029541 -2.5
-2.4462108612060547 -6.450126647949219 -2.5
-1.9192577600479126 -6.626044750213623 -2.5
-1.3798632621765137 -6.759003639221191 -2.5
-0.8315038681030273 -6.848105430603027 -2.5
-0.2777636647224426 -6.892802715301514 -2.5
0.8315136432647705 -6.848105430603027 -2.5
1.3798632621765137 -6.758984088897705 -2.5
2.4462108612060547 -6.450117111206055 -2.5
4.362871170043945 -5.34353494644165 -2.5
4.265068054199219 -4.440400123596191 -2.231293201446533
3.535888671875 -2.657041072845459 -1.6028796434402466
3.789140462875366 -2.3961033821105957 -1.6247164011001587
6.809072017669678 -1.106591820716858 -2.5
6.876044750213623 -0.5550878643989563 -2.5
-6.666835784912109 0.0 -2.5
-6.473105430603027 -1.59548819065094 -2.5
-6.323735237121582 -2.1111717224121094 -2.5
-5.903183460235596 -3.0982420444488525 -2.5
-5.329755783081055 -4.005048751831055 -2.5
-3.7871971130371094 -5.486689567565918 -2.5
-2.364091634750366 -6.233593463897705 -2.5
-1.854833960533142 -6.403623104095459 -2.5
-1.333535075187683 -6.53209924697876 -2.5
-0.80360347032547 -6.618222713470459 -2.5
1.854833960533142 -6.403623104095459 -2.5
2.8580174446105957 -6.023173809051514 -2.5
3.333427667617798 -5.773671627044678 -2.5
3.7872068881988525 -5.486699104309082 -2.5
3.539911985397339 -3.1360936164855957 -1.7734293937683105
3.535888671875 -2.657041072845459 -1.658555269241333
3.789140462875366 -2.396113157272339 -1.681148648262024
6.133359432220459 -2.613173723220825 -2.5
6.323750019073486 -2.1111717224121094 -2.5
6.473114967346191 -1.59548819065094 -2.5
6.580488204956055 -1.0694531202316284 -2.5
-6.365058422088623 -1.0344336032867432 -2.5
-6.261171817779541 -1.54324209690094 -2.5
-6.116689205169678 -2.042070150375366 -2.5
-5.932538986206055 -2.5276269912719727 -2.5
-5.450253963470459 -3.446523427963257 -2.5
-5.155253887176514 -3.873906135559082 -2.5
-3.663203001022339 -5.307070255279541 -2.5
-3.2242870330810547 -5.584609031677246 -2.5
-1.7941014766693115 -6.19396448135376 -2.5
-1.2898730039596558 -6.31823205947876 -2.5
-0.7772851586341858 -6.401542663574219 -2.5
-0.25965818762779236 -6.443320274353027 -2.5
0.25965818762779236 -6.443329811096191 -2.5
0.7772851586341858 -6.401533126831055 -2.5
2.764453172683716 -5.825947284698486 -2.5
4.078359127044678 -4.995097637176514 -2.5
4.46707010269165 -4.650722503662109 -2.5
4.826826095581055 -4.276181697845459 -2.5
4.445683479309082 -2.3332715034484863 -1.946468710899353
6.261181354522705 -1.5432324409484863 -2.5
6.427656173706055 -0.5188866853713989 -2.5
-6.242421627044678 9.765624781721272e-06 -2.5
-6.161581993103027 -1.001367211341858 -2.5
-6.061015605926514 -1.4939062595367432 -2.5
-5.527387619018555 -2.9009861946105957 -2.5
-5.276025295257568 -3.336357355117798 -2.5
-4.324277400970459 -4.502040863037109 -2.5
-3.5461034774780273 -5.137412071228027 -2.5
-3.1212010383605957 -5.406074047088623 -2.5
-2.6760644912719727 -5.639697074890137 -2.5
-0.7524316310882568 -6.19689416885376 -2.5
-0.25135740637779236 -6.237353324890137 -2.5
0.2513671815395355 -6.237343788146973 -2.5
1.736757755279541 -5.995956897735596 -2.5
2.2135937213897705 -5.836767673492432 -2.5
4.672519207000732 -4.139492034912109 -2.5
4.44509744644165 -2.332949161529541 -2.010483980178833
5.742900371551514 -2.4468164443969727 -2.5
5.92117166519165 -1.9767773151397705 -2.5
6.061015605926514 -1.4939062595367432 -2.5
6.161581993103027 -1.0013574361801147 -2.5
6.222177505493164 -0.5022948980331421 -2.5
-6.027763366699219 -0.48662108182907104 -2.5
-5.969062328338623 -0.9700683355331421 -2.5
-5.736147403717041 -1.9150097370147705 -2.5
-5.563457012176514 -2.370371103286743 -2.5
-4.834531307220459 -3.6329100131988525 -2.5
-4.526523113250732 -4.010146617889404 -2.5
-4.189159870147705 -4.361386775970459 -2.5
-3.435302734375 -4.976894378662109 -2.5
-3.023691415786743 -5.237187385559082 -2.5
-1.6824902296066284 -5.80862283706665 -2.5
-1.2096288204193115 -5.92516565322876 -2.5
-0.7289257645606995 -6.003281116485596 -2.5
-0.2434960901737213 -6.042470455169678 -2.5
0.24350585043430328 -6.042490005493164 -2.5
1.2096385955810547 -5.925156116485596 -2.5
2.1444334983825684 -5.654384613037109 -2.5
3.023691415786743 -5.237167835235596 -2.5
3.435302734375 -4.976894378662109 -2.5
3.824638605117798 -4.684316158294678 -2.5
4.834531307220459 -3.6329197883605957 -2.5
3.789130687713623 -2.3961033821105957 -1.8533575534820557
4.443466663360596 -2.332109212875366 -2.0745694637298584
5.563466548919678 -2.370371103286743 -2.5
5.736162185668945 -1.9150097370147705 -2.5
5.871660232543945 -1.4472460746765137 -2.5
-5.862519264221191 0.0 -2.5
-5.692152976989746 -1.4029979705810547 -2.5
-5.560810565948486 -1.856484293937683 -2.5
-5.190996170043945 -2.724443197250366 -2.5
-4.061113357543945 -4.22805643081665 -2.5
-3.707714796066284 -4.541132926940918 -2.5
-2.9312596321105957 -5.077079772949219 -2.5
-2.513232469558716 -5.296484470367432 -2.5
-2.0788769721984863 -5.481543064117432 -2.5
-0.2360546886920929 -5.857753753662109 -2.5
0.23606444895267487 -5.857773303985596 -2.5
0.7066503763198853 -5.819755554199219 -2.5
1.6310644149780273 -5.631044864654541 -2.5
2.0788769721984863 -5.481552600860596 -2.5
2.9312596321105957 -5.077089786529541 -2.5
3.3303027153015137 -4.824755668640137 -2.5
3.7077245712280273 -4.541122913360596 -2.5
4.388154029846191 -3.887568235397339 -2.5
4.194316387176514 -2.6523241996765137 -2.116227865219116
4.440253734588623 -2.3304197788238525 -2.1384353637695312
5.69216775894165 -1.4029979705810547 -2.5
5.786601543426514 -0.9404101371765137 -2.5
-5.66857385635376 -0.4576171636581421 -2.5
-5.613368988037109 -0.9122753739356995 -2.5
-5.521762371063232 -1.3609960079193115 -2.5
-5.231943130493164 -2.2291111946105957 -2.5
-5.035605430603027 -2.642880916595459 -2.5
-4.806611061096191 -3.0395214557647705 -2.5
-3.9395408630371094 -4.101484298706055 -2.5
-3.5967187881469727 -4.405175685882568 -2.5
-2.843515634536743 -4.925097465515137 -2.5
-2.016650438308716 -5.317451000213623 -2.5
-0.6854882836341858 -5.645546913146973 -2.5
2.016650438308716 -5.317441463470459 -2.5
2.437978506088257 -5.137939453125 -2.5
3.230595588684082 -4.680322170257568 -2.5
3.5967283248901367 -4.405204772949219 -2.5
3.9395408630371094 -4.101484298706055 -2.5
4.228408336639404 -2.673877000808716 -2.1992642879486084
4.437001705169678 -2.3287205696105957 -2.2028164863586426
5.231953144073486 -2.229120969772339 -2.5
5.521777153015137 -1.360986351966858 -2.5
5.613379001617432 -0.9122655987739563 -2.5
-5.502265453338623 -0.44416990876197815 -2.5
-5.448671817779541 -0.8854882717132568 -2.5
-5.078427791595459 -2.163710832595825 -2.5
-4.413046836853027 -3.3161914348602295 -2.5
-3.491201162338257 -4.275937557220459 -2.5
-2.760077953338623 -4.780605316162109 -2.5
-1.9574706554412842 -5.161445140838623 -2.5
-1.5358006954193115 -5.302206993103027 -2.5
-1.1041796207427979 -5.408593654632568 -2.5
0.22227539122104645 -5.515683650970459 -2.5
1.1041796207427979 -5.408593654632568 -2.5
1.5358104705810547 -5.302206993103027 -2.5
3.13580060005188 -4.54299783706665 -2.5
3.491201162338257 -4.275937557220459 -2.5
3.8239452838897705 -3.981152296066284 -2.5
4.413056373596191 -3.3161914348602295 -2.5
4.665585994720459 -2.950331926345825 -2.5
4.432323932647705 -2.3262596130371094 -2.2670059204101562
5.078437328338623 -2.163701057434082 -2.5
5.448671817779541 -0.8854882717132568 -2.5
-5.361259460449219 0.0 -2.5
-5.343886375427246 -0.431396484375 -2.5
-5.291840553283691 -0.8599902391433716 -2.5
-4.932246208190918 -2.1014256477355957 -2.5
-4.747168064117432 -2.4914941787719727 -2.5
-4.531289100646973 -2.865410089492798 -2.5
-3.390702962875366 -4.15286111831665 -2.5
-3.045546770095825 -4.412236213684082 -2.5
-2.6806347370147705 -4.642988204956055 -2.5
-1.9011328220367432 -5.012870788574219 -2.5
-1.491601586341858 -5.149589538574219 -2.5
-1.0723925828933716 -5.252919673919678 -2.5
-0.6462304592132568 -5.322177410125732 -2.5
-0.2158789038658142 -5.356923580169678 -2.5
0.6462304592132568 -5.322167873382568 -2.5
1.0723925828933716 -5.252919673919678 -2.5
1.901123046875 -5.012880802154541 -2.5
3.0455565452575684 -4.412226676940918 -2.5
3.7138867378234863 -3.8665623664855957 -2.5
4.01296854019165 -3.555185556411743 -2.5
4.286035060882568 -3.2207324504852295 -2.5
4.427558422088623 -2.3237597942352295 -2.3316805362701416
4.932265281677246 -2.101435422897339 -2.5
5.205488204956055 -1.2830272912979126 -2.5
5.291845798492432 -0.85999995470047 -2.5
