ply
format ascii 1.0
element vertex 783
property float x
property float y
property float z
end_header
20.100210189819336 17.807279586791992 7.195409297943115
22.43889617919922 -2.441406195430318e-06 5.746753215789795
20.518592834472656 18.177936553955078 7.0205535888671875
15.063490867614746 18.449462890625 6.099923133850098
17.46827507019043 18.186429977416992 6.161258220672607
11.235639572143555 19.460723876953125 5.490446090698242
20.518598556518555 18.177936553955078 6.376709461212158
12.306415557861328 17.82895278930664 5.039422512054443
11.235639572143555 19.46072769165039 5.227268695831299
17.112079620361328 17.815589904785156 5.458488464355469
12.30642032623291 17.82895278930664 4.787005424499512
11.235639572143555 19.460725784301758 4.965443134307861
25.99710464477539 0.0 5.4431047439575195
20.100210189819336 17.807279586791992 5.622438430786133
17.112060546875 17.815589904785156 5.172065258026123
12.306425094604492 17.82895278930664 4.535820007324219
11.235639572143555 19.460723876953125 4.704893112182617
11.2474365234375 23.70353889465332 5.493260860443115
-18.14791488647461 11.476049423217773 4.495665073394775
12.306425094604492 17.828956604003906 4.285803318023682
27.71456527709961 -2.441406195430318e-06 5.164391994476318
20.100210189819336 17.807281494140625 5.003965377807617
12.30642032623291 17.828956604003906 4.036877155303955
11.235600471496582 19.460681915283203 4.187341213226318
11.247431755065918 23.70354461669922 4.888998508453369
20.100210189819336 17.807281494140625 4.696675777435303
17.112064361572266 17.815597534179688 4.320461750030518
14.55178165435791 17.82271385192871 4.024211406707764
12.30642032623291 17.828956604003906 3.7889769077301025
11.235605239868164 19.46066665649414 3.930198907852173
25.49289894104004 0.0 4.168097496032715
20.1002140045166 17.80728530883789 4.390577793121338
12.462133407592773 18.054533004760742 3.58685040473938
11.235600471496582 19.460662841796875 3.6740527153015137
11.247397422790527 23.703466415405273 4.289688587188721
24.363666534423828 -3.662109293145477e-06 3.7067527770996094
23.683895111083984 17.797311782836914 4.507307052612305
20.100204467773438 17.80728530883789 4.0855889320373535
14.910234451293945 18.261754989624023 3.58685040473938
11.247397422790527 23.70347023010254 3.9917075634002686
23.683910369873047 17.79731559753418 4.171968936920166
20.1002140045166 17.80728530883789 3.7816197872161865
17.46827507019043 18.186433792114258 3.5511131286621094
14.854677200317383 18.193695068359375 3.307620048522949
12.56258773803711 18.2000675201416 3.114272356033325
11.247397422790527 23.703475952148438 3.6947288513183594
25.980438232421875 0.0 3.3654894828796387
20.518598556518555 18.177942276000977 3.5510125160217285
15.063486099243164 18.449466705322266 3.0853545665740967
11.866826057434082 20.55397605895996 3.0744457244873047
20.51860237121582 18.177942276000977 3.2425732612609863
17.713851928710938 18.442106246948242 3.024770975112915
12.56258773803711 18.200069427490234 2.615899085998535
20.51860237121582 18.177942276000977 2.6280357837677
12.30642032623291 17.828956604003906 2.0768980979919434
11.235600471496582 19.46066665649414 2.154308319091797
20.51860237121582 18.177942276000977 2.3217837810516357
12.30642032623291 17.828956604003906 1.8348735570907593
11.235600471496582 19.46066665649414 1.9032622575759888
11.879281997680664 25.035139083862305 2.347017765045166
20.1002140045166 17.80728530883789 1.9749990701675415
14.55178165435791 17.82271385192871 1.692219853401184
14.551786422729492 17.822715759277344 1.4360690116882324
12.306415557861328 17.828956604003906 1.352123737335205
11.235605239868164 19.460662841796875 1.4025192260742188
11.247397422790527 23.703475952148438 1.6375304460525513
20.1002140045166 17.80728530883789 1.3775005340576172
17.112085342407227 17.815597534179688 1.2671597003936768
14.551786422729492 17.822717666625977 1.1802716255187988
12.30642032623291 17.828956604003906 1.111279010772705
11.235600471496582 19.46066665649414 1.152698040008545
23.68390655517578 17.79731559753418 1.1907033920288086
20.1002140045166 17.80728530883789 1.0792968273162842
14.55178165435791 17.822717666625977 0.924764096736908
11.235570907592773 19.460615158081055 0.9031573534011841
11.247397422790527 23.703466415405273 1.054496169090271
23.683910369873047 17.797321319580078 0.8620126247406006
20.1002140045166 17.807289123535156 0.7813595533370972
20.1002140045166 17.807289123535156 0.4836135804653168
14.551786422729492 17.822717666625977 0.41437041759490967
12.306425094604492 17.828960418701172 0.3901483118534088
23.683910369873047 17.797321319580078 0.20518462359905243
20.1002140045166 17.807289123535156 0.18598632514476776
17.112085342407227 17.815597534179688 0.1710885614156723
11.247363090515137 23.703399658203125 0.18171173334121704
11.879247665405273 25.035051345825195 -0.11515777558088303
12.739198684692383 18.455936431884766 -0.3417254686355591
11.609193801879883 20.107744216918945 -0.3538058400154114
16.945585250854492 17.642271041870117 -0.643951416015625
14.854677200317383 18.193700790405273 -0.6182993650436401
15.063490867614746 18.449472427368164 -0.8912023901939392
12.56258773803711 18.2000732421875 -0.8274743556976318
11.609193801879883 20.10774040222168 -0.8687711954116821
18.852479934692383 19.627538681030273 -1.3204548358917236
17.112064361572266 17.815595626831055 -1.473097801208496
14.551786422729492 17.822717666625977 -1.3720901012420654
12.56258773803711 18.2000732421875 -1.3187757730484009
-19.139808654785156 16.95639419555664 -1.5248559713363647
14.551776885986328 17.822717666625977 -1.6281472444534302
12.306425094604492 17.828960418701172 -1.5329742431640625
-0.9046874642372131 22.449331283569336 -1.589849829673767
-19.139808654785156 16.95639419555664 -1.8094217777252197
-15.054174423217773 9.519674301147461 -1.2603816986083984
25.382715225219727 2.049123525619507 -2.0858187675476074
26.36788558959961 11.234318733215332 -2.347599983215332
21.37409210205078 18.93584442138672 -2.338927984237671
12.306425094604492 17.828960418701172 -1.7744393348693848
11.247367858886719 23.703399658203125 -2.1489880084991455
3.4547362327575684 28.45235824584961 -2.347599983215332
1.1540380716323853 28.638090133666992 -2.347599983215332
-7.974096298217773 27.52974510192871 -2.347599983215332
-19.854448318481445 20.670679092407227 -2.347599983215332
26.860145568847656 6.103515261202119e-06 -2.5
26.773061752319336 2.161374568939209 -2.5
22.333627700805664 11.721610069274902 -2.347599983215332
20.164119720458984 15.15239143371582 -2.347599983215332
12.306425094604492 17.828960418701172 -2.0163509845733643
11.235570907592773 19.46060562133789 -2.0914969444274902
8.944101333618164 23.58368682861328 -2.347599983215332
7.017406940460205 24.226911544799805 -2.347599983215332
5.04519510269165 24.713037490844727 -2.347599983215332
3.0402488708496094 25.038869857788086 -2.347599983215332
1.0155810117721558 25.202314376831055 -2.347599983215332
-3.040297746658325 25.038862228393555 -2.347599983215332
-8.944106101989746 23.58367156982422 -2.347599983215332
-12.611391067504883 21.843542098999023 -2.347599983215332
-14.328197479248047 20.757904052734375 -2.347599983215332
-17.4724063873291 18.190715789794922 -2.347599983215332
-18.879497528076172 16.725786209106445 -2.347599983215332
-15.0562744140625 9.52099609375 -1.6580352783203125
-23.783510208129883 12.48252010345459 -2.5
-25.47786521911621 8.505743980407715 -2.5
-26.51230812072754 4.308685302734375 -2.5
-26.773061752319336 2.161336660385132 -2.5
23.97758674621582 6.103515261202119e-06 -2.5
23.899808883666992 1.9294017553329468 -2.5
23.66709327697754 3.846299886703491 -2.5
23.28084373474121 5.73823356628418 -2.5
19.936830520629883 10.463679313659668 -2.347599983215332
18.00015640258789 13.526251792907715 -2.347599983215332
16.853378295898438 14.930830955505371 -2.347599983215332
15.597299575805664 16.238542556762695 -2.347599983215332
14.24007797241211 17.440948486328125 -2.347599983215332
12.306425094604492 17.828962326049805 -2.2587544918060303
11.235570907592773 19.460607528686523 -2.3429341316223145
9.652382850646973 20.341997146606445 -2.347599983215332
7.98424768447876 21.05274772644043 -2.347599983215332
0.9065966606140137 22.49763298034668 -2.347599983215332
-0.9066405892372131 22.497665405273438 -2.347599983215332
-11.257973670959473 19.49934959411621 -2.347599983215332
-14.2401123046875 17.44093894958496 -2.347599983215332
-15.597357749938965 16.238536834716797 -2.347599983215332
-16.853384017944336 14.930797576904297 -2.347599983215332
-15.057055473327637 9.521492958068848 -1.8574596643447876
-22.05891990661621 9.398405075073242 -2.5
-22.743637084960938 7.592928409576416 -2.5
21.648881912231445 6.103515261202119e-06 -2.5
21.3685245513916 3.4727439880371094 -2.5
21.019800186157227 5.18093729019165 -2.5
20.347049713134766 6.7928595542907715 -2.477149486541748
18.702417373657227 7.968360424041748 -2.347599983215332
18.00057029724121 9.44744873046875 -2.347599983215332
17.181997299194336 10.865262985229492 -2.347599983215332
16.251996994018555 12.212599754333496 -2.347599983215332
14.082499504089355 14.661458015441895 -2.347599983215332
12.857074737548828 15.747087478637695 -2.347599983215332
10.16455078125 17.605606079101562 -2.347599983215332
7.208784103393555 19.008153915405273 -2.347599983215332
5.655898094177246 19.52656364440918 -2.347599983215332
2.450395345687866 20.180957794189453 -2.347599983215332
0.8185449242591858 20.31267547607422 -2.347599983215332
-4.066391468048096 19.918338775634766 -2.347599983215332
-5.655951976776123 19.526546478271484 -2.347599983215332
-10.164594650268555 17.605579376220703 -2.347599983215332
-12.857104301452637 15.747071266174316 -2.347599983215332
-20.534770965576172 6.855504035949707 -2.5
-21.01985740661621 5.180920124053955 -2.5
-21.368549346923828 3.472731828689575 -2.5
19.72795867919922 4.882812390860636e-06 -2.5
19.154726028442383 4.721230506896973 -2.5
16.403379440307617 8.609172821044922 -2.347599983215332
15.657426834106445 9.901187896728516 -2.347599983215332
14.80996036529541 11.12897777557373 -2.347599983215332
13.86642074584961 12.284602165222168 -2.347599983215332
12.832953453063965 13.360544204711914 -2.347599983215332
11.716249465942383 14.349848747253418 -2.347599983215332
7.941659927368164 16.736759185791016 -2.347599983215332
2.232973575592041 18.390283584594727 -2.347599983215332
-3.705576181411743 18.150964736938477 -2.347599983215332
-5.154096603393555 17.7939453125 -2.347599983215332
-7.941674709320068 16.736757278442383 -2.347599983215332
-9.262700080871582 16.04357147216797 -2.347599983215332
-10.523637771606445 15.246063232421875 -2.347599983215332
-11.716283798217773 14.34984016418457 -2.347599983215332
-13.866469383239746 12.284560203552246 -2.347599983215332
-17.4682559967041 9.168036460876465 -2.5
-19.15473175048828 4.721211910247803 -2.5
-19.472503662109375 3.164599657058716 -2.5
-19.66400909423828 1.587435245513916 -2.5
17.589624404907227 4.335472106933594 -2.5
17.183719635009766 5.736782073974609 -2.5
15.063090324401855 7.905728816986084 -2.347599983215332
14.378105163574219 9.092182159423828 -2.347599983215332
11.784399032592773 12.26888656616211 -2.347599983215332
8.505839347839355 14.732563972473145 -2.347599983215332
7.292768478393555 15.369229316711426 -2.347599983215332
6.032412052154541 15.906216621398926 -2.347599983215332
0.6849755644798279 16.997901916503906 -2.347599983215332
-2.050546884536743 16.887657165527344 -2.347599983215332
-3.4028124809265137 16.66789436340332 -2.347599983215332
-4.732958793640137 16.340044021606445 -2.347599983215332
-6.032436370849609 15.90621280670166 -2.347599983215332
-8.505844116210938 14.732563018798828 -2.347599983215332
-9.6637544631958 14.000341415405273 -2.347599983215332
-11.784428596496582 12.268878936767578 -2.347599983215332
-12.733451843261719 11.280845642089844 -2.347599983215332
-16.6663818359375 7.100881099700928 -2.5
-17.183734893798828 5.736773490905762 -2.5
-18.05731964111328 1.45773184299469 -2.5
16.6894474029541 1.347322940826416 -2.5
16.526918411254883 2.685905694961548 -2.5
16.2571964263916 4.007056713104248 -2.5
13.974174499511719 7.334225177764893 -2.35638689994812
13.28896427154541 8.403447151184082 -2.347599983215332
12.56966781616211 9.44550609588623 -2.347599983215332
10.8917236328125 11.33951187133789 -2.347599983215332
8.931708335876465 12.939826011657715 -2.347599983215332
6.740331649780273 14.205005645751953 -2.347599983215332
5.575444221496582 14.70131778717041 -2.347599983215332
4.374423503875732 15.102282524108887 -2.347599983215332
3.145009756088257 15.405305862426758 -2.347599983215332
1.8951854705810547 15.608421325683594 -2.347599983215332
0.6330810189247131 15.710306167602539 -2.347599983215332
-0.6331152319908142 15.710305213928223 -2.347599983215332
-3.1450438499450684 15.40530014038086 -2.347599983215332
-5.575478553771973 14.701315879821777 -2.347599983215332
-9.9439697265625 12.17914867401123 -2.347599983215332
-7.890717506408691 8.215118408203125 -1.7007622718811035
-13.288989067077637 8.40345573425293 -2.347599983215332
-16.526918411254883 2.6858935356140137 -2.5
15.561068534851074 2.441406195430318e-06 -2.5
15.510604858398438 1.2521557807922363 -2.5
15.359550476074219 2.4961888790130615 -2.5
15.108891487121582 3.724024534225464 -2.5
14.760258674621582 4.927704811096191 -2.5
14.315878868103027 6.099431037902832 -2.5
13.745512008666992 7.214212417602539 -2.4939873218536377
10.937567710876465 9.6898775100708 -2.347599983215332
10.122397422790527 10.538564682006836 -2.347599983215332
8.300825119018555 12.02584171295166 -2.347599983215332
7.306235313415527 12.654786109924316 -2.347599983215332
4.065439224243164 14.035557746887207 -2.347599983215332
0.5883593559265137 14.600629806518555 -2.347599983215332
-2.922900438308716 14.31717300415039 -2.347599983215332
-4.065478324890137 14.035551071166992 -2.347599983215332
-5.181664943695068 13.662904739379883 -2.347599983215332
-7.878422737121582 8.202311515808105 -1.8271703720092773
-10.937602043151855 9.689876556396484 -2.347599983215332
-11.681859970092773 8.778332710266113 -2.347599983215332
-12.350337028503418 7.809871196746826 -2.347599983215332
-14.76027774810791 4.927693843841553 -2.5
-15.359603881835938 2.496177911758423 -2.5
14.483935356140137 1.1692724227905273 -2.5
13.368270874023438 5.69569206237793 -2.5
11.596875190734863 7.333437442779541 -2.3606412410736084
9.452383041381836 9.840985298156738 -2.347599983215332
8.629853248596191 10.569677352905273 -2.347599983215332
7.751362323760986 11.229811668395996 -2.347599983215332
6.822607040405273 11.81712532043457 -2.347599983215332
4.838666915893555 12.758522987365723 -2.347599983215332
3.796332836151123 13.106502532958984 -2.347599983215332
-0.5494482517242432 13.634174346923828 -2.347599983215332
-1.6447705030441284 13.545746803283691 -2.347599983215332
-2.729423761367798 13.369474411010742 -2.347599983215332
-5.849614143371582 12.32779598236084 -2.347599983215332
-6.822612285614014 11.817121505737305 -2.347599983215332
-7.751381874084473 11.229806900024414 -2.347599983215332
-10.213618278503418 9.048458099365234 -2.347599983215332
-10.908597946166992 8.197275161743164 -2.347599983215332
-11.734955787658691 7.420729637145996 -2.3887441158294678
-13.3682861328125 5.695683479309082 -2.5
-13.783256530761719 4.601511001586914 -2.5
-14.3428955078125 2.330949544906616 -2.5
13.581488609313965 1.0964171886444092 -2.5
12.9244384765625 4.314822673797607 -2.5
12.535322189331055 5.340811729431152 -2.5
11.484785079956055 7.2625627517700195 -2.4931676387786865
10.228891372680664 7.686534404754639 -2.347599983215332
8.86342716217041 9.227824211120605 -2.347599983215332
8.092153549194336 9.911111831665039 -2.347599983215332
6.397504806518555 11.080841064453125 -2.347599983215332
3.559804677963257 12.289877891540527 -2.347599983215332
2.559330940246582 12.536470413208008 -2.347599983215332
-0.515209972858429 12.784676551818848 -2.347599983215332
-1.5422850847244263 12.70175838470459 -2.347599983215332
-2.5593602657318115 12.536466598510742 -2.347599983215332
-8.0921630859375 9.911110877990723 -2.347599983215332
-9.577231407165527 8.48469066619873 -2.347599983215332
-10.228910446166992 7.686524391174316 -2.347599983215332
-11.489262580871582 7.2653679847717285 -2.4941329956054688
-12.924467086791992 4.314813137054443 -2.5
-13.22976016998291 3.2608397006988525 -2.5
-13.44924259185791 2.1857151985168457 -2.5
-13.58150863647461 1.0964062213897705 -2.5
12.65737247467041 2.0570409297943115 -2.5
12.4508056640625 3.068864583969116 -2.5
11.35457992553711 5.959360122680664 -2.5
6.020849704742432 10.42844295501709 -2.347599983215332
4.270053386688232 11.259214401245117 -2.347599983215332
2.408642530441284 11.79837417602539 -2.347599983215332
1.451454997062683 11.95393180847168 -2.347599983215332
-0.48487791419029236 12.031964302062988 -2.347599983215332
-1.451479434967041 11.953930854797363 -2.347599983215332
-2.4086766242980957 11.798372268676758 -2.347599983215332
-3.3502490520477295 11.56629467010498 -2.347599983215332
-4.270078182220459 11.259211540222168 -2.347599983215332
-6.0208740234375 10.428442001342773 -2.347599983215332
-6.84048318862915 9.910140037536621 -2.347599983215332
-7.841469764709473 8.163846015930176 -2.2068471908569336
-10.8382568359375 6.853692531585693 -2.5
-12.163530349731445 4.06077241897583 -2.5
12.0682373046875 0.9742565751075745 -2.5
11.138651847839355 4.74574089050293 -2.5
8.5101318359375 7.539341926574707 -2.347599983215332
7.190532207489014 8.806825637817383 -2.347599983215332
6.458554744720459 9.356866836547852 -2.347599983215332
5.684697151184082 9.84622573852539 -2.347599983215332
0.4577929675579071 11.360217094421387 -2.347599983215332
-2.2742040157318115 11.139663696289062 -2.347599983215332
-3.163203001022339 10.920546531677246 -2.347599983215332
-4.031674861907959 10.630607604980469 -2.347599983215332
-4.873993873596191 10.271723747253418 -2.347599983215332
-5.68472146987915 9.84621524810791 -2.347599983215332
-7.190541744232178 8.806822776794434 -2.347599983215332
-7.829135417938232 8.150997161865234 -2.33366322517395
-11.755698204040527 2.8975157737731934 -2.5
11.3160400390625 1.8390514850616455 -2.5
10.874496459960938 3.6304478645324707 -2.5
10.547103881835938 4.493711948394775 -2.5
9.689692497253418 6.12739896774292 -2.5
9.163569450378418 6.885984420776367 -2.4995503425598145
7.457607269287109 7.764210224151611 -2.347599983215332
4.615146160125732 9.726223945617676 -2.347599983215332
2.99517560005188 10.340590476989746 -2.347599983215332
2.153388738632202 10.548070907592773 -2.347599983215332
-2.1534276008605957 10.54806900024414 -2.347599983215332
-2.9952147006988525 10.340585708618164 -2.347599983215332
-3.81756329536438 10.066045761108398 -2.347599983215332
-5.382822036743164 9.323311805725098 -2.347599983215332
-8.2677001953125 7.324549198150635 -2.4086365699768066
-9.163578987121582 6.885978698730469 -2.4995505809783936
-9.689702033996582 6.127388954162598 -2.5
-10.874516487121582 3.630439281463623 -2.5
-11.316059112548828 1.8390440940856934 -2.5
10.742749214172363 1.745880126953125 -2.5
10.567421913146973 2.604649543762207 -2.5
10.012787818908691 4.266054630279541 -2.5
9.198783874511719 5.816972732543945 -2.5
8.700888633728027 6.538308143615723 -2.5
8.12770938873291 7.200549125671387 -2.4942188262939453
5.110112190246582 8.85098648071289 -2.347599983215332
4.381323337554932 9.233473777770996 -2.347599983215332
3.6241307258605957 9.5560884475708 -2.347599983215332
2.843432664871216 9.816717147827148 -2.347599983215332
2.0442967414855957 10.013693809509277 -2.347599983215332
0.41151854395866394 10.211941719055176 -2.347599983215332
-2.044326066970825 10.013689994812012 -2.347599983215332
-4.381337642669678 9.233474731445312 -2.347599983215332
-6.463754653930664 7.916645526885986 -2.347599983215332
-7.079799652099609 7.370859146118164 -2.347599983215332
-9.637045860290527 5.057905197143555 -2.5
-10.012787818908691 4.266042232513428 -2.5
-10.323598861694336 3.4465136528015137 -2.5
-10.567456245422363 2.6046385765075684 -2.5
-10.742768287658691 1.7458727359771729 -2.5
-10.84842300415039 0.8757727146148682 -2.5
10.356337547302246 1.220703097715159e-06 -2.5
10.322758674621582 0.8333495855331421 -2.5
10.055419921875 2.478447198867798 -2.5
9.170097351074219 4.812841892242432 -2.5
8.279301643371582 6.221504211425781 -2.5
7.751420497894287 6.86718225479126 -2.4998691082000732
7.028100490570068 7.317050457000732 -2.449129343032837
5.524428367614746 8.003544807434082 -2.347599983215332
4.169037818908691 8.786084175109863 -2.347599983215332
3.4485349655151367 9.093063354492188 -2.347599983215332
2.7056639194488525 9.341068267822266 -2.347599983215332
1.9452391862869263 9.528493881225586 -2.347599983215332
0.39158689975738525 9.717141151428223 -2.347599983215332
-0.39159178733825684 9.717142105102539 -2.347599983215332
-1.1722314357757568 9.65412425994873 -2.347599983215332
-1.9452685117721558 9.528493881225586 -2.347599983215332
-2.705693244934082 9.34106731414795 -2.347599983215332
-4.1690673828125 8.78608226776123 -2.347599983215332
-4.862519264221191 8.422123908996582 -2.347599983215332
-5.524457931518555 8.003538131713867 -2.347599983215332
-7.028110027313232 7.317049980163574 -2.4491302967071533
-7.751420497894287 6.867175102233887 -2.4998691082000732
-8.279311180114746 6.221497535705566 -2.5
-9.1701021194458 4.812831878662109 -2.5
-9.527631759643555 4.059340953826904 -2.5
-9.823373794555664 3.2795238494873047 -2.5
-10.055424690246582 2.478433847427368 -2.5
9.875297546386719 2.441406195430318e-06 -2.5
9.58834457397461 2.363321542739868 -2.5
9.085073471069336 3.870790958404541 -2.5
8.346498489379883 5.278017520904541 -2.5
7.894726276397705 5.93251371383667 -2.5
5.982402324676514 7.3271379470825195 -2.394657611846924
5.267831802368164 7.631782054901123 -2.347599983215332
4.636645317077637 8.030916213989258 -2.347599983215332
3.288344621658325 8.670690536499023 -2.347599983215332
1.8548827171325684 9.085894584655762 -2.347599983215332
1.1177587509155273 9.205690383911133 -2.347599983215332
-0.37340331077575684 9.26578426361084 -2.347599983215332
-1.1177831888198853 9.2056884765625 -2.347599983215332
-3.2883739471435547 8.670687675476074 -2.347599983215332
-3.975414991378784 8.377968788146973 -2.347599983215332
-4.636655330657959 8.030912399291992 -2.347599983215332
-5.267846584320068 7.631772518157959 -2.347599983215332
-6.829233169555664 7.109994888305664 -2.495753526687622
-7.391762733459473 6.548538684844971 -2.5
-7.894741058349609 5.932509422302246 -2.5
-8.346498489379883 5.27801513671875 -2.5
-9.367074966430664 3.127189874649048 -2.5
-9.58834457397461 2.363311767578125 -2.5
-9.747416496276855 1.5841137170791626 -2.5
-9.84328556060791 0.79463130235672 -2.5
9.160444259643555 2.2578539848327637 -2.5
8.94906234741211 2.987642765045166 -2.5
7.974018573760986 5.042478084564209 -2.5
7.542417049407959 5.667769432067871 -2.5
6.535556316375732 6.804262638092041 -2.5
5.061830997467041 7.333339691162109 -2.3611674308776855
3.141596555709839 8.283751487731934 -2.347599983215332
1.7721093893051147 8.680424690246582 -2.347599983215332
-0.3567431569099426 8.852285385131836 -2.347599983215332
-1.0679004192352295 8.794873237609863 -2.347599983215332
-4.429731369018555 7.672523498535156 -2.347599983215332
-5.013827800750732 7.263774394989014 -2.3387701511383057
-6.535585880279541 6.804259300231934 -2.5
-7.061899185180664 6.256298065185547 -2.5
-7.542417049407959 5.667766094207764 -2.5
-8.679643630981445 3.6980443000793457 -2.5
-8.949057579040527 2.987635374069214 -2.5
-9.404008865356445 0.75916987657547 -2.5
9.029276847839355 2.441406195430318e-06 -2.5
9.0 0.7265625 -2.5
8.912353515625 1.4484069347381592 -2.5
8.56459903717041 2.859290599822998 -2.5
7.995019435882568 4.19611930847168 -2.5
6.758495807647705 5.98753023147583 -2.5
5.049086570739746 7.314863204956055 -2.4609427452087402
4.223481178283691 7.315287113189697 -2.3387701511383057
2.358954906463623 8.14409065246582 -2.347599983215332
1.6959764957427979 8.307504653930664 -2.347599983215332
1.0219922065734863 8.417037963867188 -2.347599983215332
0.3414013683795929 8.471973419189453 -2.347599983215332
-0.34141600131988525 8.4719820022583 -2.347599983215332
-1.0220214128494263 8.417030334472656 -2.347599983215332
-2.3589794635772705 8.144088745117188 -2.347599983215332
-3.634838819503784 7.660226821899414 -2.347599983215332
-5.70556640625 6.988031387329102 -2.4978208541870117
-6.254814147949219 6.511942386627197 -2.5
-6.758520126342773 5.987519264221191 -2.5
-7.99502420425415 4.196110725402832 -2.5
-8.766899108886719 2.160850763320923 -2.5
8.543070793151855 1.3883898258209229 -2.5
8.209721565246582 2.740821361541748 -2.5
7.962563514709473 3.392531633377075 -2.5
7.663749694824219 4.022254467010498 -2.5
6.919286727905273 5.199520111083984 -2.5
6.478461742401123 5.739438533782959 -2.5
5.995615005493164 6.242120742797852 -2.5
5.473886489868164 6.704326629638672 -2.5
4.908295631408691 7.110910892486572 -2.4957382678985596
4.048476696014404 7.012179851531982 -2.3387701511383057
3.4710986614227295 7.31520938873291 -2.3387701511383057
2.8820507526397705 7.599379062652588 -2.347599983215332
0.9796435236930847 8.068276405334473 -2.347599983215332
0.32725584506988525 8.120943069458008 -2.347599983215332
-0.3272705078125 8.120943069458008 -2.347599983215332
-1.625732421875 7.963285446166992 -2.347599983215332
-2.882075071334839 7.599379062652588 -2.347599983215332
-3.480058431625366 7.334030628204346 -2.3447890281677246
-5.473916053771973 6.7043280601501465 -2.5
-6.478481292724609 5.739430904388428 -2.5
-7.315248966217041 4.625881195068359 -2.5
-7.663754940032959 4.02224588394165 -2.5
-7.962563514709473 3.392524242401123 -2.5
-8.543070793151855 1.3883898258209229 -2.5
-8.627084732055664 0.6964501738548279 -2.5
8.308671951293945 2.441406195430318e-06 -2.5
8.281723022460938 0.6685778498649597 -2.5
8.067235946655273 1.9884068965911865 -2.5
7.643808364868164 3.256728410720825 -2.5
7.356953144073486 3.861238956451416 -2.5
6.219120979309082 5.509682655334473 -2.5
4.719858169555664 6.8379082679748535 -2.5
0.31416013836860657 7.7958550453186035 -2.347599983215332
-0.9404540657997131 7.745294570922852 -2.347599983215332
-2.7739648818969727 7.31430721282959 -2.353760004043579
-3.4246532917022705 7.21727991104126 -2.4036831855773926
-3.9760398864746094 6.886671543121338 -2.3926925659179688
-4.584550857543945 6.641857624053955 -2.4283227920532227
-5.25478982925415 6.435945987701416 -2.5
-6.642314434051514 4.991370677947998 -2.5
-7.022397518157959 4.440705299377441 -2.5
-8.067240715026855 1.9883984327316284 -2.5
-8.201079368591309 1.3328124284744263 -2.5
7.98681116104126 1.220703097715159e-06 -2.5
7.960912704467773 0.6426794528961182 -2.5
6.7503662109375 4.268687725067139 -2.5
5.978202819824219 5.29624605178833 -2.5
5.532636642456055 5.760112285614014 -2.5
5.051225662231445 6.18663215637207 -2.5
4.525478363037109 6.55629301071167 -2.4936363697052
3.8296239376068115 6.633116245269775 -2.3974690437316895
3.315126895904541 6.986509323120117 -2.420595407485962
2.7276220321655273 7.192177772521973 -2.4077272415161133
0.9039990305900574 7.445252895355225 -2.347599983215332
0.30199217796325684 7.493853569030762 -2.347599983215332
-0.302001953125 7.4938578605651855 -2.347599983215332
-1.4970165491104126 7.332801342010498 -2.3426265716552734
-2.107900381088257 7.277266502380371 -2.3715343475341797
-3.3369481563568115 7.032449722290039 -2.4365122318267822
-3.92107892036438 6.791474342346191 -2.454707622528076
-5.532660961151123 5.760114669799805 -2.5
-7.754731178283691 1.9113720655441284 -2.5
-7.883373737335205 1.2811754941940308 -2.5
-7.960912704467773 0.6426708698272705 -2.5
7.686957836151123 1.220703097715159e-06 -2.5
7.662026405334473 0.6185497641563416 -2.5
7.587411880493164 1.2330834865570068 -2.5
7.291357040405273 2.4342174530029297 -2.5
6.145268440246582 4.617887020111084 -2.5
5.753754615783691 5.097405910491943 -2.5
3.242075204849243 6.832551002502441 -2.459594249725342
2.657705068588257 7.00782585144043 -2.4375245571136475
1.4736864566802979 7.218650817871094 -2.396115303039551
-2.0711424350738525 7.150379657745361 -2.421077251434326
-2.659228563308716 7.011777400970459 -2.4388999938964844
-4.861591815948486 5.954363822937012 -2.5
-6.14529275894165 4.617880821228027 -2.5
-6.4969482421875 4.108422756195068 -2.5
-6.806459903717041 3.5723047256469727 -2.5
-7.291352272033691 2.434213876724243 -2.5
-7.587407112121582 1.2330785989761353 -2.5
7.4068603515625 1.220703097715159e-06 -2.5
7.382846355438232 0.5960119366645813 -2.5
7.191635608673096 1.7725878953933716 -2.5
6.558452129364014 3.442148447036743 -2.5
6.260200023651123 3.9587278366088867 -2.5
4.207578182220459 6.095738410949707 -2.5
3.6800732612609863 6.37407922744751 -2.4842300415039062
2.014833927154541 6.956025123596191 -2.4443349838256836
1.4409667253494263 7.058413028717041 -2.431525230407715
0.8653075695037842 7.126591205596924 -2.4230635166168213
0.2885693311691284 7.160830020904541 -2.4189157485961914
-0.28859373927116394 7.161269187927246 -2.4190638065338135
-0.86549311876297 7.127898216247559 -2.423508644104004
-1.4414403438568115 7.06057071685791 -2.4322688579559326
-2.0157177448272705 6.959000587463379 -2.445380449295044
-2.587534189224243 6.822764873504639 -2.4628965854644775
-3.144477367401123 6.626827716827393 -2.4757471084594727
-4.207602500915527 6.095734596252441 -2.5
-4.684438228607178 5.737402439117432 -2.5
-5.544116020202637 4.911664962768555 -2.5
-6.260224342346191 3.958721876144409 -2.5
-7.191635608673096 1.772581696510315 -2.5
-7.31094217300415 1.188149333000183 -2.5
-7.382856369018555 0.5960058569908142 -2.5
7.144579887390137 2.441406195430318e-06 -2.5
7.121406078338623 0.5749072432518005 -2.5
6.572865962982178 2.800442934036255 -2.5
6.038520336151123 3.818544864654541 -2.5
5.711674690246582 4.292060375213623 -2.5
5.347783088684082 4.737741470336914 -2.5
4.949223518371582 5.152697563171387 -2.5
4.518559455871582 5.534238338470459 -2.5
3.572280168533325 6.187395095825195 -2.5
3.044692277908325 6.416576385498047 -2.485201835632324
1.403344750404358 6.874095439910889 -2.4549636840820312
0.2810742259025574 6.974783897399902 -2.44256329536438
-0.2810986340045929 6.975197792053223 -2.44270920753479
-1.9625585079193115 6.7755022048950195 -2.4683051109313965
-3.0456199645996094 6.418474197387695 -2.4859378337860107
-3.5723094940185547 6.187391757965088 -2.5
-4.058608531951904 5.87987756729126 -2.5
-6.038539886474609 3.8185386657714844 -2.5
-6.326225280761719 3.3202550411224365 -2.5
-6.572880744934082 2.800438165664673 -2.5
-6.776908874511719 2.262460947036743 -2.5
-6.936967849731445 1.7098156213760376 -2.5
6.898403167724609 2.441406195430318e-06 -2.5
6.876029968261719 0.5550988912582397 -2.5
6.697944164276123 1.650905728340149 -2.5
6.543383598327637 2.1845080852508545 -2.5
6.346386432647705 2.7039477825164795 -2.5
5.830453872680664 3.686967611312866 -2.5
3.9187352657318115 5.677283763885498 -2.5
3.4491991996765137 5.974202632904053 -2.5
2.957280158996582 6.232372283935547 -2.5
1.9023241996765137 6.567632675170898 -2.477959394454956
1.3645702600479126 6.684174060821533 -2.472324848175049
-0.27392578125 6.797217845916748 -2.4653265476226807
-0.8211376667022705 6.762599468231201 -2.4687814712524414
-1.3647754192352295 6.68506383895874 -2.4726529121398926
-2.4325828552246094 6.414175033569336 -2.486064910888672
-2.9573094844818115 6.232370853424072 -2.5
-5.163530349731445 4.574489593505859 -2.5
-5.514882564544678 4.144165992736816 -2.5
-5.83047342300415 3.6869640350341797 -2.5
-6.346401214599609 2.703943967819214 -2.5
-6.543398380279541 2.184501886367798 -2.5
-6.697963714599609 1.6508996486663818 -2.5
-6.809067249298096 1.1065844297409058 -2.5
-6.876039981842041 0.5550915598869324 -2.5
6.666831016540527 2.441406195430318e-06 -2.5
6.645209789276123 0.5364636182785034 -2.5
6.580492973327637 1.0694433450698853 -2.5
6.323735237121582 2.1111814975738525 -2.5
5.32974100112915 4.005057334899902 -2.5
4.618281364440918 4.808143138885498 -2.5
3.7871971130371094 5.486706256866455 -2.5
3.3334081172943115 5.773654460906982 -2.5
2.8580126762390137 6.023161888122559 -2.5
1.8455908298492432 6.371759414672852 -2.4875597953796387
1.3239599466323853 6.485267639160156 -2.482071876525879
0.7966503500938416 6.561127662658691 -2.478428363800049
-1.845947265625 6.37290096282959 -2.488006353378296
-2.858042001724243 6.023161888122559 -2.5
-3.7872118949890137 5.486701488494873 -2.5
-4.618276119232178 4.808142185211182 -2.5
-4.990200042724609 4.420935153961182 -2.5
-6.323744773864746 2.111175537109375 -2.5
-6.473119735717773 1.5954809188842773 -2.5
6.427646160125732 0.5189001560211182 -2.5
6.261167049407959 1.543249487876892 -2.5
5.932528972625732 2.5276219844818115 -2.5
5.709911823272705 2.9968016147613525 -2.5
5.450243949890137 3.4465391635894775 -2.5
4.82681131362915 4.276195049285889 -2.5
4.078359127044678 4.995091438293457 -2.5
1.7940820455551147 6.193961143493652 -2.5
1.2853906154632568 6.29633092880249 -2.491330146789551
0.7734716534614563 6.370255470275879 -2.487779378890991
0.2582080066204071 6.4073381423950195 -2.4860336780548096
-0.25821778178215027 6.407498836517334 -2.486095905303955
-1.7941210269927979 6.193960666656494 -2.5
-4.467065334320068 4.650718688964844 -2.5
-5.155258655548096 3.873922109603882 -2.5
-5.450258731842041 3.446535587310791 -2.5
-5.932548522949219 2.527618408203125 -2.5
6.22216272354126 0.5023131966590881 -2.5
6.161571979522705 1.0013598203659058 -2.5
5.921142578125 1.9767810106277466 -2.5
5.742880821228027 2.4468188285827637 -2.5
5.276010513305664 3.3363683223724365 -2.5
4.67251443862915 4.139495849609375 -2.5
4.324277400970459 4.502054214477539 -2.5
3.9479832649230957 4.835410118103027 -2.5
3.546093702316284 5.137413024902344 -2.5
3.121206045150757 5.406097412109375 -2.5
2.213574171066284 5.836766242980957 -2.5
0.2513525187969208 6.2373576164245605 -2.5
-0.2513671815395355 6.23736047744751 -2.5
-0.7524511814117432 6.196905612945557 -2.5
-3.948002815246582 4.835411071777344 -2.5
-4.324291706085205 4.502051830291748 -2.5
-4.672509670257568 4.139491081237793 -2.5
-4.990458965301514 3.750084161758423 -2.5
-5.276025295257568 3.3363635540008545 -2.5
-5.742905139923096 2.446815013885498 -2.5
6.04736328125 2.441406195430318e-06 -2.5
6.027749061584473 0.48661741614341736 -2.5
5.969052791595459 0.9700695872306824 -2.5
5.736142635345459 1.915014624595642 -2.5
5.354672908782959 2.810358762741089 -2.5
5.111186504364014 3.232121467590332 -2.5
4.834531307220459 3.632916212081909 -2.5
3.8246288299560547 4.684328556060791 -2.5
3.435292959213257 4.976893424987793 -2.5
3.023681640625 5.2371826171875 -2.5
1.2096093893051147 5.925163269042969 -2.5
0.7289062142372131 6.0032854080200195 -2.5
0.2434960901737213 6.042471885681152 -2.5
-0.24351073801517487 6.04247522354126 -2.5
-0.7289404273033142 6.003284931182861 -2.5
-1.2096483707427979 5.925162315368652 -2.5
-1.6824951171875 5.808613300323486 -2.5
-2.1444334983825684 5.654397964477539 -2.5
-3.0237011909484863 5.237181186676025 -2.5
-3.435317277908325 4.976890563964844 -2.5
-4.189174652099609 4.361385345458984 -2.5
-4.834526062011719 3.632913827896118 -2.5
-5.111176490783691 3.232119083404541 -2.5
-5.563461780548096 2.370366096496582 -2.5
-5.871650218963623 1.4472326040267944 -2.5
-6.027768611907959 0.4866113066673279 -2.5
5.393378734588623 2.297910213470459 -2.5
3.707714796066284 4.541141033172607 -2.5
3.3302831649780273 4.824760437011719 -2.5
2.5132031440734863 5.296496391296387 -2.5
2.078867197036743 5.481554985046387 -2.5
1.172641634941101 5.74404764175415 -2.5
0.7066259384155273 5.819774150848389 -2.5
-0.7066552639007568 5.819772720336914 -2.5
-1.1726561784744263 5.744046688079834 -2.5
-1.6310644149780273 5.631054401397705 -2.5
-3.3303027153015137 4.82475471496582 -2.5
-4.061122894287109 4.228067398071289 -2.5
-4.388149261474609 3.8875694274902344 -2.5
-4.686743259429932 3.5218591690063477 -2.5
-5.191000938415527 2.724447011947632 -2.5
-5.393398284912109 2.297907590866089 -2.5
-5.560815334320068 1.8564733266830444 -2.5
-5.786606311798096 0.940417468547821 -2.5
-5.843515396118164 0.4717370569705963 -2.5
5.687001705169678 1.220703097715159e-06 -2.5
5.668569087982178 0.4576196074485779 -2.5
5.231947898864746 2.229123592376709 -2.5
4.806616306304932 3.0395262241363525 -2.5
4.546445369720459 3.416435480117798 -2.5
4.256792068481445 3.771199941635132 -2.5
3.9395408630371094 4.101497650146484 -2.5
3.5967283248901367 4.405200004577637 -2.5
2.843505859375 4.925107479095459 -2.5
2.0166356563568115 5.317464351654053 -2.5
0.22899413108825684 5.682412147521973 -2.5
-0.22898925840854645 5.68241548538208 -2.5
-0.685498058795929 5.645560264587402 -2.5
-1.1375585794448853 5.572094440460205 -2.5
-1.582241177558899 5.462489128112793 -2.5
-2.016650438308716 5.317461967468262 -2.5
-3.596743106842041 4.405202388763428 -2.5
-4.546445369720459 3.416433095932007 -2.5
-4.806621074676514 3.0395214557647705 -2.5
-5.231947898864746 2.2291197776794434 -2.5
-5.394345760345459 1.8008984327316284 -2.5
-5.521772384643555 1.3609936237335205 -2.5
-5.6685791015625 0.4576147496700287 -2.5
5.502241134643555 0.4441930949687958 -2.5
5.359736442565918 1.3210656642913818 -2.5
5.236073970794678 1.7480627298355103 -2.5
5.078437328338623 2.163719415664673 -2.5
4.665590763092041 2.9503417015075684 -2.5
4.413046836853027 3.316197395324707 -2.5
4.131899356842041 3.6605491638183594 -2.5
3.8239402770996094 3.981154680252075 -2.5
3.4911913871765137 4.275947093963623 -2.5
2.3664402961730957 4.987192153930664 -2.5
1.9574657678604126 5.161438941955566 -2.5
1.53579580783844 5.3022141456604 -2.5
1.104160189628601 5.408602237701416 -2.5
0.6653661727905273 5.479913234710693 -2.5
-0.6653857231140137 5.479911804199219 -2.5
-1.1041845083236694 5.408600807189941 -2.5
-1.9574804306030273 5.161438941955566 -2.5
-2.366455078125 4.987189769744873 -2.5
-2.7600927352905273 4.780596733093262 -2.5
-3.135820150375366 4.543002605438232 -2.5
-3.8239598274230957 3.981154680252075 -2.5
-4.887856483459473 2.5653417110443115 -2.5
-5.078432559967041 2.163714647293091 -2.5
-5.236069202423096 1.7480578422546387 -2.5
-5.502265453338623 0.4441882371902466 -2.5
5.343867301940918 0.43140745162963867 -2.5
5.291821002960205 0.860015869140625 -2.5
5.205478191375732 1.2830382585525513 -2.5
5.08535623550415 1.6977453231811523 -2.5
4.531289100646973 2.8654210567474365 -2.5
4.012963771820068 3.555180549621582 -2.5
2.6806347370147705 4.642994403839111 -2.5
1.9011181592941284 5.012874603271484 -2.5
0.6462157964706421 5.322178840637207 -2.5
-0.6462255716323853 5.322178840637207 -2.5
-1.9011377096176147 5.012872219085693 -2.5
-3.0455713272094727 4.412237644195557 -2.5
-3.7138915061950684 3.8665599822998047 -2.5
-4.286049842834473 3.2207422256469727 -2.5
-5.291845798492432 0.8600121736526489 -2.5
-5.343881607055664 0.4314013719558716 -2.5
