ply
format ascii 1.0
element vertex 800
property float x
property float y
property float z
end_header
-13.056855201721191 -22.615116119384766 6.997133731842041
14.1150484085083 -20.449188232421875 6.657894611358643
15.478124618530273 -18.957265853881836 6.5576395988464355
-14.287558555603027 -20.699081420898438 6.441408157348633
-12.251288414001465 -21.2198429107666 6.275270462036133
14.331787109375 -20.763212203979492 6.461359024047852
-14.095097541809082 -20.42025375366211 6.062465190887451
-12.646337509155273 -21.904081344604492 6.179786205291748
13.917059898376465 -20.162363052368164 5.985893249511719
15.815380096435547 -19.370342254638672 6.109924793243408
-17.66146469116211 -18.38749885559082 5.9307861328125
-16.330366134643555 -20.001083374023438 6.006468772888184
13.080350875854492 -22.655818939208984 6.085484981536865
-14.334482192993164 -20.767080307006836 5.575884819030762
11.873153686523438 -25.02217674255371 6.119986534118652
14.246278762817383 -20.63929557800293 5.541578769683838
16.423280715942383 -20.1148624420166 5.738079071044922
-14.490117073059082 -20.992538452148438 5.340665817260742
-12.499892234802246 -21.65043830871582 5.234285831451416
-11.776318550109863 -24.818084716796875 5.751556396484375
11.941083908081055 -25.165361404418945 5.832036018371582
13.545663833618164 -23.461767196655273 5.672206878662109
14.501161575317383 -21.008563995361328 5.344740390777588
16.422645568847656 -20.11406135559082 5.436774730682373
20.149003982543945 -20.977373123168945 6.089969158172607
-25.41212272644043 -6.263554573059082 5.177793025970459
-16.938323974609375 -20.74569320678711 5.298405647277832
-12.019335746765137 -20.818084716796875 4.7556257247924805
-11.471562385559082 -24.175838470458984 5.29388427734375
15.074042320251465 -21.838544845581055 5.249642848968506
-13.72012710571289 -19.877031326293945 4.500608921051025
13.76864242553711 -23.84798812866211 5.131354331970215
16.9966983795166 -20.817195892333984 5.007867336273193
19.376689910888672 -20.173290252685547 5.212307453155518
-16.109159469604492 -19.73015594482422 4.454895496368408
-10.750341415405273 -22.6558780670166 4.385951519012451
12.147412300109863 -25.60016632080078 4.955935478210449
13.063261032104492 -22.626258850097656 4.569508075714111
-14.117372512817383 -20.452539443969727 4.0632548332214355
-12.497441291809082 -21.646190643310547 4.086663246154785
14.772539138793945 -21.4017276763916 4.251831531524658
18.12952995300293 -22.20465850830078 4.686859130859375
-14.394110679626465 -20.85347557067871 3.8551225662231445
-12.748270988464355 -22.080644607543945 3.879108190536499
12.184667587280273 -25.67868995666504 4.324339389801025
15.639853477478027 -22.658281326293945 4.188766956329346
16.75146484375 -20.516826629638672 4.029778480529785
-15.005038261413574 -21.738554000854492 3.7197532653808594
-12.861923217773438 -22.277490615844727 3.6225156784057617
14.144853591918945 -24.499589920043945 3.9838507175445557
14.494599342346191 -20.999042510986328 3.5932133197784424
18.991289138793945 -19.772050857543945 3.8607256412506104
-18.185096740722656 -22.272714614868164 3.724724531173706
-12.784032821655273 -22.142606735229492 3.3120715618133545
-11.352401733398438 -23.9246768951416 3.430387496948242
17.181278228759766 -21.043241500854492 3.5191216468811035
20.59834861755371 -21.445175170898438 3.8518877029418945
-17.36747932434082 -21.27130889892578 3.248277425765991
13.25732421875 -22.962371826171875 3.136354923248291
17.547842025756836 -21.492244720458984 3.282013416290283
-12.387304306030273 -26.105722427368164 3.0937108993530273
-12.845332145690918 -22.24875831604004 2.462952136993408
13.66405200958252 -23.666826248168945 2.619931936264038
-17.23432159423828 -21.10824203491211 2.308037281036377
-12.868417739868164 -22.288740158081055 2.17984676361084
-15.412978172302246 -22.329530715942383 1.995500087738037
-14.221357345581055 -24.632108688354492 2.091867685317993
-15.726357460021973 -22.783544540405273 1.7278722524642944
-19.79976463317871 -17.541074752807617 1.3569079637527466
-17.641313552856445 -18.366514205932617 1.3063464164733887
16.97136688232422 -24.587255477905273 1.53252375125885
16.932567596435547 -24.531044006347656 0.8673055768013
-19.136844635009766 -16.953760147094727 0.17707213759422302
16.928730010986328 -24.5255069732666 0.20639801025390625
-19.141448974609375 -16.95785140991211 -0.10627151280641556
16.955204010009766 -24.563867568969727 -0.45481735467910767
-21.971235275268555 -19.464765548706055 -1.098319172859192
17.01640510559082 -24.652509689331055 -1.1208362579345703
19.121376037597656 -19.907499313354492 -1.0328413248062134
-18.732397079467773 -19.502422332763672 -1.3120396137237549
-13.50673770904541 -19.567811965942383 -1.1536288261413574
2.408681631088257 -19.837480545043945 -0.9695708751678467
19.121356964111328 -19.907508850097656 -1.33928644657135
-16.139842987060547 -19.767684936523438 -1.521823525428772
-11.48412036895752 -19.89100456237793 -1.3696694374084473
-9.309335708618164 -19.618934631347656 -1.294971227645874
-2.3922460079193115 -19.70166015625 -1.1835051774978638
-0.7948241829872131 -19.722537994384766 -1.1770763397216797
0.7955077886581421 -19.74103546142578 -1.1781792640686035
5.735341548919678 -19.80078125 -1.2293232679367065
9.416953086853027 -19.84590721130371 -1.3099523782730103
11.541366577148438 -19.990262985229492 -1.3765034675598145
13.833876609802246 -20.0418643951416 -1.4522323608398438
16.432723999023438 -20.126474380493164 -1.549446702003479
19.121376037597656 -19.907508850097656 -1.6460717916488647
7.411640644073486 -3.157792806625366 -0.4804244935512543
-19.138856887817383 -16.955547332763672 -1.809332251548767
-16.068349838256836 -19.680126190185547 -1.7978253364562988
-13.587080001831055 -19.68421745300293 -1.6924962997436523
-7.579677581787109 -19.98597526550293 -1.5125386714935303
-5.678779125213623 -19.60527229309082 -1.4443349838256836
-4.145400524139404 -20.305517196655273 -1.4664983749389648
-2.4064745903015137 -19.818838119506836 -1.4127222299575806
2.2015037536621094 -18.130840301513672 -1.2923998832702637
4.072568416595459 -19.948827743530273 -1.440737247467041
7.708945274353027 -20.326688766479492 -1.5383245944976807
11.541366577148438 -19.990262985229492 -1.633384108543396
16.38323211669922 -20.065839767456055 -1.8330641984939575
19.121366500854492 -19.907508850097656 -1.9532564878463745
6.651533126831055 -4.206161975860596 -0.5568876266479492
6.915058612823486 -2.946220636367798 -0.5318853855133057
8.088300704956055 -2.700263500213623 -0.6033973693847656
-24.228221893310547 -15.320995330810547 -2.3479838371276855
-22.947147369384766 -17.243642807006836 -2.3510892391204834
-18.843847274780273 -19.61845588684082 -2.2281062602996826
-16.113994598388672 -19.73601531982422 -2.086927652359009
-9.364697456359863 -19.735624313354492 -1.7892625331878662
-7.51321268081665 -19.810604095458984 -1.735429286956787
-5.678779125213623 -19.60527229309082 -1.671842336654663
-4.112597465515137 -20.14484405517578 -1.6840651035308838
-2.4064745903015137 -19.818838119506836 -1.635250210762024
-0.799560546875 -19.83984375 -1.626363754272461
0.8033398389816284 -19.935487747192383 -1.6342082023620605
2.201611280441284 -18.131757736206055 -1.4960509538650513
4.130810260772705 -20.233924865722656 -1.6915111541748047
5.769453048706055 -19.918514251708984 -1.6985546350479126
9.4827241897583 -19.984472274780273 -1.8118255138397217
11.541366577148438 -19.990262985229492 -1.890668272972107
13.833876609802246 -20.041854858398438 -1.9946846961975098
16.409618377685547 -20.09814453125 -2.125217914581299
21.453338623046875 -19.00599479675293 -2.347599983215332
22.913095474243164 -17.218036651611328 -2.347599983215332
6.215810298919678 -3.9306347370147705 -0.6023808121681213
6.479667663574219 -2.7607128620147705 -0.5769027471542358
7.951708793640137 -2.654667854309082 -0.6866477727890015
-26.86015510559082 0.0 -2.5
-26.773056030273438 -2.161328077316284 -2.5
-26.512313842773438 -4.308661937713623 -2.5
-24.306718826293945 -8.11474609375 -2.385084390640259
-21.318012237548828 -13.480683326721191 -2.347599983215332
-20.16414451599121 -15.152362823486328 -2.347599983215332
-18.8795108795166 -16.725799560546875 -2.347599983215332
-17.47705078125 -18.195507049560547 -2.3482213020324707
-13.587080001831055 -19.68421745300293 -2.226173162460327
-7.499433517456055 -19.7742862701416 -1.968400239944458
-5.678779125213623 -19.60527229309082 -1.8997597694396973
-4.090146541595459 -20.03482437133789 -1.9031978845596313
2.2016797065734863 -18.13228416442871 -1.7000524997711182
5.769453048706055 -19.918514251708984 -1.9301153421401978
7.595839500427246 -20.028690338134766 -1.9937238693237305
9.500995635986328 -20.022987365722656 -2.062795400619507
13.833876609802246 -20.0418643951416 -2.266615867614746
15.952011108398438 -19.537675857543945 -2.347599983215332
17.472421646118164 -18.190711975097656 -2.347599983215332
18.879501342773438 -16.72574234008789 -2.347599983215332
5.988388538360596 -3.142949104309082 -0.6294692754745483
26.512332916259766 -4.308661937713623 -2.5
-23.977602005004883 9.765624781721272e-06 -2.5
-23.899837493896484 -1.9293749332427979 -2.5
-23.667055130004883 -3.84624981880188 -2.5
-23.280818939208984 -5.738203048706055 -2.5
-19.936840057373047 -10.463651657104492 -2.347599983215332
-18.000165939331055 -13.526229858398438 -2.347599983215332
-16.8533878326416 -14.930800437927246 -2.347599983215332
-15.597318649291992 -16.238506317138672 -2.347599983215332
-14.240087509155273 -17.440927505493164 -2.347599983215332
-12.790488243103027 -18.53020477294922 -2.347599983215332
-7.501269340515137 -19.77910041809082 -2.2055790424346924
-4.104394435882568 -20.10464859008789 -2.1394290924072266
-2.4064745903015137 -19.818838119506836 -2.081571578979492
4.072734355926514 -19.949657440185547 -2.122938871383667
7.586249828338623 -20.00334930419922 -2.2305843830108643
9.483349800109863 -19.985820770263672 -2.3064961433410645
11.257948875427246 -19.499324798583984 -2.347599983215332
14.240097045898438 -17.440937042236328 -2.347599983215332
15.597304344177246 -16.238525390625 -2.347599983215332
5.188320159912109 -4.596455097198486 -0.7227097749710083
5.37646484375 -4.040146350860596 -0.7012043595314026
5.671611309051514 -2.976689338684082 -0.6678428649902344
23.66706085205078 -3.846269369125366 -2.5
-19.916532516479492 -8.485625267028809 -2.5
-17.808300018310547 -11.261298179626465 -2.4331719875335693
-11.548300743103027 -16.730566024780273 -2.347599983215332
-8.714970588684082 -18.366405487060547 -2.347599983215332
-5.655937194824219 -19.526533126831055 -2.347599983215332
-2.4064745903015137 -19.818838119506836 -2.3054778575897217
-0.799560546875 -19.83984375 -2.2929527759552
0.8011132478713989 -19.880252838134766 -2.297623872756958
4.066357135772705 -19.918310165405273 -2.347599983215332
5.655927658081055 -19.526533126831055 -2.347599983215332
8.714961051940918 -18.366395950317383 -2.347599983215332
10.164599418640137 -17.605575561523438 -2.347599983215332
11.548291206359863 -16.730566024780273 -2.347599983215332
4.906796932220459 -4.347021579742432 -0.7570135593414307
5.092948913574219 -3.827099561691284 -0.735675036907196
5.251914024353027 -3.32110333442688 -0.7175750732421875
5.386034965515137 -2.826796770095825 -0.7024356126785278
5.935117244720459 -2.5287108421325684 -0.744999349117279
7.567997932434082 -2.526562452316284 -0.9213641285896301
21.36854362487793 -3.472724437713623 -2.5
21.57870101928711 -1.7419921159744263 -2.5
-19.727977752685547 0.0 -2.5
-19.664003372192383 -1.58743155002594 -2.5
-19.472509384155273 -3.1645898818969727 -2.5
-19.154720306396484 -4.721210956573486 -2.5
-17.468299865722656 -9.168144226074219 -2.5
-15.7425537109375 -11.829765319824219 -2.495429515838623
-14.166748046875 -12.550643920898438 -2.3984439373016357
-11.716279029846191 -14.349853515625 -2.347599983215332
-10.523608207702637 -15.246073722839355 -2.347599983215332
-7.941689491271973 -16.736738204956055 -2.347599983215332
-6.569179534912109 -17.321502685546875 -2.347599983215332
-5.154091835021973 -17.7939453125 -2.347599983215332
-0.7459276914596558 -18.51032257080078 -2.347599983215332
0.7459472417831421 -18.510332107543945 -2.347599983215332
2.2018749713897705 -18.133935928344727 -2.3148763179779053
3.705556631088257 -18.150976181030273 -2.347599983215332
6.569179534912109 -17.321502685546875 -2.347599983215332
10.523612976074219 -15.246073722839355 -2.347599983215332
12.127411842346191 -14.853368759155273 -2.4299774169921875
5.127216815948486 -2.6909570693969727 -0.7337890267372131
7.540849208831787 -2.5174999237060547 -1.0074502229690552
10.280448913574219 -2.5339159965515137 -1.3417654037475586
19.472509384155273 -3.1645898818969727 -2.5
-18.11604881286621 1.9531249563442543e-05 -2.5
-17.881454467773438 -2.906015634536743 -2.5
-17.589637756347656 -4.335458755493164 -2.5
-17.183744430541992 -5.736777305603027 -2.5
-15.311498641967773 -9.682412147521973 -2.5
-13.56005859375 -12.013144493103027 -2.5
-9.663749694824219 -14.000341415405273 -2.347599983215332
-8.505859375 -14.732558250427246 -2.347599983215332
-6.032431602478027 -15.906200408935547 -2.347599983215332
-0.6849902272224426 -16.997900009155273 -2.347599983215332
0.6850000023841858 -16.99789047241211 -2.347599983215332
2.050546884536743 -16.88765525817871 -2.347599983215332
3.402783155441284 -16.667890548706055 -2.347599983215332
7.292783260345459 -15.369189262390137 -2.347599983215332
8.557069778442383 -14.82127857208252 -2.3617374897003174
11.45742130279541 -14.032782554626465 -2.5
4.453740119934082 -3.9456639289855957 -0.8211146593093872
4.624130725860596 -3.474785089492798 -0.7982125878334045
7.531542778015137 -2.5143847465515137 -1.0957366228103638
17.8814640045166 -2.905996084213257 -2.5
18.057313919067383 -1.4577245712280273 -2.5
-16.689462661743164 -1.3472851514816284 -2.5
-16.52692413330078 -2.6858885288238525 -2.5
-16.25721549987793 -4.007050514221191 -2.5
-15.88206958770752 -5.302206993103027 -2.5
-14.825859069824219 -7.781200885772705 -2.5
-14.151650428771973 -8.948965072631836 -2.5
-13.385673522949219 -10.058671951293945 -2.5
-11.598817825317383 -12.075634956359863 -2.5
-10.58951187133789 -12.969804763793945 -2.5
-9.476943016052246 -13.729686737060547 -2.4909050464630127
-8.085576057434082 -14.004609107971191 -2.4145054817199707
-6.752421855926514 -14.230439186096191 -2.351804733276367
-5.575478553771973 -14.701298713684082 -2.347599983215332
-4.374433517456055 -15.102274894714355 -2.347599983215332
-3.145029306411743 -15.405292510986328 -2.347599983215332
1.895205020904541 -15.608417510986328 -2.347599983215332
4.374433517456055 -15.102274894714355 -2.347599983215332
5.602373123168945 -14.772245407104492 -2.3589277267456055
7.013466835021973 -14.780566215515137 -2.4427216053009033
9.511542320251465 -13.779824256896973 -2.5
4.338945388793945 -3.8439550399780273 -0.8655121922492981
4.569540977478027 -2.889580011367798 -0.8072433471679688
5.809101581573486 -2.4750096797943115 -0.9427962899208069
-15.108905792236328 -3.724013566970825 -2.5
-13.152074813842773 -8.316855430603027 -2.5
-12.440199851989746 -9.348183631896973 -2.5
-8.839706420898438 -12.806513786315918 -2.5
-7.780556678771973 -13.476279258728027 -2.5
-6.65872049331665 -14.032978057861328 -2.4954299926757812
-4.203935623168945 -14.513642311096191 -2.4275643825531006
-2.983769416809082 -14.615389823913574 -2.396501064300537
-1.7829296588897705 -14.683730125427246 -2.376373767852783
-0.5932226181030273 -14.72044849395752 -2.3668646812438965
0.5936816334724426 -14.731786727905273 -2.3686883449554443
1.7890233993530273 -14.733905792236328 -2.3844926357269287
4.268525123596191 -14.7366304397583 -2.4648642539978027
5.509404182434082 -14.52708911895752 -2.496089458465576
7.78054666519165 -13.476249694824219 -2.5
4.328134536743164 -4.506064414978027 -1.0037833452224731
4.338954925537109 -3.8439648151397705 -0.9312925338745117
4.348369121551514 -3.2675585746765137 -0.8738524913787842
4.652802467346191 -2.441972494125366 -0.8442045450210571
5.79543924331665 -2.4691991806030273 -1.0120644569396973
7.513417720794678 -2.5083398818969727 -1.2725741863250732
-14.483935356140137 -1.1692675352096558 -2.5
-14.108803749084473 -3.4775097370147705 -2.5
-13.368270874023438 -5.69567346572876 -2.5
-11.616738319396973 -8.729413986206055 -2.5
-9.19008731842041 -11.255810737609863 -2.5
-8.254579544067383 -11.95882797241211 -2.5
-7.265536785125732 -12.584238052368164 -2.5
-6.229345798492432 -13.12807559967041 -2.5
-4.042802810668945 -13.957324028015137 -2.5
-2.9050683975219727 -14.229902267456055 -2.498685836791992
-1.7492382526397705 -14.406269073486328 -2.496737480163574
-0.5841211080551147 -14.494921684265137 -2.4958102703094482
0.5841699242591858 -14.495956420898438 -2.495987892150879
1.749794840812683 -14.410771369934082 -2.4975154399871826
4.042792797088623 -13.957314491271973 -2.5
9.190107345581055 -11.255810737609863 -2.5
4.328134536743164 -4.506064414978027 -1.0749366283416748
4.338945388793945 -3.8439550399780273 -0.9973071217536926
9.990057945251465 -2.462333917617798 -1.7701820135116577
14.342880249023438 -2.330927610397339 -2.5
-13.44921875 -2.1857030391693115 -2.5
-12.924448013305664 -4.314814567565918 -2.5
-11.516288757324219 -7.282460689544678 -2.5
-10.892939567565918 -8.185507774353027 -2.5
-10.198954582214355 -9.03548812866211 -2.5
-9.438838005065918 -9.826855659484863 -2.5
-7.74026346206665 -11.213690757751465 -2.5
-4.831728458404541 -12.740214347839355 -2.5
-2.7254881858825684 -13.350292205810547 -2.5
-1.6423925161361694 -13.526328086853027 -2.5
0.5486523509025574 -13.614628791809082 -2.5
1.6423925161361694 -13.526328086853027 -2.5
2.7254979610443115 -13.350302696228027 -2.5
3.790908098220825 -13.087695121765137 -2.5
5.841220378875732 -12.310107231140137 -2.5
6.812841415405273 -11.800155639648438 -2.5
4.328134536743164 -4.506064414978027 -1.1463623046875
4.338945388793945 -3.8439550399780273 -1.0635749101638794
4.356738090515137 -2.755019426345825 -0.9457768201828003
5.780517578125 -2.462841749191284 -1.1528431177139282
7.499521255493164 -2.503710985183716 -1.450646996498108
9.995341300964355 -2.463632822036743 -1.8888018131256104
-12.7818603515625 -1.0318456888198853 -2.5
-12.65738296508789 -2.057021379470825 -2.5
-12.163500785827637 -4.060761451721191 -2.5
-10.838241577148438 -6.853701114654541 -2.5
-10.25161075592041 -7.703554630279541 -2.5
-9.598490715026855 -8.503524780273438 -2.5
-8.110126495361328 -9.93310546875 -2.5
-7.284550666809082 -10.553495407104492 -2.5
-4.547255992889404 -11.990117073059082 -2.5
-2.565019369125366 -12.56429672241211 -2.5
-1.545693278312683 -12.729941368103027 -2.5
0.5163476467132568 -12.813055992126465 -2.5
1.545693278312683 -12.729941368103027 -2.5
4.547255992889404 -11.990126609802246 -2.5
5.497314453125 -11.585331916809082 -2.5
8.110136985778809 -9.93310546875 -2.5
4.328134536743164 -4.506064414978027 -1.2180781364440918
4.338945388793945 -3.8439550399780273 -1.1301113367080688
4.348369121551514 -3.2675585746765137 -1.0604087114334106
4.652802467346191 -2.441972494125366 -1.0244319438934326
5.774843692779541 -2.4604198932647705 -1.2237625122070312
7.490293025970459 -2.500615119934082 -1.5394996404647827
12.781865119934082 -1.0319628715515137 -2.5
-12.107504844665527 9.765624781721272e-06 -2.5
-11.484414100646973 -3.83404278755188 -2.5
-11.138651847839355 -4.745722770690918 -2.5
-10.720664024353027 -5.626640319824219 -2.5
-8.387167930603027 -8.731943130493164 -2.5
-7.657333850860596 -9.378515243530273 -2.5
-4.293388366699219 -11.32071304321289 -2.5
-1.4593944549560547 -12.019218444824219 -2.5
0.4875195324420929 -12.097675323486328 -2.5
2.421826124191284 -11.862812042236328 -2.5
3.368525266647339 -11.629472732543945 -2.5
4.293388366699219 -11.320693016052246 -2.5
6.877851486206055 -9.96426773071289 -2.5
4.328134536743164 -4.506064414978027 -1.2901051044464111
4.652802467346191 -2.441972494125366 -1.0850074291229248
9.992470741271973 -2.4629297256469727 -2.125025987625122
11.950722694396973 -1.94216787815094 -2.5
12.068251609802246 -0.9742382764816284 -2.5
-11.42733383178711 -0.92249995470047 -2.5
-11.316049575805664 -1.8390429019927979 -2.5
-10.547109603881836 -4.493691444396973 -2.5
-9.689682006835938 -6.127382755279541 -2.5
-7.250673770904541 -8.880468368530273 -2.5
-6.512592792510986 -9.435107231140137 -2.5
-5.732260704040527 -9.92855453491211 -2.5
-4.914745807647705 -10.357617378234863 -2.5
-3.189628839492798 -11.011855125427246 -2.5
-2.293203115463257 -11.232831954956055 -2.5
-1.3818944692611694 -11.3809175491333 -2.5
-0.4616406261920929 -11.45522403717041 -2.5
0.46163085103034973 -11.455214500427246 -2.5
1.3818944692611694 -11.380927085876465 -2.5
4.065371036529541 -10.719511032104492 -2.5
4.356738090515137 -2.755019426345825 -1.1240638494491577
9.98193359375 -2.460322141647339 -2.241847038269043
11.31606388092041 -1.8390135765075684 -2.5
11.427343368530273 -0.92249995470047 -2.5
-10.883706092834473 9.765624781721272e-06 -2.5
-10.742753982543945 -1.7458691596984863 -2.5
-10.5674409866333 -2.6046483516693115 -2.5
-10.323583602905273 -3.4465038776397705 -2.5
-10.01278305053711 -4.266035079956055 -2.5
-9.637030601501465 -5.05789041519165 -2.5
-8.70089340209961 -6.538290977478027 -2.5
-7.539409160614014 -7.849345684051514 -2.5
-6.883339881896973 -8.430556297302246 -2.5
-6.18264627456665 -8.9570894241333 -2.5
-5.441850662231445 -9.425546646118164 -2.5
-4.665761470794678 -9.832890510559082 -2.5
-2.1770215034484863 -10.66373062133789 -2.5
-0.4382421672344208 -10.874873161315918 -2.5
0.4382421672344208 -10.874882698059082 -2.5
1.3118945360183716 -10.804335594177246 -2.5
2.1770215034484863 -10.663759231567383 -2.5
3.8594043254852295 -10.176435470581055 -2.5
4.665761470794678 -9.832880973815918 -2.5
5.441864967346191 -9.425546646118164 -2.5
6.18264627456665 -8.9570894241333 -2.5
6.883349418640137 -8.43056583404541 -2.5
4.328134536743164 -4.506064414978027 -1.4351699352264404
10.5674409866333 -2.6046483516693115 -2.5
10.848407745361328 -0.8757616877555847 -2.5
-10.222241401672363 -1.6612792015075684 -2.5
-9.527631759643555 -4.059335708618164 -2.5
-9.170097351074219 -4.812822341918945 -2.5
-8.279315948486328 -6.221494197845459 -2.5
-7.751835823059082 -6.867519378662109 -2.5
-7.174106121063232 -7.46902322769165 -2.5
-3.6724119186401367 -9.683349609375 -2.5
-2.8813183307647705 -9.947461128234863 -2.5
-2.071542978286743 -10.14706039428711 -2.5
-1.2483203411102295 -10.280839920043945 -2.5
-0.4170019328594208 -10.347949028015137 -2.5
0.41701170802116394 -10.3479585647583 -2.5
3.67242169380188 -9.683340072631836 -2.5
6.54983377456665 -8.022079467773438 -2.5
4.338945388793945 -3.8439550399780273 -1.3993264436721802
4.348369121551514 -3.2675585746765137 -1.3130195140838623
4.356738090515137 -2.755019426345825 -1.244341492652893
5.605165958404541 -2.3881444931030273 -1.4707659482955933
10.055419921875 -2.4784374237060547 -2.5
10.222246170043945 -1.6612695455551147 -2.5
10.322772979736328 -0.8333398103713989 -2.5
-9.843280792236328 -0.794628918170929 -2.5
-9.367084503173828 -3.1271777153015137 -2.5
-9.085078239440918 -3.8707714080810547 -2.5
-8.346503257751465 -5.278007507324219 -2.5
-7.894736289978027 -5.932509422302246 -2.5
-6.840868949890137 -7.122089862823486 -2.5
-6.245585918426514 -7.649462699890137 -2.5
-5.609814167022705 -8.127206802368164 -2.5
-3.501826047897339 -9.233573913574219 -2.5
-2.7474803924560547 -9.485400199890137 -2.5
-1.9753124713897705 -9.675722122192383 -2.5
-1.1903417110443115 -9.803300857543945 -2.5
0.3976367115974426 -9.867284774780273 -2.5
1.190332055091858 -9.8032808303833 -2.5
2.747490167617798 -9.485390663146973 -2.5
4.233466625213623 -8.921826362609863 -2.5
5.609814167022705 -8.127197265625 -2.5
6.245585918426514 -7.64944314956665 -2.5
4.328134536743164 -4.506064414978027 -1.581719994544983
4.338945388793945 -3.8439550399780273 -1.4674913883209229
4.348369121551514 -3.2675585746765137 -1.3769805431365967
4.356738090515137 -2.7550292015075684 -1.3049572706222534
7.452382564544678 -2.4879589080810547 -1.9889795780181885
9.747421264648438 -1.5841015577316284 -2.5
9.843290328979492 -0.7946191430091858 -2.5
-9.434598922729492 9.765624781721272e-06 -2.5
-9.404004096984863 -0.7591503858566284 -2.5
-9.160449028015137 -2.2578516006469727 -2.5
-8.949067115783691 -2.987617015838623 -2.5
-8.679638862609863 -3.6980369091033936 -2.5
-8.353930473327637 -4.384472370147705 -2.5
-7.542421817779541 -5.66775369644165 -2.5
-7.061903953552246 -6.256289005279541 -2.5
-6.535581111907959 -6.804238319396973 -2.5
-5.966875076293945 -7.308095455169678 -2.5
-5.359472751617432 -7.764511585235596 -2.5
-4.717294692993164 -8.170605659484863 -2.5
-4.044531345367432 -8.523681640625 -2.5
-1.1372168064117432 -9.36581039428711 -2.5
0.37990233302116394 -9.426933288574219 -2.5
2.624872922897339 -9.062089920043945 -2.5
4.044540882110596 -8.523681640625 -2.5
4.338945388793945 -3.8439550399780273 -1.53603994846344
4.348369121551514 -3.2675585746765137 -1.441300630569458
9.312421798706055 -1.5134081840515137 -2.5
-8.999990463256836 -0.7265331745147705 -2.5
-8.766894340515137 -2.160839796066284 -2.5
-7.995028972625732 -4.196103572845459 -2.5
-7.631454944610596 -4.825839519500732 -2.5
-7.218398094177246 -5.424257755279541 -2.5
-6.254809379577637 -6.511933326721191 -2.5
-5.710517406463623 -6.994101524353027 -2.5
-4.514638423919678 -7.819570064544678 -2.5
-1.8060839176177979 -8.846796989440918 -2.5
-1.0883593559265137 -8.9634370803833 -2.5
-0.36357420682907104 -9.021952629089355 -2.5
0.3635644316673279 -9.021952629089355 -2.5
1.0883593559265137 -8.963427543640137 -2.5
3.870790958404541 -8.157509803771973 -2.5
4.5146484375 -7.819560527801514 -2.5
5.129218578338623 -7.430947303771973 -2.5
4.338945388793945 -3.8439550399780273 -1.6049929857254028
4.348369121551514 -3.2675585746765137 -1.5060006380081177
4.652812480926514 -2.441972494125366 -1.4549065828323364
5.628515720367432 -2.398066282272339 -1.6939568519592285
8.7669038772583 -2.160839796066284 -2.5
-8.655156135559082 0.0 -2.5
-8.543066024780273 -1.3883788585662842 -2.5
-8.209721565246582 -2.740800619125366 -2.5
-7.663759708404541 -4.022236347198486 -2.5
-7.315253734588623 -4.625878810882568 -2.5
-6.478471755981445 -5.739423751831055 -2.5
-5.99563455581665 -6.242118835449219 -2.5
-4.916689395904541 -7.123046875 -2.5
-4.327578067779541 -7.495575904846191 -2.5
-3.710400342941284 -7.819501876831055 -2.5
-1.7312499284744263 -8.480224609375 -2.5
-1.0432616472244263 -8.592050552368164 -2.5
1.7312597036361694 -8.480254173278809 -2.5
2.408017635345459 -8.313417434692383 -2.5
4.916689395904541 -7.123027324676514 -2.5
5.99563455581665 -6.242109298706055 -2.5
4.338945388793945 -3.8439550399780273 -1.6743698120117188
4.348369121551514 -3.2675585746765137 -1.5710984468460083
4.652802467346191 -2.441972494125366 -1.5177940130233765
5.634990215301514 -2.400830030441284 -1.7692135572433472
8.209735870361328 -2.740790843963623 -2.5
8.627089500427246 -0.6964355111122131 -2.5
-8.308671951293945 0.0 -2.5
-8.281728744506836 -0.6685644388198853 -2.5
-8.067245483398438 -1.9883984327316284 -2.5
-7.35696268081665 -3.861220598220825 -2.5
-7.022402286529541 -4.44070291519165 -2.5
-4.719862937927246 -6.837890625 -2.5
-4.154340744018555 -7.195507526397705 -2.5
-3.5618650913238525 -7.506484031677246 -2.5
-2.946298837661743 -7.768740177154541 -2.5
-2.3116307258605957 -7.980624675750732 -2.5
-1.0014941692352295 -8.248095512390137 -2.5
-0.33455076813697815 -8.301933288574219 -2.5
1.001503825187683 -8.248095512390137 -2.5
2.946298837661743 -7.768740177154541 -2.5
4.719872951507568 -6.837890625 -2.5
5.254794597625732 -6.435927391052246 -2.5
5.755624771118164 -5.992236137390137 -2.5
4.356738090515137 -2.7550292015075684 -1.5510108470916748
5.641152381896973 -2.403456926345825 -1.8450039625167847
7.881083965301514 -2.6310741901397705 -2.5
8.067245483398438 -1.9883984327316284 -2.5
8.20108413696289 -1.3327929973602295 -2.5
-7.883378505706787 -1.2811620235443115 -2.5
-7.347709655761719 -3.130566358566284 -2.5
-7.071972370147705 -3.711669921875 -2.5
-6.750370979309082 -4.268671989440918 -2.5
-6.385009765625 -4.798007488250732 -2.5
-2.832167863845825 -7.467812538146973 -2.5
-2.2220702171325684 -7.671474456787109 -2.5
-0.3215917944908142 -7.980321884155273 -2.5
1.5975780487060547 -7.825390338897705 -2.5
3.993417978286743 -6.91677713394165 -2.5
5.051220417022705 -6.186611175537109 -2.5
5.532656192779541 -5.760097503662109 -2.5
4.981581687927246 -4.413300514221191 -2.0832226276397705
4.652812480926514 -2.441972494125366 -1.6448053121566772
7.754726409912109 -1.9113671779632568 -2.5
7.960917949676514 -0.6426562070846558 -2.5
-7.686962604522705 9.765624781721272e-06 -2.5
-7.291362285614014 -2.434199094772339 -2.5
-6.49694299697876 -4.108407974243164 -2.5
-6.14529275894165 -4.617870807647705 -2.5
-5.75377893447876 -5.097402095794678 -2.5
-3.295341730117798 -6.944775104522705 -2.5
-1.53759765625 -7.53161096572876 -2.5
-0.926562488079071 -7.630918025970459 -2.5
1.53759765625 -7.53161096572876 -2.5
2.725839853286743 -7.187421798706055 -2.5
3.8434863090515137 -6.657089710235596 -2.5
4.36669921875 -6.326230525970459 -2.5
4.861591815948486 -5.954345703125 -2.5
5.324941158294678 -5.543847560882568 -2.5
4.356738090515137 -2.755019426345825 -1.6764538288116455
4.652812480926514 -2.441972494125366 -1.7089650630950928
7.662040710449219 -0.6185156106948853 -2.5
-7.406874656677246 9.765624781721272e-06 -2.5
-7.310961723327637 -1.1881444454193115 -2.5
-7.191640377044678 -1.7725781202316284 -2.5
-7.025683403015137 -2.345507860183716 -2.5
-6.260214805603027 -3.958730459213257 -2.5
-5.921367168426514 -4.449609279632568 -2.5
-5.130927562713623 -5.341855525970459 -2.5
-4.684443473815918 -5.737402439117432 -2.5
-4.207592487335205 -6.095742225646973 -2.5
-3.703432559967041 -6.414531230926514 -2.5
-3.1752684116363525 -6.691738128662109 -2.5
-1.4815722703933716 -7.257187366485596 -2.5
-0.2982421815395355 -7.400859355926514 -2.5
0.2982519567012787 -7.40087890625 -2.5
0.8928027153015137 -7.352870941162109 -2.5
1.4815624952316284 -7.257177352905273 -2.5
2.060732364654541 -7.114433288574219 -2.5
3.1752734184265137 -6.691728591918945 -2.5
5.130957126617432 -5.341845512390137 -2.5
5.921367168426514 -4.449618816375732 -2.5
4.652812480926514 -2.441972494125366 -1.7735897302627563
7.310956954956055 -1.1881250143051147 -2.5
-7.052060604095459 -1.1460741758346558 -2.5
-6.57287073135376 -2.800429582595825 -2.5
-5.711689472198486 -4.292050838470459 -2.5
-3.5723047256469727 -6.187392234802246 -2.5
-3.0628318786621094 -6.454784870147705 -2.5
-2.533505916595459 -6.68029260635376 -2.5
-1.9877538681030273 -6.862490177154541 -2.5
-1.429101586341858 -7.000205039978027 -2.5
-0.8611913919448853 -7.092490196228027 -2.5
-0.2876855432987213 -7.13878870010376 -2.5
0.8611816167831421 -7.092490196228027 -2.5
2.533505916595459 -6.68029260635376 -2.5
4.518564224243164 -5.534218788146973 -2.5
5.347802639007568 -4.737724304199219 -2.5
5.711689472198486 -4.292040824890137 -2.5
4.652812480926514 -2.441972494125366 -1.8386993408203125
5.636044979095459 -2.4012889862060547 -2.1436734199523926
6.936982154846191 -1.709814429283142 -2.5
-6.543393611907959 -2.1844921112060547 -2.5
-5.514882564544678 -4.144140720367432 -2.5
-5.163530349731445 -4.574472427368164 -2.5
-4.778700828552246 -4.975136756896973 -2.5
-3.9187450408935547 -5.67724609375 -2.5
-2.4462108612060547 -6.450117111206055 -2.5
-1.3798632621765137 -6.758984088897705 -2.5
-0.8315038681030273 -6.848114967346191 -2.5
-0.2777734398841858 -6.892812252044678 -2.5
0.2777734398841858 -6.892812252044678 -2.5
0.8315136432647705 -6.848114967346191 -2.5
1.3798632621765137 -6.758994102478027 -2.5
2.4462108612060547 -6.450107097625732 -2.5
2.9572949409484863 -6.232353210449219 -2.5
3.449208974838257 -5.974189281463623 -2.5
4.362871170043945 -5.343525409698486 -2.5
4.778700828552246 -4.975136756896973 -2.5
5.163535118103027 -4.574482440948486 -2.5
5.830458641052246 -3.686953067779541 -2.5
5.629638671875 -2.398554563522339 -2.217650890350342
6.80908203125 -1.1065624952316284 -2.5
6.876044750213623 -0.5550683736801147 -2.5
-6.645224571228027 -0.5364550948143005 -2.5
-6.323740005493164 -2.1111717224121094 -2.5
-6.133359432220459 -2.613173723220825 -2.5
-5.90319299697876 -3.098212718963623 -2.5
-4.6182861328125 -4.80813455581665 -2.5
-3.7871971130371094 -5.486718654632568 -2.5
-2.858027219772339 -6.023154258728027 -2.5
-1.333535075187683 -6.532109260559082 -2.5
-0.2684375047683716 -6.661425590515137 -2.5
1.854833960533142 -6.403613090515137 -2.5
3.333427667617798 -5.773632526397705 -2.5
3.7871971130371094 -5.486679553985596 -2.5
4.618281364440918 -4.808115005493164 -2.5
4.990204811096191 -4.420917987823486 -2.5
5.634746074676514 -3.5631933212280273 -2.5
5.622382640838623 -2.395458936691284 -2.291720151901245
6.473124980926514 -1.5954687595367432 -2.5
6.580507755279541 -1.069433569908142 -2.5
-6.448554515838623 0.0 -2.5
-6.427646160125732 -0.5188866853713989 -2.5
-6.365048885345459 -1.034423828125 -2.5
-6.11669921875 -2.042050838470459 -2.5
-5.932548522949219 -2.5276074409484863 -2.5
-4.467080116271973 -4.650722503662109 -2.5
-4.078364372253418 -4.995097637176514 -2.5
-3.6631932258605957 -5.307050704956055 -2.5
-3.2242822647094727 -5.584609031677246 -2.5
-2.286694288253784 -6.029511451721191 -2.5
-1.7941014766693115 -6.193954944610596 -2.5
0.2596679627895355 -6.443329811096191 -2.5
2.286689519882202 -6.029511451721191 -2.5
2.764453172683716 -5.825937271118164 -2.5
5.155253887176514 -3.8739256858825684 -2.5
5.062558650970459 -2.657031297683716 -2.216562032699585
5.614511489868164 -2.3921191692352295 -2.365981101989746
6.261181354522705 -1.54324209690094 -2.5
6.365058422088623 -1.0344140529632568 -2.5
-6.161581993103027 -1.0013476610183716 -2.5
-6.061015605926514 -1.4939160346984863 -2.5
-5.921162128448486 -1.9767773151397705 -2.5
-4.990448951721191 -3.750077962875366 -2.5
-4.67251443862915 -4.139492034912109 -2.5
-3.947988271713257 -4.835410118103027 -2.5
-3.5461034774780273 -5.137402057647705 -2.5
-2.676079034805298 -5.639707088470459 -2.5
-2.2135937213897705 -5.836748123168945 -2.5
-1.2486425638198853 -6.116269588470459 -2.5
-0.7524511814117432 -6.19689416885376 -2.5
-0.25135740637779236 -6.237343788146973 -2.5
0.75244140625 -6.19689416885376 -2.5
2.676074266433716 -5.639707088470459 -2.5
3.121220588684082 -5.406084060668945 -2.5
3.5461034774780273 -5.137402057647705 -2.5
5.132119178771973 -2.693544864654541 -2.3212215900421143
5.606620788574219 -2.388740062713623 -2.4406700134277344
5.921162128448486 -1.9767577648162842 -2.5
6.161591529846191 -1.0013476610183716 -2.5
-6.04736328125 0.0 -2.5
-5.969067096710205 -0.9700487852096558 -2.5
-5.871650218963623 -1.4472265243530273 -2.5
-5.563457012176514 -2.370371103286743 -2.5
-5.111171722412109 -3.232109308242798 -2.5
-4.834531307220459 -3.6329100131988525 -2.5
-4.189169883728027 -4.361386775970459 -2.5
-3.023691415786743 -5.237167835235596 -2.5
-2.592460870742798 -5.463505744934082 -2.5
-2.144423723220825 -5.654394626617432 -2.5
-1.6824902296066284 -5.808603286743164 -2.5
-1.2096288204193115 -5.92516565322876 -2.5
0.7289355397224426 -6.003271579742432 -2.5
1.2096385955810547 -5.925156116485596 -2.5
1.6824902296066284 -5.808613300323486 -2.5
2.144423723220825 -5.654384613037109 -2.5
2.592460870742798 -5.463496208190918 -2.5
4.834531307220459 -3.6329002380371094 -2.5
5.111181735992432 -3.232109308242798 -2.5
5.354687213897705 -2.810351610183716 -2.5
5.736162185668945 -1.9150097370147705 -2.5
6.027763366699219 -0.4866015613079071 -2.5
-5.862519264221191 0.0 -2.5
-5.692152976989746 -1.4029881954193115 -2.5
-5.560805320739746 -1.8564647436141968 -2.5
-5.393393516540527 -2.297900438308716 -2.5
-4.954931735992432 -3.1333203315734863 -2.5
-4.686748027801514 -3.521855354309082 -2.5
-3.3302929401397705 -4.824755668640137 -2.5
-0.7066503763198853 -5.819765567779541 -2.5
0.7066406011581421 -5.819775104522705 -2.5
1.1726659536361694 -5.744023323059082 -2.5
1.6310644149780273 -5.631054401397705 -2.5
2.0788769721984863 -5.481543064117432 -2.5
2.9312596321105957 -5.077070236206055 -2.5
3.3303027153015137 -4.82473611831665 -2.5
3.7077245712280273 -4.541122913360596 -2.5
4.061103343963623 -4.22805643081665 -2.5
4.686748027801514 -3.521845579147339 -2.5
5.191005706787109 -2.724423885345459 -2.5
5.393398284912109 -2.2978906631469727 -2.5
5.560810565948486 -1.8564550876617432 -2.5
5.843515396118164 -0.47172850370407104 -2.5
-5.521767616271973 -1.3610057830810547 -2.5
-5.231943130493164 -2.2291111946105957 -2.5
-4.256796836853027 -3.771191358566284 -2.5
-2.843515634536743 -4.925107479095459 -2.5
-2.437983274459839 -5.137929439544678 -2.5
-1.5822314023971558 -5.462480545043945 -2.5
-0.6854882836341858 -5.645546913146973 -2.5
-0.22899413108825684 -5.68240213394165 -2.5
0.22899413108825684 -5.682412147521973 -2.5
0.6854882836341858 -5.645546913146973 -2.5
1.5822362899780273 -5.462480545043945 -2.5
2.0166211128234863 -5.317451000213623 -2.5
2.843515634536743 -4.92507791519165 -2.5
3.230595588684082 -4.680312633514404 -2.5
3.9395408630371094 -4.101484298706055 -2.5
4.546445369720459 -3.416435480117798 -2.5
5.231953144073486 -2.2291111946105957 -2.5
5.394355297088623 -1.800878882408142 -2.5
5.521777153015137 -1.360986351966858 -2.5
5.613379001617432 -0.91224604845047 -2.5
-5.520155906677246 9.765624781721272e-06 -2.5
-5.502255916595459 -0.4441796839237213 -2.5
-5.448671817779541 -0.8854882717132568 -2.5
-5.236064434051514 -1.748046875 -2.5
-4.887861251831055 -2.5653514862060547 -2.5
-4.665585994720459 -2.9503417015075684 -2.5
-3.8239452838897705 -3.981142520904541 -2.5
-3.4911961555480957 -4.275918006896973 -2.5
-3.135805606842041 -4.543007850646973 -2.5
-1.9574755430221558 -5.161435604095459 -2.5
-1.535805583000183 -5.302196979522705 -2.5
-1.1041698455810547 -5.408593654632568 -2.5
0.6653808355331421 -5.479902267456055 -2.5
1.1041698455810547 -5.408593654632568 -2.5
3.135810375213623 -4.542978286743164 -2.5
3.4911913871765137 -4.275937557220459 -2.5
3.8239452838897705 -3.981142520904541 -2.5
4.413056373596191 -3.3161816596984863 -2.5
4.887861251831055 -2.5653319358825684 -2.5
5.236073970794678 -1.748046875 -2.5
5.448681354522705 -0.8854882717132568 -2.5
5.502255916595459 -0.44416990876197815 -2.5
-5.343876838684082 -0.431396484375 -2.5
-5.291835784912109 -0.85999995470047 -2.5
-5.205468654632568 -1.2830272912979126 -2.5
-4.747162818908691 -2.4914941787719727 -2.5
-3.390702962875366 -4.152871131896973 -2.5
-1.491601586341858 -5.149580001831055 -2.5
-1.0724023580551147 -5.252910137176514 -2.5
-0.6462304592132568 -5.322167873382568 -2.5
-0.2158789038658142 -5.356923580169678 -2.5
0.21586912870407104 -5.356914043426514 -2.5
1.901123046875 -5.012861251831055 -2.5
3.045546770095825 -4.412236213684082 -2.5
3.3907127380371094 -4.152841567993164 -2.5
4.286025524139404 -3.2207226753234863 -2.5
5.291845798492432 -0.8599902391433716 -2.5
5.343886375427246 -0.43138670921325684 -2.5
