ply
format ascii 1.0
element vertex 720
property float x
property float y
property float z
end_header
3.955742120742798 13.656830787658691 3.8097503185272217
-12.143744468688965 17.59327507019043 5.728094577789307
3.9515037536621094 13.642196655273438 3.63747239112854
11.644291877746582 -2.9296874345163815e-05 2.845064640045166
-12.132250785827637 17.576644897460938 5.218266010284424
11.681733131408691 2.8793017864227295 2.7987260818481445
-12.126566886901855 17.568410873413086 4.965797424316406
3.9389891624450684 13.598949432373047 3.12846302986145
3.93487286567688 13.58475112915039 2.961207151412964
3.9226903915405273 13.542685508728027 2.4659645557403564
-12.10655689239502 17.539405822753906 3.727444887161255
-12.107514381408691 17.540800094604492 3.4847893714904785
-12.108481407165527 17.542200088500977 3.2429778575897217
3.9067676067352295 13.4877290725708 1.8190151453018188
-12.110395431518555 17.544967651367188 2.761613607406616
3.902836799621582 13.474169731140137 1.6593514680862427
28.15141487121582 6.938720703125 3.104241371154785
3.89892578125 13.460678100585938 1.5004098415374756
-12.113256454467773 17.549102783203125 2.0442986488342285
3.8911571502685547 13.433847427368164 1.1845812797546387
3.8872997760772705 13.420512199401855 1.0275908708572388
-12.115140914916992 17.55184555053711 1.5685375928878784
3.8834471702575684 13.407221794128418 0.8711950778961182
-12.11607837677002 17.55321502685547 1.331211805343628
-3.692397356033325 18.08653450012207 0.9469161629676819
-12.117026329040527 17.55457878112793 1.09417724609375
-2.188427686691284 18.023265838623047 0.7297104001045227
-12.117963790893555 17.555944442749023 0.8573745489120483
-12.118910789489746 17.55730628967285 0.6207467317581177
3.8708884716033936 13.363876342773438 0.25056517124176025
-2.188432455062866 18.023265838623047 0.32697051763534546
-12.119857788085938 17.558671951293945 0.3842340111732483
-3.6924023628234863 18.08653450012207 -0.0767100527882576
-3.692397356033325 18.08653450012207 -0.2812884449958801
-2.188427686691284 18.023265838623047 -0.47793668508529663
-3.692397356033325 18.086532592773438 -0.4859359562397003
-12.123618125915527 17.56412124633789 -0.5618172883987427
19.3115234375 20.105436325073242 -1.0431063175201416
3.863774299621582 13.339325904846191 -0.5196380615234375
-2.188432455062866 18.023265838623047 -0.6793338060379028
-6.234843730926514 21.5251407623291 -0.8385183811187744
-12.124555587768555 17.565492630004883 -0.7986222505569458
18.91688346862793 19.694576263427734 -1.3249644041061401
3.8623533248901367 13.334418296813965 -0.6735711693763733
0.8146728277206421 20.21624183654785 -0.9816738963127136
-2.188432455062866 18.023265838623047 -0.8808988928794861
-5.010585784912109 17.298498153686523 -0.8738110065460205
18.768413543701172 19.539997100830078 -1.615681529045105
0.769116222858429 19.085466384887695 -1.1390525102615356
-0.8860253691673279 21.986495971679688 -1.312191128730774
-2.188432455062866 18.023265838623047 -1.082680344581604
-4.718574047088623 16.29037094116211 -1.0113794803619385
-12.126440048217773 17.568220138549805 -1.272991418838501
14.344828605651855 2.3312742710113525 -1.0283862352371216
18.7288761138916 19.498836517333984 -1.9131603240966797
0.762255847454071 18.915279388427734 -1.3395682573318481
-12.127387046813965 17.569591522216797 -1.5106725692749023
18.7288761138916 19.49884033203125 -2.2145183086395264
12.286874771118164 25.894100189208984 -2.347599983215332
10.163456916809082 26.798803329467773 -2.347599983215332
3.85809063911438 13.319682121276855 -1.1358367204666138
0.7622607350349426 18.91529655456543 -1.5505754947662354
-0.674072265625 16.726892471313477 -1.3711817264556885
-3.2669529914855957 16.002588272094727 -1.3377784490585327
-4.718578815460205 16.29037094116211 -1.3891619443893433
-12.286762237548828 25.894121170043945 -2.347599983215332
-21.45331573486328 19.00598907470703 -2.347599983215332
26.860151290893555 9.765624781721272e-06 -2.5
26.773061752319336 2.1613523960113525 -2.5
14.652753829956055 3.6115965843200684 -1.4046159982681274
23.783485412597656 12.482548713684082 -2.5
21.47315788269043 16.13603973388672 -2.5
18.606679916381836 19.371620178222656 -2.5
14.328164100646973 20.757925033569336 -2.347599983215332
12.611371994018555 21.843551635742188 -2.347599983215332
8.94411563873291 23.58369255065918 -2.347599983215332
5.045156002044678 24.7130126953125 -2.347599983215332
3.0402636528015137 25.038856506347656 -2.347599983215332
0.7622607350349426 18.915300369262695 -1.761962890625
-1.9560985565185547 16.1098575592041 -1.5104317665100098
-4.718574047088623 16.29037094116211 -1.578544020652771
-8.944130897521973 23.58368682861328 -2.347599983215332
-10.812807083129883 22.787519454956055 -2.347599983215332
-12.611391067504883 21.843544006347656 -2.347599983215332
-11.442084312438965 16.576757431030273 -1.8747336864471436
-13.556371688842773 16.603595733642578 -1.9950454235076904
-18.8795166015625 16.725786209106445 -2.347599983215332
-23.78350067138672 12.482523918151855 -2.5
-24.71079444885254 10.528271675109863 -2.5
13.7037353515625 1.106289029121399 -1.4334560632705688
14.80919361114502 3.650146484375 -1.5902775526046753
22.743587493896484 7.592944145202637 -2.5
21.2310733795166 11.14293384552002 -2.5
12.790483474731445 18.530214309692383 -2.347599983215332
7.9842529296875 21.052730560302734 -2.347599983215332
2.7139892578125 22.35173225402832 -2.347599983215332
0.752246081829071 18.666851043701172 -1.9478617906570435
-0.6740771532058716 16.726892471313477 -1.7454290390014648
-1.956093668937683 16.10986328125 -1.6920160055160522
-3.2669529914855957 16.002588272094727 -1.7029073238372803
-9.652392387390137 20.341997146606445 -2.347599983215332
-11.257885932922363 19.499359130859375 -2.347599983215332
-13.4772310256958 16.506677627563477 -2.2218453884124756
-18.00016975402832 13.526249885559082 -2.347599983215332
-21.231098175048828 11.142914772033691 -2.5
-23.28084373474121 5.738217830657959 -2.5
-23.667064666748047 3.8462791442871094 -2.5
-23.89982795715332 1.929384708404541 -2.5
21.64888572692871 1.4648437172581907e-05 -2.5
13.513529777526855 1.0909326076507568 -1.5656105279922485
13.037128448486328 2.1187498569488525 -1.5252714157104492
16.20441436767578 14.355883598327637 -2.5
11.548291206359863 16.7305850982666 -2.347599983215332
10.16458511352539 17.605588912963867 -2.347599983215332
7.208827972412109 19.008113861083984 -2.347599983215332
2.4504101276397705 20.180953979492188 -2.347599983215332
0.6866552829742432 17.039270401000977 -1.9692800045013428
-0.6732128858566284 16.70567512512207 -1.930725336074829
-3.266957998275757 16.002588272094727 -1.886083960533142
-7.208823204040527 19.00811195373535 -2.347599983215332
-8.7149658203125 18.366405487060547 -2.347599983215332
-10.164541244506836 17.6055908203125 -2.347599983215332
-11.375307083129883 16.479999542236328 -2.3124372959136963
-18.297435760498047 11.570600509643555 -2.5
-20.534780502319336 6.855502605438232 -2.5
-21.368539810180664 3.472734212875366 -2.5
-21.578704833984375 1.7420018911361694 -2.5
13.491766929626465 1.0891796350479126 -1.7152868509292603
12.932304382324219 2.1017186641693115 -1.6603291034698486
17.4682559967041 9.16805648803711 -2.5
13.866430282592773 12.284594535827637 -2.347599983215332
9.262680053710938 16.043441772460938 -2.347599983215332
7.94167947769165 16.73675537109375 -2.347599983215332
6.569189071655273 17.321517944335938 -2.347599983215332
0.6856787204742432 17.015050888061523 -2.157956838607788
-3.175541877746582 15.5548095703125 -2.0118179321289062
-7.941664695739746 16.736757278442383 -2.347599983215332
-14.809965133666992 11.128979682922363 -2.347599983215332
-16.641752243041992 10.5236177444458 -2.495180606842041
-17.46827507019043 9.168046951293945 -2.5
-18.149351119995117 7.732709884643555 -2.5
-18.712718963623047 6.247211933135986 -2.5
-19.15473175048828 4.721205711364746 -2.5
-19.472503662109375 3.16460919380188 -2.5
16.666391372680664 7.100888729095459 -2.5
15.311503410339355 9.682426452636719 -2.5
13.599897384643555 10.219643592834473 -2.347599983215332
10.758920669555664 13.177352905273438 -2.347599983215332
9.663749694824219 14.00035572052002 -2.347599983215332
7.292773246765137 15.369237899780273 -2.347599983215332
2.8016796112060547 13.723554611206055 -1.932900071144104
2.050532102584839 16.88766860961914 -2.347599983215332
-0.29978513717651367 7.439067363739014 -1.027417540550232
-1.900942325592041 15.655634880065918 -2.176330804824829
-3.175546884536743 15.5548095703125 -2.190824508666992
-4.606781959533691 15.904423713684082 -2.285013437271118
-7.292792797088623 15.36922836303711 -2.347599983215332
-8.505829811096191 14.73256778717041 -2.347599983215332
-11.784428596496582 12.26888656616211 -2.347599983215332
-12.733442306518555 11.28084945678711 -2.347599983215332
-14.378119468688965 9.092177391052246 -2.347599983215332
-16.040990829467773 8.4189453125 -2.5
-17.183744430541992 5.736782073974609 -2.5
-17.589643478393555 4.335464000701904 -2.5
-18.05731964111328 1.4577343463897705 -2.5
16.743755340576172 4.882812390860636e-06 -2.5
15.882064819335938 5.302216529846191 -2.5
15.403910636901855 6.562993049621582 -2.5
14.825859069824219 7.781210899353027 -2.5
11.768872261047363 10.4263277053833 -2.347599983215332
10.89174747467041 11.33951187133789 -2.347599983215332
8.93167495727539 12.939828872680664 -2.347599983215332
4.733969688415527 12.48245620727539 -1.993277907371521
2.8016748428344727 13.723529815673828 -2.0913143157958984
1.895205020904541 15.608427047729492 -2.347599983215332
0.2968164086341858 7.365458965301514 -1.1006234884262085
-0.2995019555091858 7.432055473327637 -1.1105761528015137
-1.8952099084854126 15.608417510986328 -2.347599983215332
-4.374409198760986 15.102290153503418 -2.347599983215332
-5.575478553771973 14.701322555541992 -2.347599983215332
-7.861537933349609 13.61656665802002 -2.347599983215332
-10.891742706298828 11.339516639709473 -2.347599983215332
-11.768891334533691 10.426313400268555 -2.347599983215332
-14.8258638381958 7.781205654144287 -2.5
-15.40392017364502 6.56298828125 -2.5
-16.526927947998047 2.6858983039855957 -2.5
13.457441329956055 1.0864062309265137 -2.1690704822540283
15.10891056060791 3.7240185737609863 -2.5
14.31588363647461 6.099428653717041 -2.5
12.350326538085938 7.809882640838623 -2.347599983215332
9.241591453552246 11.318910598754883 -2.347599983215332
8.300834655761719 12.025835037231445 -2.347599983215332
6.264252662658691 13.20166015625 -2.347599983215332
4.733969688415527 12.48245620727539 -2.1447699069976807
2.7194676399230957 13.320829391479492 -2.184227466583252
1.7613329887390137 14.50594711303711 -2.347599983215332
0.294189453125 7.300351619720459 -1.1738054752349854
-1.7613427639007568 14.505942344665527 -2.347599983215332
-2.9228808879852295 14.317177772521973 -2.347599983215332
-4.065449237823486 14.035551071166992 -2.347599983215332
-5.181654930114746 13.662914276123047 -2.347599983215332
-6.264267444610596 13.201655387878418 -2.347599983215332
-8.300854682922363 12.025839805603027 -2.347599983215332
-9.241591453552246 11.318910598754883 -2.347599983215332
-13.778666496276855 7.23159646987915 -2.5
-14.31588363647461 6.099428653717041 -2.5
-15.10891056060791 3.7240185737609863 -2.5
-15.359575271606445 2.4961814880371094 -2.5
-15.510629653930664 1.2521483898162842 -2.5
14.531049728393555 4.882812390860636e-06 -2.5
13.930448532104492 1.1245898008346558 -2.404466390609741
13.78323745727539 4.601523399353027 -2.5
12.082255363464355 6.341269493103027 -2.347599983215332
11.532841682434082 7.292895317077637 -2.347599983215332
10.908597946166992 8.197265625 -2.347599983215332
10.213607788085938 9.048471450805664 -2.347599983215332
8.629862785339355 10.569677352905273 -2.347599983215332
7.751386642456055 11.229819297790527 -2.347599983215332
6.822612285614014 11.81712818145752 -2.347599983215332
4.698051452636719 12.387768745422363 -2.2793796062469482
3.6052098274230957 12.446650505065918 -2.22940731048584
-0.2994726598262787 7.431244850158691 -1.2795484066009521
-2.7294042110443115 13.369477272033691 -2.347599983215332
-4.838666915893555 12.758520126342773 -2.347599983215332
-5.849614143371582 12.327797889709473 -2.347599983215332
-7.751386642456055 11.229809761047363 -2.347599983215332
-10.213613510131836 9.048476219177246 -2.347599983215332
-10.908588409423828 8.197275161743164 -2.347599983215332
-11.5328369140625 7.292914867401123 -2.347599983215332
-12.866605758666992 6.752914905548096 -2.5
-13.36827564239502 5.695688247680664 -2.5
-13.78322696685791 4.601528167724609 -2.5
-14.342875480651855 2.330947160720825 -2.5
-14.483949661254883 1.1692675352096558 -2.5
13.6256685256958 4.882812390860636e-06 -2.5
13.449223518371582 2.185722589492798 -2.5
13.229736328125 3.2608447074890137 -2.5
12.924448013305664 4.314814567565918 -2.5
12.535341262817383 5.340810298919678 -2.5
11.32945728302002 5.94616174697876 -2.347599983215332
10.228910446166992 7.686528205871582 -2.347599983215332
9.577231407165527 8.484697341918945 -2.347599983215332
8.863447189331055 9.227812767028809 -2.347599983215332
-0.2992578148841858 7.426137447357178 -1.3636316061019897
-2.5593016147613525 12.536474227905273 -2.347599983215332
-3.559809446334839 12.289873123168945 -2.347599983215332
-6.397529125213623 11.08083438873291 -2.347599983215332
-7.268422603607178 10.53011703491211 -2.347599983215332
-8.863442420959473 9.227827072143555 -2.347599983215332
-10.814252853393555 6.838520526885986 -2.347599983215332
-12.924448013305664 4.314814567565918 -2.5
12.823447227478027 4.882812390860636e-06 -2.5
12.65738296508789 2.0570361614227295 -2.5
12.1635103225708 4.060786247253418 -2.5
11.797308921813965 5.026362419128418 -2.5
10.662416458129883 5.596083641052246 -2.347599983215332
10.177529335021973 6.435922622680664 -2.347599983215332
9.626669883728027 7.233979225158691 -2.347599983215332
8.341591835021973 8.684531211853027 -2.347599983215332
6.840478420257568 9.91015625 -2.347599983215332
6.020854473114014 10.428446769714355 -2.347599983215332
4.270053386688232 11.259218215942383 -2.347599983215332
3.3502197265625 11.56630802154541 -2.347599983215332
1.4514647722244263 11.953935623168945 -2.347599983215332
-0.30250975489616394 7.506821155548096 -1.4646824598312378
-1.4514745473861694 11.953935623168945 -2.347599983215332
-3.350234270095825 11.566293716430664 -2.347599983215332
-5.162197113037109 10.879106521606445 -2.347599983215332
-10.489145278930664 6.6329345703125 -2.41947603225708
-11.35460376739502 5.95934534072876 -2.5
-12.163500785827637 4.060776233673096 -2.5
-12.781869888305664 1.0318603515625 -2.5
11.950722694396973 1.9421972036361694 -2.5
11.755693435668945 2.897529125213623 -2.5
11.484423637390137 3.8340673446655273 -2.5
11.138671875 4.745741844177246 -2.5
10.067138671875 5.283642292022705 -2.347599983215332
8.510141372680664 7.539345741271973 -2.347599983215332
7.875878810882568 8.199667930603027 -2.347599983215332
6.458579063415527 9.356864929199219 -2.347599983215332
5.684716701507568 9.84622573852539 -2.347599983215332
4.873989105224609 10.271728515625 -2.347599983215332
4.031650066375732 10.630615234375 -2.347599983215332
1.3704394102096558 11.286547660827637 -2.347599983215332
0.4577978551387787 11.36021900177002 -2.347599983215332
-2.2741894721984863 11.139667510986328 -2.347599983215332
-4.873993873596191 10.271723747253418 -2.347599983215332
-5.684716701507568 9.846230506896973 -2.347599983215332
-6.458579063415527 9.356855392456055 -2.347599983215332
-7.1905517578125 8.8068208694458 -2.347599983215332
-7.875888347625732 8.199663162231445 -2.347599983215332
-8.510146141052246 7.539330959320068 -2.347599983215332
-9.089208602905273 6.830102443695068 -2.347599983215332
-10.204301834106445 6.452822208404541 -2.492955207824707
-10.72066879272461 5.626635551452637 -2.5
-11.138667106628418 4.745741844177246 -2.5
-11.484428405761719 3.8340673446655273 -2.5
11.464516639709473 0.0 -2.5
11.427343368530273 0.9225146174430847 -2.5
11.13137149810791 2.743642568588257 -2.5
9.53249454498291 5.003041744232178 -2.347599983215332
9.099003791809082 5.753891468048096 -2.347599983215332
8.05819320678711 7.138959884643555 -2.347599983215332
6.808676719665527 8.339125633239746 -2.347599983215332
6.115581035614014 8.859946250915527 -2.347599983215332
4.615136623382568 9.72622013092041 -2.347599983215332
2.995190382003784 10.340595245361328 -2.347599983215332
2.1534080505371094 10.548075675964355 -2.347599983215332
1.2976415157318115 10.687143325805664 -2.347599983215332
0.43348631262779236 10.756903648376465 -2.347599983215332
-1.2976561784744263 10.687143325805664 -2.347599983215332
-2.1534080505371094 10.548075675964355 -2.347599983215332
-3.8175437450408936 10.066044807434082 -2.347599983215332
-4.615156173706055 9.726224899291992 -2.347599983215332
-5.382822036743164 9.323315620422363 -2.347599983215332
-8.058188438415527 7.138935565948486 -2.347599983215332
-10.151323318481445 5.327822208404541 -2.5
-10.547114372253418 4.493705749511719 -2.5
10.74276351928711 1.74587881565094 -2.5
10.323588371276855 3.446523427963257 -2.5
10.012787818908691 4.266049861907959 -2.5
9.049570083618164 4.749579906463623 -2.347599983215332
8.170488357543945 6.139740943908691 -2.347599983215332
7.079794883728027 7.370863914489746 -2.347599983215332
6.463735103607178 7.916650295257568 -2.347599983215332
5.805751800537109 8.411088943481445 -2.347599983215332
3.6241455078125 9.556083679199219 -2.347599983215332
2.84344220161438 9.816718101501465 -2.347599983215332
1.231909155845642 10.145722389221191 -2.347599983215332
0.4115234315395355 10.211953163146973 -2.347599983215332
-1.2319189310073853 10.14571762084961 -2.347599983215332
-2.044316291809082 10.013681411743164 -2.347599983215332
-5.110116958618164 8.850981712341309 -2.347599983215332
-5.805756568908691 8.411084175109863 -2.347599983215332
-6.463735103607178 7.916640281677246 -2.347599983215332
-7.079804420471191 7.370854377746582 -2.347599983215332
-8.170488357543945 6.139726638793945 -2.347599983215332
-9.184365272521973 5.807841777801514 -2.4960780143737793
-9.637036323547363 5.057900428771973 -2.5
-10.323578834533691 3.4465184211730957 -2.5
-10.84841251373291 0.875781238079071 -2.5
10.222241401672363 1.66128408908844 -2.5
8.611088752746582 4.519462585449219 -2.347599983215332
8.219496726989746 5.197719573974609 -2.347599983215332
4.770092487335205 4.966206073760986 -1.66226327419281
2.7056736946105957 9.341073989868164 -2.347599983215332
1.1722265481948853 9.654135704040527 -2.347599983215332
0.39158201217651367 9.717147827148438 -2.347599983215332
-0.39158689975738525 9.717153549194336 -2.347599983215332
-1.1722265481948853 9.654120445251465 -2.347599983215332
-4.169057369232178 8.786078453063965 -2.347599983215332
-6.150546550750732 7.533061504364014 -2.347599983215332
-6.736762523651123 7.013720512390137 -2.347599983215332
-7.27929162979126 6.448891639709473 -2.347599983215332
-7.774604320526123 5.842236042022705 -2.347599983215332
-9.527631759643555 4.059340953826904 -2.5
-9.823378562927246 3.279531240463257 -2.5
-10.055415153503418 2.478447198867798 -2.5
-10.32277774810791 0.8333398103713989 -2.5
9.875307083129883 4.882812390860636e-06 -2.5
9.747421264648438 1.5841162204742432 -2.5
9.367084503173828 3.127192258834839 -2.5
9.085073471069336 3.87078595161438 -2.5
8.211103439331055 4.309521198272705 -2.347599983215332
7.837705135345459 4.956279277801514 -2.347599983215332
6.941166877746582 6.149345397949219 -2.347599983215332
4.744179725646973 4.939223289489746 -1.7337652444839478
4.636645317077637 8.030922889709473 -2.347599983215332
3.9753856658935547 8.377978324890137 -2.347599983215332
0.37339353561401367 9.265790939331055 -2.347599983215332
-1.117773413658142 9.2056884765625 -2.347599983215332
-1.8549071550369263 9.085898399353027 -2.347599983215332
-3.2883496284484863 8.670693397521973 -2.347599983215332
-5.267846584320068 7.631772518157959 -2.347599983215332
-5.864853382110596 7.183149337768555 -2.347599983215332
-7.413466453552246 5.570864200592041 -2.347599983215332
-8.344858169555664 5.2769775390625 -2.499508857727051
-9.367079734802246 3.127192258834839 -2.5
-9.747416496276855 1.5841162204742432 -2.5
-9.843280792236328 0.7946337461471558 -2.5
9.43459415435791 0.0 -2.5
9.404008865356445 0.7591747641563416 -2.5
8.679643630981445 3.6980466842651367 -2.5
8.097983360290527 4.250155925750732 -2.423405647277832
7.0826416015625 5.322265625 -2.347599983215332
5.032748699188232 7.291201114654541 -2.347599983215332
3.797978401184082 8.004101753234863 -2.347599983215332
2.464858293533325 8.509682655334473 -2.347599983215332
1.0678906440734863 8.794878005981445 -2.347599983215332
-0.35673826932907104 8.852290153503418 -2.347599983215332
-1.067895531654358 8.794867515563965 -2.347599983215332
-2.4648730754852295 8.509673118591309 -2.347599983215332
-3.141596555709839 8.283744812011719 -2.347599983215332
-3.7979931831359863 8.0040864944458 -2.347599983215332
-4.429736137390137 7.672529220581055 -2.347599983215332
-5.603125095367432 6.862587928771973 -2.347599983215332
-6.631406307220459 5.874917030334473 -2.347599983215332
-8.353930473327637 4.384472370147705 -2.5
-8.949057579040527 2.9876365661621094 -2.5
-9.312426567077637 1.513427734375 -2.5
-9.404004096984863 0.7591650485992432 -2.5
9.029276847839355 0.0 -2.5
8.999995231628418 0.7265576124191284 -2.5
7.972763538360596 4.184433460235596 -2.493037462234497
7.166240215301514 4.531660079956055 -2.347599983215332
6.346508502960205 5.622504711151123 -2.347599983215332
4.816533088684082 6.977963924407959 -2.347599983215332
3.6348094940185547 7.660224437713623 -2.347599983215332
2.358964681625366 8.144096374511719 -2.347599983215332
1.022006869316101 8.417036056518555 -2.347599983215332
-0.34141111373901367 8.471977233886719 -2.347599983215332
-1.6959960460662842 8.3074951171875 -2.347599983215332
-3.006645441055298 7.927865982055664 -2.347599983215332
-3.6348142623901367 7.660229206085205 -2.347599983215332
-4.239433288574219 7.342900276184082 -2.347599983215332
-4.816542625427246 6.977958679199219 -2.347599983215332
-5.873496055603027 6.114965915679932 -2.347599983215332
-7.995034217834473 4.196108341217041 -2.5
-8.306753158569336 3.539174795150757 -2.5
-8.56459903717041 2.8592822551727295 -2.5
-8.912353515625 1.448403239250183 -2.5
-9.0 0.7265527248382568 -2.5
8.40365219116211 2.0713183879852295 -2.5
7.962568283081055 3.392534017562866 -2.5
7.649418830871582 4.014726638793945 -2.49532151222229
6.497495174407959 4.882558345794678 -2.347599983215332
6.083554744720459 5.389560222625732 -2.347599983215332
5.140214920043945 6.295634746551514 -2.347599983215332
3.484208822250366 7.342832088470459 -2.347599983215332
2.8820652961730957 7.599384784698486 -2.347599983215332
0.9796679615974426 8.068281173706055 -2.347599983215332
0.32725584506988525 8.120946884155273 -2.347599983215332
-0.32726073265075684 8.120946884155273 -2.347599983215332
-0.9796728491783142 8.06827163696289 -2.347599983215332
-1.6257177591323853 7.963281154632568 -2.347599983215332
-2.8820555210113525 7.599374771118164 -2.347599983215332
-4.063769340515137 7.038657188415527 -2.347599983215332
-5.140214920043945 6.295624732971191 -2.347599983215332
-6.900815486907959 5.185629844665527 -2.4933204650878906
-7.962568283081055 3.392529249191284 -2.5
-8.627079963684082 0.6964550614356995 -2.5
8.067240715026855 1.9883984327316284 -2.5
6.630321979522705 4.192768573760986 -2.3604140281677246
6.237397193908691 4.687109470367432 -2.347599983215332
4.725395202636719 4.919662952423096 -2.0525121688842773
3.9010887145996094 6.756899356842041 -2.347599983215332
2.1706981658935547 7.494140625 -2.347599983215332
-4.432143688201904 6.421064376831055 -2.347599983215332
-4.9344482421875 6.04360818862915 -2.347599983215332
-7.022411823272705 4.440707683563232 -2.5
-7.881078720092773 2.6310887336730957 -2.5
-8.067240715026855 1.9883984327316284 -2.5
7.960912704467773 0.6426757574081421 -2.5
7.754731178283691 1.9113720655441284 -2.5
7.071972370147705 3.7116551399230957 -2.5
6.605190277099609 4.176869869232178 -2.44623064994812
4.717074871063232 4.910995960235596 -2.1314663887023926
4.260454177856445 6.172328948974609 -2.347599983215332
3.7499706745147705 6.495141506195068 -2.347599983215332
2.6595115661621094 7.012563228607178 -2.347599983215332
1.5001757144927979 7.348369121551514 -2.347599983215332
0.30198240280151367 7.493857383728027 -2.347599983215332
-0.30199217796325684 7.493857383728027 -2.347599983215332
-1.500185489654541 7.348359107971191 -2.347599983215332
-3.7499706745147705 6.495136737823486 -2.347599983215332
-4.260448932647705 6.172324180603027 -2.347599983215332
-6.377968788146973 4.792734146118164 -2.497246265411377
-6.750375747680664 4.2686767578125 -2.5
-7.071972370147705 3.7116503715515137 -2.5
-7.575780868530273 2.529169797897339 -2.5
-7.960917949676514 0.6426757574081421 -2.5
7.662035942077637 0.6185449361801147 -2.5
7.463593482971191 1.8396142721176147 -2.5
6.806474685668945 3.5723142623901367 -2.5
5.403027057647705 4.786674499511719 -2.347599983215332
4.708720684051514 4.902299880981445 -2.210688352584839
4.565224647521973 5.591391563415527 -2.347599983215332
2.5596678256988525 6.749291896820068 -2.347599983215332
2.0082762241363525 6.933373928070068 -2.347599983215332
1.4438623189926147 7.072494983673096 -2.347599983215332
0.8700731992721558 7.165741920471191 -2.347599983215332
0.2906494140625 7.21251916885376 -2.347599983215332
-0.2906543016433716 7.212514400482178 -2.347599983215332
-0.8700878620147705 7.165732383728027 -2.347599983215332
-2.0082762241363525 6.933373928070068 -2.347599983215332
-2.5596580505371094 6.749291896820068 -2.347599983215332
-3.0944578647613525 6.521430492401123 -2.347599983215332
-3.6091794967651367 6.251288890838623 -2.347599983215332
-4.100497722625732 5.940595626831055 -2.347599983215332
-4.56521463394165 5.591381549835205 -2.347599983215332
-6.143232345581055 4.616347789764404 -2.49916672706604
-7.071845531463623 3.0130271911621094 -2.5
-7.463647365570068 1.8394140005111694 -2.5
-7.587421894073486 1.2330907583236694 -2.5
7.406874656677246 9.765624781721272e-06 -2.5
7.382856369018555 0.5960107445716858 -2.5
7.025688171386719 2.345527410507202 -2.5
6.814169883728027 2.903247117996216 -2.5
6.55846643447876 3.442153215408325 -2.5
3.4776806831359863 6.023515701293945 -2.347599983215332
2.981699228286743 6.283818244934082 -2.347599983215332
2.4664013385772705 6.503364086151123 -2.347599983215332
0.83837890625 6.904643535614014 -2.347599983215332
-1.3912500143051147 6.814789772033691 -2.347599983215332
-1.9351024627685547 6.680737018585205 -2.347599983215332
-3.477670907974243 6.023510456085205 -2.347599983215332
-3.9510936737060547 5.724140644073486 -2.347599983215332
-4.818134784698486 5.016215801239014 -2.347599983215332
-6.55846643447876 3.442138671875 -2.5
-7.025688171386719 2.345517635345459 -2.5
7.144589900970459 4.882812390860636e-06 -2.5
6.936972618103027 1.7098193168640137 -2.5
6.57287073135376 2.8004491329193115 -2.5
6.326225280761719 3.320258617401123 -2.5
5.021796703338623 4.448935508728027 -2.347599983215332
4.243110179901123 5.196869850158691 -2.347599983215332
2.8761229515075684 6.06130838394165 -2.347599983215332
2.3790674209594727 6.273085594177246 -2.347599983215332
1.8665820360183716 6.444169998168945 -2.347599983215332
1.341982364654541 6.573466777801514 -2.347599983215332
0.8086913824081421 6.660136699676514 -2.347599983215332
0.2701464891433716 6.703618049621582 -2.347599983215332
-0.2701464891433716 6.70361328125 -2.347599983215332
-1.8665820360183716 6.444169998168945 -2.347599983215332
-2.3790576457977295 6.273076057434082 -2.347599983215332
-3.3545262813568115 5.81020975112915 -2.347599983215332
-4.243100643157959 5.196875095367432 -2.347599983215332
-4.647524356842041 4.838583946228027 -2.347599983215332
-5.334946155548096 4.726352214813232 -2.493990182876587
-6.326225280761719 3.32024884223938 -2.5
-6.936977386474609 1.709814429283142 -2.5
-7.052070140838623 1.146083950996399 -2.5
-7.121420860290527 0.5748974680900574 -2.5
6.898412704467773 4.882812390860636e-06 -2.5
6.876039981842041 0.5550976395606995 -2.5
6.697958946228027 1.6509032249450684 -2.5
6.346396446228027 2.7039549350738525 -2.5
6.108242034912109 3.2058544158935547 -2.5
5.830463886260986 3.686967611312866 -2.5
5.499413967132568 4.132544040679932 -2.4929864406585693
4.848764419555664 4.295629978179932 -2.347599983215332
4.096909046173096 5.017807483673096 -2.347599983215332
2.2970898151397705 6.056933403015137 -2.347599983215332
1.8022607564926147 6.222133636474609 -2.347599983215332
0.7808203101158142 6.43065881729126 -2.347599983215332
0.2608398497104645 6.472636699676514 -2.347599983215332
-1.8022607564926147 6.222128868103027 -2.347599983215332
-2.7770214080810547 5.85244607925415 -2.347599983215332
-3.6798582077026367 5.331186294555664 -2.347599983215332
-5.155092716217041 4.567026138305664 -2.4959182739257812
-5.514877796173096 4.1441650390625 -2.5
-6.346391677856445 2.7039451599121094 -2.5
-6.543393611907959 2.184501886367798 -2.5
-6.697954177856445 1.65090811252594 -2.5
6.645224571228027 0.5364648103713989 -2.5
6.580512523651123 1.0694384574890137 -2.5
5.634750843048096 3.5632030963897705 -2.5
5.319687366485596 3.9974851608276367 -2.4952754974365234
4.730644226074219 4.190990924835205 -2.369966745376587
4.336752891540527 4.515038967132568 -2.347599983215332
3.9593749046325684 4.849365234375 -2.347599983215332
3.1302196979522705 5.421699047088623 -2.347599983215332
2.6837987899780273 5.655991077423096 -2.347599983215332
1.741762638092041 6.013256549835205 -2.347599983215332
0.7546044588088989 6.214780330657959 -2.347599983215332
-0.7546142339706421 6.214789867401123 -2.347599983215332
-1.2522509098052979 6.13390588760376 -2.347599983215332
-2.6837987899780273 5.655991077423096 -2.347599983215332
-4.985922813415527 4.417153358459473 -2.497861623764038
-5.329760551452637 4.005058288574219 -2.5
-5.634741306304932 3.5632030963897705 -2.5
-5.9031982421875 3.0982372760772705 -2.5
-6.133359432220459 2.6131834983825684 -2.5
-6.473114967346191 1.595483422279358 -2.5
-6.645214557647705 0.5364550948143005 -2.5
6.427656173706055 0.5188964605331421 -2.5
6.261176586151123 1.5432469844818115 -2.5
6.11669921875 2.042055606842041 -2.5
5.932543754577637 2.5276172161102295 -2.5
5.450263500213623 3.446547746658325 -2.5
5.149975299835205 3.8699560165405273 -2.497437000274658
4.194765567779541 4.367221355438232 -2.347599983215332
3.8297507762908936 4.690600395202637 -2.347599983215332
3.0277342796325684 5.244184494018555 -2.347599983215332
2.1472997665405273 5.661952972412109 -2.347599983215332
0.2438330054283142 6.050551414489746 -2.347599983215332
-0.7299023270606995 6.011308670043945 -2.347599983215332
-1.6847411394119263 5.816381931304932 -2.347599983215332
-2.147289991378784 5.661957740783691 -2.347599983215332
-2.5959227085113525 5.470815181732178 -2.347599983215332
-3.439892530441284 4.98354959487915 -2.347599983215332
-3.8297412395477295 4.690595626831055 -2.347599983215332
-4.453628063201904 4.636723518371582 -2.4924752712249756
-5.450263500213623 3.446533203125 -2.5
-6.365048885345459 1.0344384908676147 -2.5
-6.427651405334473 0.5188964605331421 -2.5
6.161586761474609 1.0013574361801147 -2.5
5.921162128448486 1.9767773151397705 -2.5
5.742900371551514 2.446826219558716 -2.5
5.527392387390137 2.900995969772339 -2.5
4.989433288574219 3.7493114471435547 -2.4994819164276123
4.659555435180664 4.128012657165527 -2.49306321144104
3.3299267292022705 4.824243068695068 -2.347599983215332
1.6308740377426147 5.630449295043945 -2.347599983215332
1.1725341081619263 5.743422508239746 -2.347599983215332
-0.7065722346305847 5.819145202636719 -2.347599983215332
-1.1725341081619263 5.743417739868164 -2.347599983215332
-1.6308789253234863 5.630444049835205 -2.347599983215332
-2.9309422969818115 5.076533317565918 -2.347599983215332
-4.314643383026123 4.492021560668945 -2.4944307804107666
-4.672519207000732 4.139492034912109 -2.5
-4.990448951721191 3.7500927448272705 -2.5
-5.276034832000732 3.33636212348938 -2.5
-5.527392387390137 2.900995969772339 -2.5
-6.161581993103027 1.0013525485992432 -2.5
-6.222177505493164 0.5022997856140137 -2.5
5.354687213897705 2.810356378555298 -2.5
4.020307540893555 4.185580730438232 -2.399223804473877
3.5914793014526367 4.398779392242432 -2.347599983215332
3.225883722305298 4.673501014709473 -2.347599983215332
2.839365243911743 4.917929649353027 -2.347599983215332
2.0137012004852295 5.309701919555664 -2.347599983215332
1.135903239250183 5.563969612121582 -2.347599983215332
0.6844921708106995 5.6373291015625 -2.347599983215332
0.22865721583366394 5.674125671386719 -2.347599983215332
-0.6844921708106995 5.63732385635376 -2.347599983215332
-1.1358935832977295 5.56396484375 -2.347599983215332
-2.839365243911743 4.917919635772705 -2.347599983215332
-3.225883722305298 4.673501014709473 -2.347599983215332
-4.182929515838623 4.354902267456055 -2.496283769607544
-4.834531307220459 3.6329150199890137 -2.5
-5.871650218963623 1.4472362995147705 -2.5
-5.969067096710205 0.9700683355331421 -2.5
-6.027758598327637 0.4866064488887787 -2.5
5.843505859375 0.471748024225235 -2.5
5.786601543426514 0.9404150247573853 -2.5
5.69216775894165 1.4029979705810547 -2.5
5.191000938415527 2.7244529724121094 -2.5
4.686748027801514 3.5218701362609863 -2.5
4.383261680603027 3.883242130279541 -2.4972119331359863
3.481703996658325 4.264316082000732 -2.347599983215332
2.3600146770477295 4.973628044128418 -2.347599983215332
1.5316259860992432 5.287792682647705 -2.347599983215332
-0.22166503965854645 5.500673770904541 -2.347599983215332
-0.6635693311691284 5.465004920959473 -2.347599983215332
-1.5316308736801147 5.287787914276123 -2.347599983215332
-2.7525634765625 4.767592430114746 -2.347599983215332
-3.1272802352905273 4.5306396484375 -2.347599983215332
-3.674086809158325 4.499946117401123 -2.4773218631744385
-4.686748027801514 3.5218701362609863 -2.5
-4.954941272735596 3.133310556411743 -2.5
-5.191000938415527 2.724438428878784 -2.5
-5.393398284912109 2.297910213470459 -2.5
-5.560810565948486 1.8564696311950684 -2.5
-5.69216775894165 1.4029979705810547 -2.5
-5.786601543426514 0.9404150247573853 -2.5
-5.84350061416626 0.4717431664466858 -2.5
5.687031269073486 4.882812390860636e-06 -2.5
5.6685791015625 0.4576171636581421 -2.5
5.613383769989014 0.9122704863548279 -2.5
5.035610198974609 2.642900228500366 -2.5
4.806616306304932 3.0395262241363525 -2.5
4.546450138092041 3.416435480117798 -2.5
3.9295995235443115 4.091142654418945 -2.4936881065368652
3.4206836223602295 4.189579963684082 -2.377631425857544
3.0336668491363525 4.39501953125 -2.347599983215332
2.289365291595459 4.824740886688232 -2.347599983215332
1.485781192779541 5.129497051239014 -2.347599983215332
1.0682079792022705 5.232421875 -2.347599983215332
0.6437060236930847 5.301411151885986 -2.347599983215332
-1.8937108516693115 4.993305683135986 -2.347599983215332
-2.670170783996582 4.624867916107178 -2.347599983215332
-3.061328172683716 4.435102462768555 -2.3690133094787598
-3.9390869140625 4.101025104522705 -2.4997148513793945
-4.256801605224609 3.771191358566284 -2.5
-5.035614967346191 2.642890453338623 -2.5
-5.394345760345459 1.8008984327316284 -2.5
-5.521767616271973 1.3609960079193115 -2.5
5.520155906677246 4.882812390860636e-06 -2.5
5.448676586151123 0.8855078220367432 -2.5
5.236073970794678 1.7480615377426147 -2.5
5.078437328338623 2.1637206077575684 -2.5
4.887856483459473 2.5653467178344727 -2.5
4.665580749511719 2.9503417015075684 -2.5
4.413051605224609 3.3162012100219727 -2.5
4.131894588470459 3.6605420112609863 -2.5
3.4108691215515137 4.177568435668945 -2.4424803256988525
1.8381494283676147 4.8468017578125 -2.347599983215332
1.442177653312683 4.978989124298096 -2.347599983215332
1.036865234375 5.078896522521973 -2.347599983215332
0.20873045921325684 5.179452896118164 -2.347599983215332
-2.5918211936950684 4.489169597625732 -2.347599983215332
-3.0521581172943115 4.421811580657959 -2.433311939239502
-3.8239402770996094 3.981157064437866 -2.5
-4.131894588470459 3.6605420112609863 -2.5
-4.413046836853027 3.3161864280700684 -2.5
-5.078437328338623 2.1637158393859863 -2.5
-5.236073970794678 1.7480615377426147 -2.5
-5.359755516052246 1.3210595846176147 -2.5
5.361264705657959 -1.4648437172581907e-05 -2.5
5.291840553283691 0.8600146174430847 -2.5
4.747168064117432 2.491508722305298 -2.5
4.286035060882568 3.2207517623901367 -2.5
3.7102537155151367 3.862787961959839 -2.49755859375
2.517221689224243 4.359961032867432 -2.347599983215332
2.1582274436950684 4.548373699188232 -2.347599983215332
1.7852392196655273 4.707294940948486 -2.347599983215332
1.400673747062683 4.835678577423096 -2.347599983215332
1.0070165395736694 4.932704925537109 -2.347599983215332
0.20271971821784973 5.030365943908691 -2.347599983215332
-0.6068407893180847 4.997744083404541 -2.347599983215332
-3.0364599227905273 4.399067401885986 -2.492539882659912
-3.713881731033325 3.8665623664855957 -2.5
-4.286020278930664 3.2207422256469727 -2.5
-4.531293869018555 2.865419864654541 -2.5
-4.747168064117432 2.491503953933716 -2.5
-4.932255744934082 2.101435422897339 -2.5
-5.20547342300415 1.2830370664596558 -2.5
-5.291840553283691 0.8600146174430847 -2.5
-5.343896389007568 0.4313281178474426 -2.5
