ply
format ascii 1.0
element vertex 738
property float x
property float y
property float z
end_header
-4.823115348815918 -16.651371002197266 4.439815044403076
-4.822480201721191 -16.649173736572266 4.2351226806640625
-4.821850299835205 -16.64700698852539 4.031589031219482
-4.821215629577637 -16.644838333129883 3.829158306121826
-4.81936502456665 -16.638402938842773 3.227875232696533
25.152816772460938 -8.397235870361328 4.941322326660156
-4.818739891052246 -16.63628387451172 3.0292675495147705
-4.818129539489746 -16.634164810180664 2.8314788341522217
-4.817519187927246 -16.632055282592773 2.6344573497772217
-4.815707683563232 -16.62578582763672 2.047459602355957
-4.814501762390137 -16.621625900268555 1.6590077877044678
-4.813305377960205 -16.617494583129883 1.2723979949951172
-4.812709808349609 -16.615434646606445 1.07966148853302
-4.812119007110596 -16.613372802734375 0.8872384428977966
-3.0961668491363525 -25.499311447143555 1.3176336288452148
-4.810922622680664 -16.609272003173828 0.5031439065933228
-4.810327053070068 -16.607221603393555 0.31137603521347046
-18.883041381835938 -11.940932273864746 0.15473754703998566
-17.901168823242188 -13.451849937438965 0.1550857573747635
-4.809731483459473 -16.605180740356445 0.11973357945680618
-17.95473861694336 -13.4921236038208 -0.09333236515522003
-17.384214401245117 -13.063393592834473 -0.33135986328125
-17.384218215942383 -13.0634126663208 -0.5724349617958069
-4.807959079742432 -16.599037170410156 -0.45492035150527954
-4.807358264923096 -16.59697723388672 -0.6465405225753784
-17.359691619873047 -13.044975280761719 -1.0535856485366821
-4.806772232055664 -16.594926834106445 -0.8382720947265625
-4.806171894073486 -16.592876434326172 -1.0301605463027954
-17.520280838012695 -4.318374156951904 -1.2768741846084595
-17.384218215942383 -13.0634126663208 -1.5387499332427979
-11.569994926452637 -20.0397891998291 -1.637431025505066
13.30001449584961 -19.268354415893555 -1.6567388772964478
-18.923097610473633 -3.0753173828125 -1.5702908039093018
-17.359691619873047 -13.044965744018555 -1.7786145210266113
-17.520023345947266 -18.240297317504883 -2.071577310562134
-16.413930892944336 -23.779741287231445 -2.366698741912842
-11.031498908996582 -19.10710334777832 -1.8071389198303223
-12.417655944824219 -26.16964340209961 -2.3725786209106445
-10.279897689819336 -27.105863571166992 -2.374497413635254
-4.806650161743164 -16.59451675415039 -1.4150985479354858
-3.498183488845825 -28.810199737548828 -2.3771255016326904
-1.16845703125 -28.995317459106445 -2.3768763542175293
5.797865867614746 -28.399818420410156 -2.374159574508667
13.451181411743164 -19.48735809326172 -1.9394978284835815
19.937137603759766 -20.756752014160156 -2.3573784828186035
21.507577896118164 -19.054058074951172 -2.3535304069519043
24.22429084777832 -15.318490982055664 -2.347599983215332
25.37838363647461 -13.31960391998291 -2.347599983215332
26.367835998535156 -11.23428726196289 -2.347599983215332
27.913686752319336 -6.880102157592773 -2.354787588119507
-26.860158920288086 -2.4414061044808477e-05 -2.5
-26.77305030822754 -2.161367177963257 -2.5
-16.541141510009766 -4.077041149139404 -1.5856379270553589
-21.318012237548828 -13.480708122253418 -2.347599983215332
-17.47242546081543 -18.19072723388672 -2.347599983215332
-15.975653648376465 -19.56666374206543 -2.3510801792144775
-8.996416091918945 -23.721614837646484 -2.3613293170928955
-4.808203220367432 -16.59988784790039 -1.6085355281829834
-5.079370021820068 -24.880462646484375 -2.3635058403015137
-3.061352491378784 -25.2125244140625 -2.3638830184936523
0.8241796493530273 -20.451351165771484 -1.90504789352417
3.060537099838257 -25.20564842224121 -2.3632373809814453
5.076176643371582 -24.8647403717041 -2.3620123863220215
7.055805683135986 -24.359437942504883 -2.360441207885742
10.855385780334473 -22.87721061706543 -2.3568410873413086
14.35756778717041 -20.80050277709961 -2.3524153232574463
15.965497970581055 -19.554155349731445 -2.349581241607666
17.472421646118164 -18.190717697143555 -2.347599983215332
21.31804656982422 -13.480688095092773 -2.347599983215332
25.283246994018555 -8.440780639648438 -2.480905771255493
26.77305030822754 -2.1613378524780273 -2.5
-23.97759437561035 -2.4414061044808477e-05 -2.5
-23.89984130859375 -1.9294238090515137 -2.5
-22.743595123291016 -7.592944145202637 -2.5
-22.05886459350586 -9.398432731628418 -2.5
-21.192045211791992 -11.12246036529541 -2.49540114402771
-19.030216217041016 -12.033998489379883 -2.347599983215332
-18.000185012817383 -13.526254653930664 -2.347599983215332
-15.597338676452637 -16.23853874206543 -2.347599983215332
-12.790478706359863 -18.530248641967773 -2.347599983215332
-11.257612228393555 -19.498754501342773 -2.3475279808044434
-0.90895015001297 -22.5559024810791 -2.3536767959594727
0.8313525319099426 -20.629262924194336 -2.1526360511779785
6.273149490356445 -21.657386779785156 -2.3509035110473633
7.990766525268555 -21.069896697998047 -2.349510431289673
9.653217315673828 -20.34371566772461 -2.3477957248687744
11.25796890258789 -19.499359130859375 -2.347599983215332
14.240097045898438 -17.44093132019043 -2.347599983215332
19.03023910522461 -12.033988952636719 -2.347599983215332
20.5590763092041 -10.790234565734863 -2.420869827270508
22.058881759643555 -9.398412704467773 -2.5
22.743587493896484 -7.592915058135986 -2.5
23.66709327697754 -3.8462791442871094 -2.5
-21.57869529724121 -1.7420361042022705 -2.5
-18.448347091674805 -2.998159170150757 -2.158353567123413
-16.434185028076172 -4.050678730010986 -1.954606533050537
-20.534759521484375 -6.855517387390137 -2.5
-19.169137954711914 -10.060751914978027 -2.5
-18.27899932861328 -11.5589599609375 -2.497483253479004
-16.325204849243164 -12.267597198486328 -2.3581721782684326
-12.85707950592041 -15.74709415435791 -2.347599983215332
-10.16458511352539 -17.6055908203125 -2.347599983215332
-8.714961051940918 -18.366411209106445 -2.347599983215332
-5.933046817779541 -15.644145011901855 -1.9321318864822388
-4.605087757110596 -15.898637771606445 -1.9114303588867188
-4.066342830657959 -19.918344497680664 -2.347599983215332
-2.4504003524780273 -20.180952072143555 -2.347599983215332
0.8185888528823853 -20.31269073486328 -2.347599983215332
2.450429677963257 -20.18096160888672 -2.347599983215332
4.066357135772705 -19.918344497680664 -2.347599983215332
5.655937194824219 -19.526546478271484 -2.347599983215332
8.714984893798828 -18.366411209106445 -2.347599983215332
10.164594650268555 -17.605581283569336 -2.347599983215332
11.54830551147461 -16.730581283569336 -2.347599983215332
12.857109069824219 -15.747075080871582 -2.347599983215332
14.082514762878418 -14.661449432373047 -2.347599983215332
15.2166109085083 -13.48073673248291 -2.347599983215332
18.259136199951172 -11.546361923217773 -2.4947664737701416
20.534759521484375 -6.855512619018555 -2.5
21.01980972290039 -5.180908203125 -2.5
21.368539810180664 -3.472724437713623 -2.5
-19.72798728942871 -1.4648437172581907e-05 -2.5
-19.66400909423828 -1.5874559879302979 -2.5
-16.4503173828125 -4.054653167724609 -2.1470324993133545
-18.71270751953125 -6.247231483459473 -2.5
-18.149330139160156 -7.732734203338623 -2.5
-16.673900604248047 -10.543940544128418 -2.5
-11.716269493103027 -14.349858283996582 -2.347599983215332
-10.523588180541992 -15.246088981628418 -2.347599983215332
-9.262675285339355 -16.043432235717773 -2.347599983215332
-5.939653396606445 -15.661596298217773 -2.1226272583007812
-1.243105411529541 -10.237924575805664 -1.3069137334823608
-0.4060693383216858 -10.076879501342773 -1.278012990951538
3.7055516242980957 -18.150981903076172 -2.347599983215332
5.154091835021973 -17.793949127197266 -2.347599983215332
9.262685775756836 -16.043432235717773 -2.347599983215332
11.71629810333252 -14.349838256835938 -2.347599983215332
14.562870979309082 -12.901567459106445 -2.465506076812744
15.771406173706055 -11.851435661315918 -2.5
16.673900604248047 -10.543935775756836 -2.5
18.71271514892578 -6.247216701507568 -2.5
-18.116052627563477 -9.765624781721272e-06 -2.5
-18.05730628967285 -1.4577587842941284 -2.5
-17.589635848999023 -4.335464000701904 -2.5
-17.183744430541992 -5.736782073974609 -2.5
-15.311498641967773 -9.682421684265137 -2.5
-14.482744216918945 -10.88308048248291 -2.5
-13.560053825378418 -12.013178825378418 -2.5
-12.473485946655273 -12.986284255981445 -2.4848711490631104
-9.663735389709473 -14.00035572052002 -2.347599983215332
-5.899955749511719 -15.556918144226074 -2.2960453033447266
-4.574316501617432 -15.792387008666992 -2.2689156532287598
-1.2135448455810547 -9.994497299194336 -1.389361023902893
-0.4043603539466858 -10.034316062927246 -1.3858498334884644
3.402778148651123 -16.667905807495117 -2.347599983215332
6.032446384429932 -15.90621566772461 -2.347599983215332
7.292797565460205 -15.369223594665527 -2.347599983215332
11.2064790725708 -13.725424766540527 -2.445241689682007
13.56005859375 -12.01317310333252 -2.5
14.482748985290527 -10.883070945739746 -2.5
16.040971755981445 -8.418954849243164 -2.5
17.589637756347656 -4.335453987121582 -2.5
17.881460189819336 -2.906020402908325 -2.5
18.05730438232422 -1.457739233970642 -2.5
-16.526927947998047 -2.6858935356140137 -2.5
-16.257211685180664 -4.007050514221191 -2.5
-15.403910636901855 -6.563007831573486 -2.5
-14.825854301452637 -7.781215667724609 -2.5
-13.385673522949219 -10.05868148803711 -2.5
-12.532876014709473 -11.103168487548828 -2.5
-11.598808288574219 -12.075639724731445 -2.5
-10.584399223327637 -12.9635591506958 -2.498795986175537
-8.0052490234375 -13.86551284790039 -2.390519618988037
-6.7403564453125 -14.2050142288208 -2.347599983215332
-5.575473308563232 -14.701313018798828 -2.347599983215332
-4.374413967132568 -15.102279663085938 -2.347599983215332
-3.1450047492980957 -15.405317306518555 -2.347599983215332
0.6331152319908142 -15.710307121276855 -2.347599983215332
4.374433517456055 -15.102279663085938 -2.347599983215332
6.851601600646973 -14.439428329467773 -2.386343240737915
8.22513198852539 -14.246342658996582 -2.4561777114868164
12.532880783081055 -11.103168487548828 -2.5
14.151664733886719 -8.948959350585938 -2.5
15.403905868530273 -6.562993049621582 -2.5
16.25721549987793 -4.007045745849609 -2.5
16.689456939697266 -1.3473047018051147 -2.5
-15.561088562011719 -9.765624781721272e-06 -2.5
-15.10891056060791 -3.7240233421325684 -2.5
-14.315878868103027 -6.099443435668945 -2.5
-13.152074813842773 -8.316879272460938 -2.5
-12.440199851989746 -9.348207473754883 -2.5
-9.841527938842773 -12.0537109375 -2.5
-1.1781346797943115 -9.70290470123291 -1.5702890157699585
-0.4005126953125 -9.938794136047363 -1.59803307056427
1.79153311252594 -14.754496574401855 -2.3878259658813477
5.502934455871582 -14.51003360748291 -2.493154525756836
6.667953968048096 -14.052416801452637 -2.498887538909912
8.839712142944336 -12.8065185546875 -2.5
9.841547966003418 -12.053695678710938 -2.5
10.779545783996582 -11.222695350646973 -2.5
12.440214157104492 -9.348207473754883 -2.5
13.152074813842773 -8.316864967346191 -2.5
14.315878868103027 -6.099428653717041 -2.5
14.760258674621582 -4.927695274353027 -2.5
15.108915328979492 -3.724013566970825 -2.5
-14.531049728393555 -9.765624781721272e-06 -2.5
-14.342880249023438 -2.3309521675109863 -2.5
-14.108808517456055 -3.4775097370147705 -2.5
-13.783231735229492 -4.601528167724609 -2.5
-13.368261337280273 -5.695693016052246 -2.5
-9.19009780883789 -11.25582504272461 -2.5
-7.26553201675415 -12.584267616271973 -2.5
-6.229360103607178 -13.128080368041992 -2.5
-5.152782917022705 -13.58678150177002 -2.5
-0.39991697669029236 -9.924086570739746 -1.7087774276733398
1.7500195503234863 -14.412680625915527 -2.4978463649749756
2.9065868854522705 -14.237387657165527 -2.5
4.042783260345459 -13.957338333129883 -2.5
6.229360103607178 -13.128090858459473 -2.5
8.254584312438965 -11.958813667297363 -2.5
10.876649856567383 -9.635873794555664 -2.5
11.616752624511719 -8.729418754577637 -2.5
12.281513214111328 -7.766342639923096 -2.5
13.78323745727539 -4.601513385772705 -2.5
14.108813285827637 -3.4775047302246094 -2.5
14.342880249023438 -2.330947160720825 -2.5
-13.625678062438965 0.0 -2.5
-13.449228286743164 -2.185717821121216 -2.5
-13.229775428771973 -3.2608349323272705 -2.5
-12.9244384765625 -4.314814567565918 -2.5
-12.06493091583252 -6.332167625427246 -2.5
-10.8929443359375 -8.185517311096191 -2.5
-7.740253925323486 -11.213720321655273 -2.5
-5.841225624084473 -12.3101167678833 -2.5
-4.831733226776123 -12.740229606628418 -2.5
-1.1918798685073853 -9.81607437133789 -1.8142526149749756
4.831743240356445 -12.740219116210938 -2.5
5.841220378875732 -12.3101167678833 -2.5
7.740268230438232 -11.213706016540527 -2.5
9.438838005065918 -9.82686996459961 -2.5
10.198969841003418 -9.03548812866211 -2.5
11.5162935256958 -7.282451152801514 -2.5
12.535341262817383 -5.340810298919678 -2.5
13.229736328125 -3.2608349323272705 -2.5
-12.82345199584961 -9.765624781721272e-06 -2.5
-12.7818603515625 -1.0318750143051147 -2.5
-12.450824737548828 -3.068862199783325 -2.5
-11.354594230651855 -5.959360122680664 -2.5
-10.838252067565918 -6.853705883026123 -2.5
-10.25161075592041 -7.703588485717773 -2.5
-9.598481178283691 -8.503530502319336 -2.5
-8.8831148147583 -9.248305320739746 -2.5
-7.2845458984375 -10.55350112915039 -2.5
-4.547250747680664 -11.99013614654541 -2.5
-0.39887693524360657 -9.898285865783691 -1.9312902688980103
6.411723613739014 -11.10543441772461 -2.5
7.284550666809082 -10.553485870361328 -2.5
8.11014175415039 -9.933100700378418 -2.5
8.8831148147583 -9.248300552368164 -2.5
11.797304153442383 -5.026362419128418 -2.5
12.65738296508789 -2.0570263862609863 -2.5
-11.755688667297363 -2.897524356842041 -2.5
-11.484414100646973 -3.8340721130371094 -2.5
-10.72066879272461 -5.626645565032959 -2.5
-10.233149528503418 -6.471059322357178 -2.5
-9.062602043151855 -8.02877426147461 -2.5
-7.657333850860596 -9.378544807434082 -2.5
-6.877846717834473 -9.964286804199219 -2.5
-6.053759574890137 -10.485414505004883 -2.5
-5.190400123596191 -10.938544273376465 -2.5
-4.293383598327637 -11.320722579956055 -2.5
-3.368525266647339 -11.629496574401855 -2.5
-1.1941356658935547 -9.834633827209473 -2.0456013679504395
-0.39857909083366394 -9.890839576721191 -2.043949842453003
1.4594091176986694 -12.019232749938965 -2.5
2.421816349029541 -11.862832069396973 -2.5
3.368520498275757 -11.62948226928711 -2.5
4.293388366699219 -11.32071304321289 -2.5
10.233154296875 -6.471049785614014 -2.5
11.13866138458252 -4.745741844177246 -2.5
11.484414100646973 -3.834052562713623 -2.5
-11.464506149291992 -9.765624781721272e-06 -2.5
-11.427343368530273 -0.9225195050239563 -2.5
-11.316049575805664 -1.8390429019927979 -2.5
-11.13137149810791 -2.743647336959839 -2.5
-10.87451171875 -3.630449056625366 -2.5
-9.689692497253418 -6.127397537231445 -2.5
-8.581308364868164 -7.602387428283691 -2.5
-5.732250690460205 -9.928573608398438 -2.5
-4.065375804901123 -10.71950626373291 -2.5
0.406318336725235 -10.082416534423828 -2.2003977298736572
1.3819042444229126 -11.380927085876465 -2.5
2.2931981086730957 -11.232827186584473 -2.5
4.914751052856445 -10.357617378234863 -2.5
5.732260704040527 -9.928559303283691 -2.5
6.512592792510986 -9.435107231140137 -2.5
7.250688552856445 -8.880468368530273 -2.5
8.581313133239746 -7.602382659912109 -2.5
9.165228843688965 -6.887211799621582 -2.5
9.689702033996582 -6.127392292022705 -2.5
10.151328086853027 -5.327831745147705 -2.5
10.874516487121582 -3.630444288253784 -2.5
11.316049575805664 -1.8390380144119263 -2.5
11.427348136901855 -0.9225097298622131 -2.5
-10.848407745361328 -0.8757910132408142 -2.5
-10.323583602905273 -3.446533203125 -2.5
-9.1987886428833 -5.816977500915527 -2.5
-8.146562576293945 -7.217236042022705 -2.5
-7.539403915405273 -7.849355220794678 -2.5
-6.883339881896973 -8.43057632446289 -2.5
-4.665756702423096 -9.8328857421875 -2.5
-3.028032064437866 -10.45400333404541 -2.5
-2.177011728286743 -10.6637544631958 -2.5
-0.39902830123901367 -9.9020357131958 -2.276355266571045
1.3118896484375 -10.804349899291992 -2.5
2.177016496658325 -10.663744926452637 -2.5
3.0280370712280273 -10.453989028930664 -2.5
3.8594236373901367 -10.176430702209473 -2.5
4.665771484375 -9.8328857421875 -2.5
6.883354187011719 -8.430561065673828 -2.5
8.14657211303711 -7.217231273651123 -2.5
8.700902938842773 -6.538290977478027 -2.5
10.012787818908691 -4.266049861907959 -2.5
10.567445755004883 -2.6046385765075684 -2.5
10.742758750915527 -1.7458691596984863 -2.5
10.84841251373291 -0.8757714629173279 -2.5
-10.356362342834473 -9.765624781721272e-06 -2.5
-10.322768211364746 -0.8333495855331421 -2.5
-10.222246170043945 -1.6612792015075684 -2.5
-10.055419921875 -2.478447198867798 -2.5
-9.823383331298828 -3.279531240463257 -2.5
-9.527626991271973 -4.059360027313232 -2.5
-9.1701021194458 -4.812846660614014 -2.5
-8.753090858459473 -5.535121917724609 -2.5
-8.279306411743164 -6.221508502960205 -2.5
-7.7518310546875 -6.8675537109375 -2.5
-7.174096584320068 -7.469033241271973 -2.5
-5.178173542022705 -8.9688720703125 -2.5
-4.439687252044678 -9.356459617614746 -2.5
-3.6724119186401367 -9.683363914489746 -2.5
-2.8813183307647705 -9.947470664978027 -2.5
-2.071533203125 -10.14706039428711 -2.5
-1.1831152439117432 -9.743837356567383 -2.3694145679473877
0.41701170802116394 -10.347953796386719 -2.5
5.178183555603027 -8.968856811523438 -2.5
7.174106121063232 -7.469033241271973 -2.5
7.751850605010986 -6.867538928985596 -2.5
8.27932071685791 -6.221498966217041 -2.5
9.527636528015137 -4.059350490570068 -2.5
9.823378562927246 -3.2795262336730957 -2.5
10.222246170043945 -1.6612744331359863 -2.5
10.32277774810791 -0.8333300352096558 -2.5
-9.843280792236328 -0.7946386337280273 -2.5
-9.747416496276855 -1.5841162204742432 -2.5
-9.588339805603027 -2.3633203506469727 -2.5
-9.367084503173828 -3.127197265625 -2.5
-8.346498489379883 -5.278017520904541 -2.5
-6.245581150054932 -7.649472713470459 -2.5
-5.609809398651123 -8.127226829528809 -2.5
-4.937646389007568 -8.55226993560791 -2.5
-1.9753124713897705 -9.675732612609863 -2.5
-1.1903369426727295 -9.803305625915527 -2.5
-0.39762693643569946 -9.867289543151855 -2.5
0.397651344537735 -9.867289543151855 -2.5
1.190346598625183 -9.803300857543945 -2.5
2.747490167617798 -9.485404968261719 -2.5
3.501835823059082 -9.233564376831055 -2.5
4.233471393585205 -8.921850204467773 -2.5
4.937655925750732 -8.552260398864746 -2.5
5.609819412231445 -8.127211570739746 -2.5
6.245595455169678 -7.649428367614746 -2.5
7.894741058349609 -5.932504653930664 -2.5
8.346518516540527 -5.278007507324219 -2.5
8.744145393371582 -4.589282035827637 -2.5
9.367079734802246 -3.127192258834839 -2.5
9.588339805603027 -2.3633105754852295 -2.5
9.843280792236328 -0.7946240305900574 -2.5
-9.434609413146973 -1.4648437172581907e-05 -2.5
-8.94906234741211 -2.9876415729522705 -2.5
-8.679633140563965 -3.69805645942688 -2.5
-8.353930473327637 -4.384477615356445 -2.5
-7.542431354522705 -5.667768478393555 -2.5
-7.061899185180664 -6.256308555603027 -2.5
-4.717289924621582 -8.170599937438965 -2.5
-4.044545650482178 -8.523695945739746 -2.5
-3.3455517292022705 -8.821508407592773 -2.5
-2.624868154525757 -9.062108993530273 -2.5
-1.8871581554412842 -9.243935585021973 -2.5
-1.1372168064117432 -9.365819931030273 -2.5
3.3455564975738525 -8.821503639221191 -2.5
4.044550895690918 -8.523700714111328 -2.5
6.535590648651123 -6.804257869720459 -2.5
7.061909198760986 -6.256298542022705 -2.5
8.679638862609863 -3.698051691055298 -2.5
8.94906234741211 -2.9876365661621094 -2.5
9.160453796386719 -2.2578465938568115 -2.5
9.312431335449219 -1.5134179592132568 -2.5
-8.999990463256836 -0.7265527248382568 -2.5
-8.912358283996582 -1.4484130144119263 -2.5
-8.766894340515137 -2.1608543395996094 -2.5
-8.564594268798828 -2.8592870235443115 -2.5
-8.306747436523438 -3.5391845703125 -2.5
-7.218398094177246 -5.424277305603027 -2.5
-6.758505821228027 -5.987524509429932 -2.5
-6.254799842834473 -6.511938095092773 -2.5
-5.710527420043945 -6.99413537979126 -2.5
-4.514633655548096 -7.819584846496582 -2.5
-3.870795726776123 -8.15750503540039 -2.5
-1.088354468345642 -8.963446617126465 -2.5
-0.36356931924819946 -9.021947860717773 -2.5
0.36357420682907104 -9.021957397460938 -2.5
1.0883691310882568 -8.963446617126465 -2.5
2.5121092796325684 -8.672778129577637 -2.5
4.514643669128418 -7.819589614868164 -2.5
5.129223346710205 -7.430952072143555 -2.5
5.710532188415527 -6.994125843048096 -2.5
6.254799842834473 -6.511938095092773 -2.5
7.631459712982178 -4.82583475112915 -2.5
8.306747436523438 -3.5391697883605957 -2.5
8.766908645629883 -2.1608495712280273 -2.5
9.0 -0.7265527248382568 -2.5
-8.627089500427246 -0.6964648365974426 -2.5
-8.403647422790527 -2.0713231563568115 -2.5
-8.209721565246582 -2.7408103942871094 -2.5
-7.962558269500732 -3.3925437927246094 -2.5
-5.995639324188232 -6.242124080657959 -2.5
-5.47390604019165 -6.704326152801514 -2.5
-4.916674613952637 -7.123061180114746 -2.5
-4.327578067779541 -7.495590686798096 -2.5
-1.7312499284744263 -8.480243682861328 -2.5
-1.0432567596435547 -8.592060089111328 -2.5
1.7312548160552979 -8.480234146118164 -2.5
2.408017635345459 -8.313427925109863 -2.5
3.069164991378784 -8.092700004577637 -2.5
3.710395336151123 -7.819501876831055 -2.5
4.327578067779541 -7.495590686798096 -2.5
4.916698932647705 -7.123046875 -2.5
5.473916053771973 -6.704326152801514 -2.5
6.91930627822876 -5.199511528015137 -2.5
7.663754940032959 -4.02224588394165 -2.5
7.962563514709473 -3.392529249191284 -2.5
8.543070793151855 -1.3883837461471558 -2.5
8.627089500427246 -0.6964452862739563 -2.5
-8.281733512878418 -0.6685791015625 -2.5
-8.201079368591309 -1.3328173160552979 -2.5
-7.881078720092773 -2.631098508834839 -2.5
-7.022411823272705 -4.440707683563232 -2.5
-6.219125747680664 -5.509677410125732 -2.5
-2.3116111755371094 -7.980639457702637 -2.5
-1.001503825187683 -8.248095512390137 -2.5
0.3345654308795929 -8.3019380569458 -2.5
1.0015136003494263 -8.248100280761719 -2.5
1.6619482040405273 -8.140766143798828 -2.5
2.3116209506988525 -7.980629920959473 -2.5
2.946298837661743 -7.768744945526123 -2.5
4.154340744018555 -7.195522308349609 -2.5
6.219140529632568 -5.509677410125732 -2.5
7.022411823272705 -4.440698146820068 -2.5
7.35696268081665 -3.8612353801727295 -2.5
7.881083965301514 -2.6310887336730957 -2.5
8.201079368591309 -1.3328075408935547 -2.5
8.281743049621582 -0.6685693264007568 -2.5
-7.98681640625 -9.765624781721272e-06 -2.5
-7.960912704467773 -0.6426757574081421 -2.5
-7.883383750915527 -1.2811766862869263 -2.5
-7.754735946655273 -1.911376953125 -2.5
-7.347704887390137 -3.1305761337280273 -2.5
-6.750375747680664 -4.268686294555664 -2.5
-6.384994983673096 -4.798017501831055 -2.5
-5.532665729522705 -5.760117053985596 -2.5
-4.537021160125732 -6.573022365570068 -2.5
-3.993403196334839 -6.916781902313232 -2.5
-3.42388653755188 -7.21569299697876 -2.5
-1.59756338596344 -7.825405120849609 -2.5
-0.9627001881599426 -7.9285888671875 -2.5
0.3216015696525574 -7.980336666107178 -2.5
3.423891544342041 -7.215688228607178 -2.5
3.993408203125 -6.916781902313232 -2.5
4.537031173706055 -6.573012351989746 -2.5
5.051230430603027 -6.186621189117432 -2.5
5.532660961151123 -5.760107517242432 -2.5
5.978222370147705 -5.296240329742432 -2.5
6.385009765625 -4.798017501831055 -2.5
6.750370979309082 -4.268671989440918 -2.5
7.347704887390137 -3.130561351776123 -2.5
7.575786113739014 -2.529169797897339 -2.5
7.960912704467773 -0.6426659822463989 -2.5
-7.686967372894287 -9.765624781721272e-06 -2.5
-7.587416648864746 -1.2330809831619263 -2.5
-7.291367053985596 -2.434218645095825 -2.5
-6.49694299697876 -4.108422756195068 -2.5
-6.145297527313232 -4.617890357971191 -2.5
-5.753769397735596 -5.097402095794678 -2.5
-5.324941158294678 -5.543828010559082 -2.5
-4.861581802368164 -5.95437479019165 -2.5
-4.366689205169678 -6.326259613037109 -2.5
-3.8434863090515137 -6.657109260559082 -2.5
-1.5375829935073853 -7.531620979309082 -2.5
-0.9265576004981995 -7.630932331085205 -2.5
-0.3095117211341858 -7.680732250213623 -2.5
0.30953124165534973 -7.680732250213623 -2.5
0.9265673756599426 -7.630918025970459 -2.5
1.5375927686691284 -7.5316162109375 -2.5
2.725844621658325 -7.187436580657959 -2.5
3.29534649848938 -6.944789886474609 -2.5
4.861591815948486 -5.954360008239746 -2.5
5.324951171875 -5.543857097625732 -2.5
6.145287990570068 -4.617880821228027 -2.5
6.806469440460205 -3.5723047256469727 -2.5
7.071855545043945 -3.0130321979522705 -2.5
7.587426662445068 -1.2330760955810547 -2.5
7.662045955657959 -0.6185497641563416 -2.5
-7.382856369018555 -0.5960107445716858 -2.5
-7.310956954956055 -1.1881591081619263 -2.5
-7.19164514541626 -1.7725830078125 -2.5
-7.025688171386719 -2.345532178878784 -2.5
-6.814165115356445 -2.903247117996216 -2.5
-6.260214805603027 -3.9587206840515137 -2.5
-5.921371936798096 -4.449628829956055 -2.5
-5.130918025970459 -5.341860294342041 -2.5
-4.684438228607178 -5.737411975860596 -2.5
-4.207578182220459 -6.095742225646973 -2.5
-3.703432559967041 -6.414540767669678 -2.5
-3.1752636432647705 -6.691747665405273 -2.5
-2.626513719558716 -6.925546646118164 -2.5
-2.060717821121216 -7.114438533782959 -2.5
-0.8927978277206421 -7.352875709533691 -2.5
-0.29823240637779236 -7.400868892669678 -2.5
0.2982519567012787 -7.400864124298096 -2.5
0.8928076028823853 -7.352866172790527 -2.5
1.4815722703933716 -7.257182598114014 -2.5
2.060717821121216 -7.114433288574219 -2.5
2.626523494720459 -6.925551414489746 -2.5
4.6844482421875 -5.737392425537109 -2.5
5.130927562713623 -5.341860294342041 -2.5
5.544120788574219 -4.911669731140137 -2.5
6.260224342346191 -3.9587206840515137 -2.5
6.558461666107178 -3.442148447036743 -2.5
7.025693416595459 -2.345517635345459 -2.5
7.191650390625 -1.7725781202316284 -2.5
7.310961723327637 -1.1881444454193115 -2.5
7.382856369018555 -0.5960058569908142 -2.5
-7.144594669342041 -4.882812390860636e-06 -2.5
-6.776904106140137 -2.262465715408325 -2.5
-6.57287073135376 -2.8004491329193115 -2.5
-6.326220512390137 -3.320263624191284 -2.5
-1.4290966987609863 -7.000205039978027 -2.5
-0.8611767292022705 -7.092499732971191 -2.5
-0.28768065571784973 -7.138798713684082 -2.5
0.8611913919448853 -7.092499732971191 -2.5
1.4290966987609863 -7.000195026397705 -2.5
2.533505916595459 -6.680302619934082 -2.5
3.5722997188568115 -6.187387466430664 -2.5
5.347802639007568 -4.737734317779541 -2.5
5.711689472198486 -4.292055606842041 -2.5
6.038535118103027 -3.81853985786438 -2.5
6.326225280761719 -3.320253849029541 -2.5
6.5728759765625 -2.8004393577575684 -2.5
-6.876035213470459 -0.555102527141571 -2.5
-6.697954177856445 -1.6509032249450684 -2.5
-6.346386432647705 -2.7039549350738525 -2.5
-6.108232498168945 -3.2058496475219727 -2.5
-4.362861156463623 -5.343554496765137 -2.5
-3.9187400341033936 -5.677289962768555 -2.5
-3.4491991996765137 -5.974204063415527 -2.5
-2.4462108612060547 -6.450126647949219 -2.5
-1.919252872467041 -6.626054763793945 -2.5
-1.3798534870147705 -6.759003639221191 -2.5
-0.8315087556838989 -6.848119735717773 -2.5
0.2777783274650574 -6.89281702041626 -2.5
0.8315185308456421 -6.848114967346191 -2.5
3.9187450408935547 -5.677279949188232 -2.5
5.163539886474609 -4.57449197769165 -2.5
5.514877796173096 -4.1441650390625 -2.5
6.108237266540527 -3.2058496475219727 -2.5
6.543388366699219 -2.184506893157959 -2.5
6.697958946228027 -1.6508935689926147 -2.5
6.876044750213623 -0.5550927519798279 -2.5
-6.666840553283691 -9.765624781721272e-06 -2.5
-6.580507755279541 -1.0694384574890137 -2.5
-6.473119735717773 -1.595483422279358 -2.5
-6.323735237121582 -2.1111814975738525 -2.5
-4.6182861328125 -4.808149337768555 -2.5
-1.333535075187683 -6.532114028930664 -2.5
-0.26845213770866394 -6.661445140838623 -2.5
0.26844725012779236 -6.661435604095459 -2.5
2.3641014099121094 -6.233603477478027 -2.5
2.858027219772339 -6.023163795471191 -2.5
3.3334226608276367 -5.773647308349609 -2.5
3.7871971130371094 -5.486689567565918 -2.5
4.6182861328125 -4.808144569396973 -2.5
5.329760551452637 -4.005053520202637 -2.5
5.634750843048096 -3.5631980895996094 -2.5
5.90319299697876 -3.0982372760772705 -2.5
6.133354187011719 -2.613173723220825 -2.5
6.473119735717773 -1.595483422279358 -2.5
6.645224571228027 -0.5364550948143005 -2.5
-6.448569297790527 -9.765624781721272e-06 -2.5
-6.365058422088623 -1.0344336032867432 -2.5
-6.261171817779541 -1.543251872062683 -2.5
-5.709917068481445 -2.9968066215515137 -2.5
-4.467074871063232 -4.650722503662109 -2.5
-3.2242822647094727 -5.58462381362915 -2.5
-0.7772900462150574 -6.401542663574219 -2.5
-0.2596533000469208 -6.443339824676514 -2.5
0.25966307520866394 -6.443329811096191 -2.5
0.777294933795929 -6.401542663574219 -2.5
1.289882779121399 -6.318246841430664 -2.5
2.286699056625366 -6.029511451721191 -2.5
3.2242822647094727 -5.584628582000732 -2.5
3.6632080078125 -5.307060241699219 -2.5
4.467084884643555 -4.650727272033691 -2.5
5.155258655548096 -3.8739209175109863 -2.5
5.709921836853027 -2.9967918395996094 -2.5
5.932548522949219 -2.5276172161102295 -2.5
6.261181354522705 -1.5432469844818115 -2.5
6.427651405334473 -0.5188866853713989 -2.5
-6.161577224731445 -1.001367211341858 -2.5
-6.06102991104126 -1.4939111471176147 -2.5
-5.921156883239746 -1.9767773151397705 -2.5
-5.742885589599609 -2.446830987930298 -2.5
-5.27603006362915 -3.33636212348938 -2.5
-4.67251443862915 -4.139496803283691 -2.5
-3.9479832649230957 -4.835414886474609 -2.5
-2.2135887145996094 -5.836772441864014 -2.5
-1.7367479801177979 -5.99596643447876 -2.5
-0.75244140625 -6.196908950805664 -2.5
0.25135740637779236 -6.237353324890137 -2.5
0.75244140625 -6.196904182434082 -2.5
2.676079034805298 -5.639711856842041 -2.5
3.121210813522339 -5.406093597412109 -2.5
3.546098470687866 -5.137407302856445 -2.5
4.324272155761719 -4.502045631408691 -2.5
4.672519207000732 -4.139492034912109 -2.5
4.990458965301514 -3.7500829696655273 -2.5
5.527392387390137 -2.9010009765625 -2.5
6.06102991104126 -1.4939062595367432 -2.5
6.222182273864746 -0.5023046731948853 -2.5
-5.969067096710205 -0.9700732231140137 -2.5
-5.563461780548096 -2.3703808784484863 -2.5
-5.111181735992432 -3.232123851776123 -2.5
-4.189159870147705 -4.361381530761719 -2.5
-3.8246288299560547 -4.684335708618164 -2.5
-3.435292959213257 -4.976894378662109 -2.5
-2.592465877532959 -5.463510513305664 -2.5
-2.1444287300109863 -5.654399394989014 -2.5
-1.2096288204193115 -5.925160884857178 -2.5
1.2096288204193115 -5.925160884857178 -2.5
1.6824951171875 -5.808618068695068 -2.5
2.144423723220825 -5.654389381408691 -2.5
3.435307502746582 -4.976889610290527 -2.5
3.8246335983276367 -4.684321403503418 -2.5
4.189169883728027 -4.361386775970459 -2.5
5.111186504364014 -3.23211407661438 -2.5
5.354692459106445 -2.810356378555298 -2.5
5.563461780548096 -2.370375871658325 -2.5
5.736156940460205 -1.9150097370147705 -2.5
5.871650218963623 -1.447231411933899 -2.5
5.969062328338623 -0.9700634479522705 -2.5
-5.862519264221191 -9.765624781721272e-06 -2.5
-5.560815334320068 -1.85647451877594 -2.5
-5.393388748168945 -2.297919988632202 -2.5
-4.061108112335205 -4.228066444396973 -2.5
-3.707714796066284 -4.5411376953125 -2.5
-3.3302879333496094 -4.824765682220459 -2.5
-2.9312548637390137 -5.077089786529541 -2.5
-2.078871965408325 -5.481557369232178 -2.5
-1.1726561784744263 -5.74404764175415 -2.5
-0.7066503763198853 -5.819775104522705 -2.5
0.7066601514816284 -5.819775104522705 -2.5
1.6310595273971558 -5.631049633026123 -2.5
3.3302977085113525 -4.824760437011719 -2.5
4.061108112335205 -4.228061199188232 -2.5
5.393388748168945 -2.297914981842041 -2.5
5.56082010269165 -1.85647451877594 -2.5
5.786606311798096 -0.9404199123382568 -2.5
5.843515396118164 -0.4717382788658142 -2.5
-5.6685791015625 -0.45762693881988525 -2.5
-5.613373756408691 -0.9122655987739563 -2.5
-5.521767616271973 -1.3609960079193115 -2.5
-5.231938362121582 -2.229120969772339 -2.5
-5.035610198974609 -2.642895460128784 -2.5
-4.256792068481445 -3.7712011337280273 -2.5
-3.2305908203125 -4.680336952209473 -2.5
-2.437983274459839 -5.137953758239746 -2.5
-2.0166454315185547 -5.317455768585205 -2.5
0.22900390625 -5.682412147521973 -2.5
1.1375536918640137 -5.572094440460205 -2.5
1.5822265148162842 -5.462485313415527 -2.5
2.0166406631469727 -5.317455768585205 -2.5
2.437993049621582 -5.137944221496582 -2.5
2.843510627746582 -4.925107479095459 -2.5
3.230605363845825 -4.680322170257568 -2.5
3.9395360946655273 -4.101493835449219 -2.5
4.546454906463623 -3.4164304733276367 -2.5
5.613379001617432 -0.9122558236122131 -2.5
-5.520165920257568 0.0 -2.5
-5.502260684967041 -0.44419431686401367 -2.5
-5.359755516052246 -1.3210595846176147 -2.5
-4.665580749511719 -2.9503467082977295 -2.5
-4.413051605224609 -3.3162012100219727 -2.5
-2.760082960128784 -4.780600547790527 -2.5
-1.9574706554412842 -5.161445140838623 -2.5
0.22228026390075684 -5.515678405761719 -2.5
0.6653857231140137 -5.479907035827637 -2.5
1.1041747331619263 -5.40859842300415 -2.5
1.9574755430221558 -5.161435604095459 -2.5
2.366455078125 -4.987192153930664 -2.5
4.413051605224609 -3.3161962032318115 -2.5
4.665585994720459 -2.9503369331359863 -2.5
4.887861251831055 -2.5653467178344727 -2.5
5.078432559967041 -2.1637158393859863 -2.5
5.359755516052246 -1.3210595846176147 -2.5
-5.361269474029541 -4.882812390860636e-06 -2.5
-5.291835784912109 -0.8600146174430847 -2.5
-5.205478191375732 -1.283046841621399 -2.5
-5.08535623550415 -1.6977490186691284 -2.5
-4.747162818908691 -2.491508722305298 -2.5
-4.286030292510986 -3.2207422256469727 -2.5
-4.012959003448486 -3.555185556411743 -2.5
-3.713876962661743 -3.866572141647339 -2.5
-3.3907079696655273 -4.152865886688232 -2.5
-3.045546770095825 -4.412240982055664 -2.5
-2.6806347370147705 -4.642997741699219 -2.5
-1.9011279344558716 -5.012876033782959 -2.5
-1.491601586341858 -5.149599552154541 -2.5
0.646240234375 -5.322177410125732 -2.5
1.0723974704742432 -5.252919673919678 -2.5
1.4915918111801147 -5.149599552154541 -2.5
1.9011424779891968 -5.012870788574219 -2.5
2.298334836959839 -4.843632698059082 -2.5
3.045546770095825 -4.412236213684082 -2.5
4.01296854019165 -3.555180549621582 -2.5
4.531293869018555 -2.865410089492798 -2.5
4.747172832489014 -2.491508722305298 -2.5
5.085366249084473 -1.6977441310882568 -2.5
5.291845798492432 -0.8600048422813416 -2.5
5.343886375427246 -0.4314062297344208 -2.5
