ply
format ascii 1.0
element vertex 750
property float x
property float y
property float z
end_header
4.708749771118164 -8.15584945678711 2.523425579071045
11.18871021270752 -7.075336933135986 3.5471441745758057
8.831884384155273 -4.635361194610596 2.672636032104492
12.985624313354492 -5.532675743103027 3.7821385860443115
9.997763633728027 -2.464247941970825 2.7590715885162354
11.24560546875 -7.111308574676514 3.4076128005981445
11.20401382446289 -5.880336761474609 3.240621328353882
11.185858726501465 -4.765869140625 3.1139585971832275
13.657411575317383 -4.559531211853027 3.687532901763916
12.725077629089355 -5.42165994644165 3.37957501411438
11.600019454956055 -2.8591649532318115 2.919079542160034
11.805204391479492 -0.9530321955680847 2.755061626434326
12.450370788574219 -2.0233983993530273 2.7872314453125
6.097626686096191 -7.468266487121582 1.9073787927627563
12.041688919067383 -0.9721239805221558 2.3899919986724854
18.506376266479492 -22.666200637817383 5.45267391204834
23.69866180419922 -1.913173794746399 4.4304304122924805
18.50639533996582 -22.66620635986328 5.117831230163574
18.652538299560547 -22.84521484375 4.822070121765137
18.652538299560547 -22.84521484375 4.487106800079346
18.701025009155273 -22.90460968017578 2.834805727005005
-14.817938804626465 -18.1486759185791 1.9844311475753784
18.50337791442871 -22.662519454956055 2.1517486572265625
20.716102600097656 -21.5677433013916 2.199434757232666
18.50337791442871 -22.662519454956055 1.826037883758545
20.716102600097656 -21.5677433013916 1.2019463777542114
18.50337791442871 -22.662519454956055 0.851285994052887
11.024032592773438 -4.696913719177246 -0.18259689211845398
-2.1163768768310547 -17.42986297607422 -0.4622006118297577
19.48868179321289 -20.28987693786621 -0.7405946254730225
-29.842041015625 9.765624781721272e-06 -1.1166083812713623
-2.0541698932647705 -16.917470932006836 -0.6376563906669617
21.33871078491211 -3.467890501022339 -0.8089132308959961
-28.965585708618164 -2.338330030441284 -1.4099578857421875
-4.474326133728027 -15.4470796585083 -0.7802895903587341
-3.0710840225219727 -15.043212890625 -0.7449415326118469
-2.035292863845825 -16.762060165405273 -0.8192577958106995
19.388837814331055 -20.185916900634766 -1.358020544052124
20.73479461669922 -3.369741201400757 -1.0192383527755737
-4.320019245147705 -14.91445255279541 -0.9259568452835083
-3.0013670921325684 -14.701664924621582 -0.8947923183441162
10.83780288696289 -4.617578029632568 -0.7025106549263
-3.0013670921325684 -14.70166015625 -1.061777114868164
-2.0248730182647705 -16.676239013671875 -1.1887118816375732
20.99654197692871 -3.4122753143310547 -1.5052508115768433
-28.661386489868164 -9.765624781721272e-06 -2.347599983215332
-28.290252685546875 -4.597626686096191 -2.347599983215332
-27.338300704956055 -9.126874923706055 -2.3607194423675537
-26.537460327148438 -11.306571960449219 -2.3627021312713623
-25.56070327758789 -13.415302276611328 -2.364464521408081
-21.453310012817383 -19.00599479675293 -2.347599983215332
-18.12677764892578 -22.201269149780273 -2.347599983215332
-14.330663681030273 -24.821474075317383 -2.347599983215332
-10.391396522521973 -27.39986228942871 -2.4002487659454346
-3.001357316970825 -14.701669692993164 -1.229024052619934
-2.0241405963897705 -16.67033576965332 -1.3754675388336182
14.330673217773438 -24.82151222229004 -2.347599983215332
16.281532287597656 -23.587881088256836 -2.347599983215332
18.126787185668945 -22.20125961303711 -2.347599983215332
21.453369140625 -19.00603485107422 -2.347599983215332
24.22434425354004 -15.318544387817383 -2.347599983215332
25.37834930419922 -13.319580078125 -2.347599983215332
21.494422912597656 -7.175888538360596 -1.856089472770691
-24.896121978759766 -4.046025276184082 -2.347599983215332
-24.489843368530273 -6.036211013793945 -2.347599983215332
-22.333642959594727 -11.721611022949219 -2.347599983215332
-21.31804656982422 -13.480717658996582 -2.347599983215332
-20.16415023803711 -15.152392387390137 -2.347599983215332
-17.472402572631836 -18.190717697143555 -2.347599983215332
-14.328134536743164 -20.7579288482666 -2.347599983215332
-11.510546684265137 -24.25794792175293 -2.49908709526062
-3.0013670921325684 -14.70166015625 -1.3965760469436646
1.0815625190734863 -26.838369369506836 -2.5
3.237617015838623 -26.664316177368164 -2.5
7.472968578338623 -25.799667358398438 -2.5
9.524736404418945 -25.11467742919922 -2.5
14.328153610229492 -20.7579288482666 -2.347599983215332
15.952040672302246 -19.53768539428711 -2.347599983215332
17.472412109375 -18.19072151184082 -2.347599983215332
18.879501342773438 -16.72579002380371 -2.347599983215332
20.164140701293945 -15.152382850646973 -2.347599983215332
21.43120002746582 -13.55226993560791 -2.3600640296936035
23.65791893005371 -12.416640281677246 -2.486802101135254
10.7998046875 -4.601386547088623 -1.0926209688186646
19.32120132446289 -4.762246131896973 -1.852134346961975
26.77305030822754 -2.1613523960113525 -2.5
-23.937177658081055 -1.9531249563442543e-05 -2.4957854747772217
-23.23116111755371 -1.8754345178604126 -2.4300529956817627
-22.360273361206055 -3.6339111328125 -2.361957550048828
-21.861650466918945 -5.388427734375 -2.347599983215332
-21.357168197631836 -7.130073070526123 -2.347599983215332
-19.030242919921875 -12.034003257751465 -2.347599983215332
-13.620810508728027 -19.733182907104492 -2.5
-11.988779067993164 -20.76520538330078 -2.5
-0.7669433355331421 -19.0316104888916 -1.9859226942062378
0.9654784798622131 -23.958154678344727 -2.5
11.449774742126465 -19.83161163330078 -2.3876001834869385
12.790497779846191 -18.530229568481445 -2.347599983215332
15.7392578125 -16.386308670043945 -2.3689630031585693
20.265644073486328 -12.815190315246582 -2.5
21.231082916259766 -11.142924308776855 -2.5
10.783212661743164 -4.594321250915527 -1.2220954895019531
21.494413375854492 -7.175888538360596 -2.3626861572265625
19.309179306030273 -4.759286880493164 -2.0735068321228027
23.66707992553711 -3.8462841510772705 -2.5
-19.111064910888672 -10.0302734375 -2.4924254417419434
-18.25277328491211 -11.542363166809082 -2.493898391723633
-13.691767692565918 -16.769346237182617 -2.5
-9.280732154846191 -19.558700561523438 -2.5
-4.320009708404541 -14.914443016052246 -1.7931054830551147
-0.7662597298622131 -19.014755249023438 -2.197593927383423
0.8665136694908142 -21.502050399780273 -2.4850594997406006
2.6094822883605957 -21.49105453491211 -2.5
12.297978401184082 -17.816688537597656 -2.5
13.691757202148438 -16.76933479309082 -2.5
14.996718406677246 -15.613231658935547 -2.5
16.204423904418945 -14.355878829956055 -2.5
17.30704116821289 -13.005410194396973 -2.5
20.534765243530273 -6.855507850646973 -2.5
15.414755821228027 -1.2444140911102295 -1.7858790159225464
-19.664012908935547 -1.5874608755111694 -2.5
-19.472509384155273 -3.164599657058716 -2.5
-19.15471649169922 -4.72122049331665 -2.5
-18.712724685668945 -6.247231483459473 -2.5
-18.14934539794922 -7.732729434967041 -2.5
-17.468271255493164 -9.168061256408691 -2.5
-13.666044235229492 -14.227875709533691 -2.5
-11.20677661895752 -16.235809326171875 -2.5
-6.995644569396973 -18.44599151611328 -2.5
-4.568505764007568 -15.772250175476074 -2.080871105194092
-3.0013670921325684 -14.701664924621582 -1.9014742374420166
-0.7655078172683716 -18.99576187133789 -2.409163236618042
2.3779492378234863 -19.58414077758789 -2.5
3.946113109588623 -19.32929229736328 -2.5
6.995644569396973 -18.445985794067383 -2.5
9.863974571228027 -17.084930419921875 -2.5
11.206767082214355 -16.23579978942871 -2.5
12.476884841918945 -15.281386375427246 -2.5
15.77138614654541 -11.851435661315918 -2.5
17.468252182006836 -9.16805648803711 -2.5
10.729228019714355 -4.57131814956665 -1.4779103994369507
-18.05728530883789 -1.4577441215515137 -2.5
-17.8814640045166 -2.9060254096984863 -2.5
-16.666406631469727 -7.100898265838623 -2.5
-16.04097557067871 -8.418964385986328 -2.5
-14.482744216918945 -10.883095741271973 -2.5
-13.56005859375 -12.013178825378418 -2.5
-12.549443244934082 -13.065351486206055 -2.5
-11.457411766052246 -14.032782554626465 -2.5
-6.424023151397705 -16.93880844116211 -2.5
-4.604501724243164 -15.8965425491333 -2.2838804721832275
-0.7294628620147705 -18.10136604309082 -2.5
0.7294628620147705 -18.10136604309082 -2.5
2.183642625808716 -17.98396873474121 -2.5
3.623671770095825 -17.749940872192383 -2.5
5.040205001831055 -17.400800704956055 -2.5
6.424033164978027 -16.93880844116211 -2.5
7.76623010635376 -16.36695671081543 -2.5
10.291083335876465 -14.909218788146973 -2.5
12.549423217773438 -13.06534194946289 -2.5
14.482744216918945 -10.883075714111328 -2.5
15.31151294708252 -9.68240737915039 -2.5
16.040966033935547 -8.4189453125 -2.5
10.707959175109863 -4.562245845794678 -1.6062209606170654
17.183740615844727 -5.736767292022705 -2.5
16.570985794067383 -4.084374904632568 -2.355220079421997
15.414755821228027 -1.2444140911102295 -2.134145736694336
-16.74378776550293 -1.4648437172581907e-05 -2.5
-16.689472198486328 -1.347329020500183 -2.5
-16.25721549987793 -4.007055759429932 -2.5
-15.882080078125 -5.302221775054932 -2.5
-15.403915405273438 -6.563002586364746 -2.5
-14.825859069824219 -7.781215667724609 -2.5
-14.151659965515137 -8.948974609375 -2.5
-13.385673522949219 -10.058691024780273 -2.5
-11.598808288574219 -12.075644493103027 -2.5
-9.511542320251465 -13.779852867126465 -2.5
-8.371865272521973 -14.500527381896973 -2.5
-7.177919864654541 -15.127147674560547 -2.5
-5.937411785125732 -15.655693054199219 -2.5
-0.6742089986801147 -16.730180740356445 -2.5
3.349189281463623 -16.405380249023438 -2.5
4.658408164978027 -16.08267593383789 -2.5
7.177939414978027 -15.127158164978027 -2.5
8.371865272521973 -14.500516891479492 -2.5
12.532880783081055 -11.10317325592041 -2.5
14.151659965515137 -8.948965072631836 -2.5
14.825868606567383 -7.781210899353027 -2.5
10.690546989440918 -4.55483865737915 -1.7350400686264038
15.56982421875 -2.530346632003784 -2.355220079421997
15.386269569396973 -1.2421190738677979 -2.3047893047332764
-15.359580039978027 -2.4961814880371094 -2.5
-14.760263442993164 -4.927704811096191 -2.5
-14.315888404846191 -6.099438190460205 -2.5
-13.152079582214355 -8.316884994506836 -2.5
-11.647645950317383 -10.318925857543945 -2.5
-9.841543197631836 -12.05370044708252 -2.5
-8.839716911315918 -12.806532859802246 -2.5
-7.780537128448486 -13.47630786895752 -2.5
-6.670937538146973 -14.05868148803711 -2.5
-1.8756835460662842 -15.447636604309082 -2.5
-0.6265820264816284 -15.5484619140625 -2.5
5.518036842346191 -14.549872398376465 -2.5
6.67092752456665 -14.058671951293945 -2.5
7.780537128448486 -13.476298332214355 -2.5
10.779531478881836 -11.222704887390137 -2.5
11.183661460876465 -3.7336668968200684 -1.8942211866378784
14.233925819396973 -3.5083446502685547 -2.355220079421997
14.470067977905273 -2.351621150970459 -2.355220079421997
14.918593406677246 -1.2043603658676147 -2.4045770168304443
-14.531073570251465 -1.9531249563442543e-05 -2.5
-14.483935356140137 -1.169277310371399 -2.5
-14.10879898071289 -3.4775195121765137 -2.5
-12.86660099029541 -6.75292444229126 -2.5
-12.281513214111328 -7.766357421875 -2.5
-11.6167573928833 -8.729433059692383 -2.5
-10.876640319824219 -9.635878562927246 -2.5
-10.066015243530273 -10.479843139648438 -2.5
-8.254579544067383 -11.958837509155273 -2.5
-5.152782917022705 -13.586776733398438 -2.5
-4.042783260345459 -13.9573335647583 -2.5
-2.9065818786621094 -14.237397193908691 -2.5
-1.7515233755111694 -14.4251070022583 -2.5
-0.5850976705551147 -14.519267082214355 -2.5
1.7515331506729126 -14.425097465515137 -2.5
4.042792797088623 -13.9573335647583 -2.5
5.152782917022705 -13.586771965026855 -2.5
8.254579544067383 -11.958818435668945 -2.5
9.190077781677246 -11.255829811096191 -2.5
10.06600570678711 -10.479833602905273 -2.5
10.876649856567383 -9.635873794555664 -2.5
12.281513214111328 -7.766347408294678 -2.5
10.722626686096191 -3.5797362327575684 -1.9448684453964233
13.512246131896973 -2.1959569454193115 -2.355220079421997
14.483935356140137 -1.169277310371399 -2.5
-13.625673294067383 -1.4648437172581907e-05 -2.5
-13.581474304199219 -1.0964208841323853 -2.5
-13.449247360229492 -2.185722589492798 -2.5
-13.22972583770752 -3.2608397006988525 -2.5
-12.92446231842041 -4.3148193359375 -2.5
-12.535322189331055 -5.340810298919678 -2.5
-12.06494140625 -6.332177639007568 -2.5
-11.516279220581055 -7.282470703125 -2.5
-10.892949104309082 -8.185526847839355 -2.5
-9.438838005065918 -9.826874732971191 -2.5
-7.740253925323486 -11.21371078491211 -2.5
-6.812841415405273 -11.800185203552246 -2.5
-4.831728458404541 -12.740234375 -2.5
-3.790908098220825 -13.0877046585083 -2.5
-1.6424022912979126 -13.526328086853027 -2.5
0.5486621260643005 -13.614619255065918 -2.5
2.725478410720825 -13.350302696228027 -2.5
3.7909178733825684 -13.0877046585083 -2.5
4.831718444824219 -12.74022388458252 -2.5
5.841239929199219 -12.3101167678833 -2.5
9.438827514648438 -9.826865196228027 -2.5
10.198954582214355 -9.035497665405273 -2.5
10.849365234375 -6.860702991485596 -2.355220079421997
10.642050743103027 -5.585395336151123 -2.205164670944214
9.558154106140137 -4.072353363037109 -1.9062461853027344
13.064472198486328 -2.123183488845825 -2.428481340408325
-12.823456764221191 -1.4648437172581907e-05 -2.5
-12.45083999633789 -3.0688672065734863 -2.5
-12.163505554199219 -4.060781002044678 -2.5
-10.838252067565918 -6.853705883026123 -2.5
-10.251601219177246 -7.703603267669678 -2.5
-9.598495483398438 -8.503530502319336 -2.5
-8.110136985778809 -9.933110237121582 -2.5
-7.284560203552246 -10.553495407104492 -2.5
-5.497323989868164 -11.585355758666992 -2.5
-4.547265529632568 -11.99014663696289 -2.5
-3.567704916000366 -12.317157745361328 -2.5
-2.565000057220459 -12.564291954040527 -2.5
-0.5163378715515137 -12.8130464553833 -2.5
1.545693278312683 -12.729950904846191 -2.5
2.565019369125366 -12.564287185668945 -2.5
6.411728382110596 -11.105429649353027 -2.5
8.8831148147583 -9.248300552368164 -2.5
9.657919883728027 -7.257455825805664 -2.355220079421997
10.21059513092041 -6.456777095794678 -2.355220079421997
10.546972274780273 -5.535492897033691 -2.322183132171631
9.558154106140137 -4.072353363037109 -2.0255000591278076
11.092226028442383 -3.7031445503234863 -2.2798194885253906
11.729755401611328 -2.891127824783325 -2.355220079421997
12.781865119934082 -1.0318603515625 -2.5
-12.107519149780273 -9.765624781721272e-06 -2.5
-11.75570297241211 -2.897529125213623 -2.5
-11.138671875 -4.745747089385986 -2.5
-10.720673561096191 -5.626650333404541 -2.5
-10.233134269714355 -6.471059322357178 -2.5
-8.387167930603027 -8.731972694396973 -2.5
-7.657353401184082 -9.378544807434082 -2.5
-5.190400123596191 -10.938544273376465 -2.5
-0.48749998211860657 -12.09769058227539 -2.5
1.4593944549560547 -12.019227981567383 -2.5
3.3685154914855957 -11.629487037658691 -2.5
6.053759574890137 -10.4854097366333 -2.5
6.877861022949219 -9.964286804199219 -2.5
7.901454925537109 -8.226288795471191 -2.355220079421997
8.537763595581055 -7.563808441162109 -2.355220079421997
9.1187105178833 -6.852284908294678 -2.355220079421997
9.64052677154541 -6.096298694610596 -2.355220079421997
10.099814414978027 -5.300790786743164 -2.355220079421997
9.558154106140137 -4.072353363037109 -2.145270824432373
10.819306373596191 -3.6120312213897705 -2.355220079421997
11.581893920898438 -2.854687452316284 -2.463043451309204
12.068251609802246 -0.9742528796195984 -2.5
-11.31606388092041 -1.8390429019927979 -2.5
-10.874502182006836 -3.630449056625366 -2.5
-10.547119140625 -4.493710994720459 -2.5
-9.689697265625 -6.127397537231445 -2.5
-9.165224075317383 -6.887231349945068 -2.5
-7.250693321228027 -8.880473136901855 -2.5
-5.732255935668945 -9.928568840026855 -2.5
-2.2931933403015137 -11.232827186584473 -2.5
-1.3818944692611694 -11.380927085876465 -2.5
4.065361022949219 -10.719511032104492 -2.5
4.914745807647705 -10.357626914978027 -2.5
5.732255935668945 -9.928564071655273 -2.5
6.512597560882568 -9.435107231140137 -2.5
6.830790996551514 -8.366181373596191 -2.355220079421997
7.481816291809082 -7.789409160614014 -2.355220079421997
8.634452819824219 -6.488368988037109 -2.355220079421997
11.42733383178711 -0.9225146174430847 -2.5
-10.883710861206055 -9.765624781721272e-06 -2.5
-10.74276351928711 -1.7458739280700684 -2.5
-10.567450523376465 -2.6046483516693115 -2.5
-8.700898170471191 -6.538310527801514 -2.5
-7.539433479309082 -7.849365234375 -2.5
-6.883359432220459 -8.430581092834473 -2.5
-5.441874980926514 -9.425585746765137 -2.5
-4.665771484375 -9.8328857421875 -2.5
-3.0280370712280273 -10.453998565673828 -2.5
-0.43825194239616394 -10.8748779296875 -2.5
0.4382617175579071 -10.874882698059082 -2.5
2.1770215034484863 -10.663749694824219 -2.5
3.85943341255188 -10.176445007324219 -2.5
6.484726428985596 -7.942338466644287 -2.355220079421997
8.196991920471191 -6.159657955169678 -2.355220079421997
8.666083335876465 -5.480092525482178 -2.355220079421997
9.078925132751465 -4.764995098114014 -2.355220079421997
10.32357406616211 -3.446523427963257 -2.5
10.5674409866333 -2.6046385765075684 -2.5
10.848398208618164 -0.875781238079071 -2.5
-10.356367111206055 -9.765624781721272e-06 -2.5
-10.322772979736328 -0.8333495855331421 -2.5
-10.2222261428833 -1.6612792015075684 -2.5
-10.055438995361328 -2.478447198867798 -2.5
-9.170106887817383 -4.812846660614014 -2.5
-8.753095626831055 -5.535126686096191 -2.5
-8.279326438903809 -6.221513748168945 -2.5
-7.751855373382568 -6.86754846572876 -2.5
-5.883095741271973 -8.523124694824219 -2.5
-5.178183555603027 -8.968876838684082 -2.5
-4.439716815948486 -9.356459617614746 -2.5
-3.6724021434783936 -9.683359146118164 -2.5
-2.071542978286743 -10.147069931030273 -2.5
1.248329997062683 -10.280844688415527 -2.5
2.071542978286743 -10.14706039428711 -2.5
2.8813085556030273 -9.947470664978027 -2.5
4.439697265625 -9.3564453125 -2.5
6.170517444610596 -7.557509422302246 -2.355220079421997
6.758652210235596 -7.036479473114014 -2.355220079421997
7.302919864654541 -6.469823837280273 -2.355220079421997
8.246171951293945 -5.214570045471191 -2.355220079421997
8.639013290405273 -4.534125804901123 -2.355220079421997
10.2222261428833 -1.66128408908844 -2.5
-9.875311851501465 -9.765624781721272e-06 -2.5
-9.843310356140137 -0.7946484088897705 -2.5
-9.747421264648438 -1.5841113328933716 -2.5
-9.367070198059082 -3.127197265625 -2.5
-9.085067749023438 -3.870800733566284 -2.5
-8.346503257751465 -5.278017520904541 -2.5
-7.391777038574219 -6.548544883728027 -2.5
-6.840878963470459 -7.12209939956665 -2.5
-5.609804630279541 -8.127216339111328 -2.5
-4.937665939331055 -8.552275657653809 -2.5
-1.9753222465515137 -9.675737380981445 -2.5
-0.3976464867591858 -9.867294311523438 -2.5
0.3976367115974426 -9.867294311523438 -2.5
1.190332055091858 -9.803296089172363 -2.5
3.5018162727355957 -9.233573913574219 -2.5
4.233457088470459 -8.921845436096191 -2.5
4.937646389007568 -8.552265167236328 -2.5
5.609814167022705 -8.127211570739746 -2.5
5.883896350860596 -7.206464767456055 -2.355220079421997
6.44469690322876 -6.709638595581055 -2.355220079421997
6.963691234588623 -6.169296741485596 -2.355220079421997
7.43752908706665 -5.588954925537109 -2.355220079421997
9.085067749023438 -3.870790958404541 -2.5
9.747421264648438 -1.5841113328933716 -2.5
-9.434598922729492 -9.765624781721272e-06 -2.5
-9.160449028015137 -2.2578516006469727 -2.5
-8.679657936096191 -3.698061466217041 -2.5
-7.542421817779541 -5.667773246765137 -2.5
-6.535585880279541 -6.804267406463623 -2.5
-5.359453201293945 -7.764531135559082 -2.5
-4.71728515625 -8.170610427856445 -2.5
-4.044550895690918 -8.523700714111328 -2.5
-2.624882698059082 -9.062108993530273 -2.5
-1.8871679306030273 -9.243945121765137 -2.5
-0.3798925578594208 -9.426958084106445 -2.5
0.3798925578594208 -9.426953315734863 -2.5
1.13720703125 -9.365819931030273 -2.5
2.6248631477355957 -9.062108993530273 -2.5
3.3455564975738525 -8.821503639221191 -2.5
4.044560432434082 -8.523691177368164 -2.5
5.359462738037109 -7.7645263671875 -2.5
5.621318340301514 -6.884862899780273 -2.355220079421997
6.157089710235596 -6.410214900970459 -2.355220079421997
6.652929306030273 -5.893993854522705 -2.355220079421997
-9.000019073486328 -0.7265673875808716 -2.5
-8.912353515625 -1.448403239250183 -2.5
-8.56459903717041 -2.8592870235443115 -2.5
-7.218388557434082 -5.424286842346191 -2.5
-6.758525371551514 -5.987538814544678 -2.5
-6.254814147949219 -6.511952877044678 -2.5
-5.129218578338623 -7.430956840515137 -2.5
-4.5146484375 -7.819599628448486 -2.5
-3.870790958404541 -8.157509803771973 -2.5
-3.201835870742798 -8.442523956298828 -2.5
-1.806093692779541 -8.846806526184082 -2.5
-1.08837890625 -8.963457107543945 -2.5
-0.36357420682907104 -9.021963119506836 -2.5
1.0883495807647705 -8.963457107543945 -2.5
3.870781183242798 -8.157509803771973 -2.5
4.514628887176514 -7.819589614868164 -2.5
5.129228591918945 -7.430952072143555 -2.5
5.540087699890137 -6.785409927368164 -2.4253926277160645
5.892568111419678 -6.134829044342041 -2.355220079421997
6.367118835449219 -5.64077615737915 -2.355220079421997
6.913232326507568 -5.194960594177246 -2.394313335418701
7.622636318206787 -4.820253849029541 -2.497107744216919
8.306747436523438 -3.539179563522339 -2.5
8.912333488464355 -1.4484081268310547 -2.5
8.999990463256836 -0.7265625 -2.5
-8.543086051940918 -1.3883886337280273 -2.5
-7.962558269500732 -3.3925390243530273 -2.5
-7.315263271331787 -4.625888347625732 -2.5
-5.995644569396973 -6.242128849029541 -2.5
-5.473916053771973 -6.704330921173096 -2.5
-4.916689395904541 -7.123056411743164 -2.5
-4.327587604522705 -7.495590686798096 -2.5
-3.7104101181030273 -7.819506645202637 -2.5
-3.06915020942688 -8.092714309692383 -2.5
-1.7312597036361694 -8.480243682861328 -2.5
-0.3485058546066284 -8.648134231567383 -2.5
0.3485058546066284 -8.648149490356445 -2.5
3.069169759750366 -8.092704772949219 -2.5
4.327578067779541 -7.495585918426514 -2.5
4.916669845581055 -7.123056411743164 -2.5
6.275097370147705 -5.559267520904541 -2.4215219020843506
8.40365219116211 -2.0713086128234863 -2.5
8.54305648803711 -1.3883984088897705 -2.5
8.627089500427246 -0.6964550614356995 -2.5
-8.067255973815918 -1.9884082078933716 -2.5
-7.881073951721191 -2.631093740463257 -2.5
-7.356972694396973 -3.8612499237060547 -2.5
-6.642314434051514 -4.991386413574219 -2.5
-6.219120979309082 -5.509682655334473 -2.5
-5.755624771118164 -5.992246150970459 -2.5
-5.254814147949219 -6.435946941375732 -2.5
-4.719872951507568 -6.837914943695068 -2.5
-3.5618748664855957 -7.506484031677246 -2.5
-2.3116111755371094 -7.980634689331055 -2.5
-1.661953091621399 -8.14077091217041 -2.5
0.33455076813697815 -8.301942825317383 -2.5
1.0014941692352295 -8.2481050491333 -2.5
2.311601400375366 -7.980639457702637 -2.5
2.946279287338257 -7.768754482269287 -2.5
4.154345512390137 -7.195527076721191 -2.5
5.254775047302246 -6.435946941375732 -2.5
5.755615234375 -5.992246150970459 -2.5
7.35696268081665 -3.8612401485443115 -2.5
8.28173828125 -0.6685742139816284 -2.5
-7.98681640625 -9.765624781721272e-06 -2.5
-7.575780868530273 -2.5291748046875 -2.5
-7.347695350646973 -3.130566358566284 -2.5
-7.071982383728027 -3.711664915084839 -2.5
-6.750380516052246 -4.268681526184082 -2.5
-6.384999752044678 -4.798027038574219 -2.5
-5.978222370147705 -5.296249866485596 -2.5
-3.9933886528015137 -6.916791915893555 -2.5
-2.2220897674560547 -7.671489238739014 -2.5
-1.5975780487060547 -7.825409889221191 -2.5
0.32158201932907104 -7.98034143447876 -2.5
0.9627050757408142 -7.92858362197876 -2.5
2.8321385383605957 -7.46780252456665 -2.5
3.993398427963257 -6.916791915893555 -2.5
4.537011623382568 -6.573017597198486 -2.5
7.575780868530273 -2.529169797897339 -2.5
7.960907936096191 -0.6426757574081421 -2.5
-7.58743143081665 -1.2330809831619263 -2.5
-7.463603496551514 -1.8396142721176147 -2.5
-7.291367053985596 -2.434218645095825 -2.5
-7.071845531463623 -3.0130467414855957 -2.5
-6.806464672088623 -3.572319269180298 -2.5
-6.145283222198486 -4.617890357971191 -2.5
-5.324960708618164 -5.543867111206055 -2.5
-4.861591815948486 -5.954365253448486 -2.5
-4.366708755493164 -6.326254844665527 -2.5
-3.8434863090515137 -6.657114028930664 -2.5
-2.7258496284484863 -7.187441349029541 -2.5
-1.5375781059265137 -7.531620979309082 -2.5
1.53759765625 -7.5316162109375 -2.5
2.1386523246765137 -7.383471488952637 -2.5
2.7258105278015137 -7.187441349029541 -2.5
4.366708755493164 -6.326244831085205 -2.5
4.861591815948486 -5.954360008239746 -2.5
5.753759860992432 -5.097412109375 -2.5
6.806455135345459 -3.5723142623901367 -2.5
7.463573932647705 -1.8396190404891968 -2.5
7.587411880493164 -1.2330809831619263 -2.5
7.662021160125732 -0.6185497641563416 -2.5
-7.406874656677246 -4.882812390860636e-06 -2.5
-7.382851600646973 -0.5960156321525574 -2.5
-7.310956954956055 -1.188149333000183 -2.5
-7.191650390625 -1.7725878953933716 -2.5
-5.921376705169678 -4.449628829956055 -2.5
-4.207568168640137 -6.095742225646973 -2.5
-2.626523494720459 -6.925556659698486 -2.5
-2.060722589492798 -7.114443302154541 -2.5
-0.8928124904632568 -7.352870941162109 -2.5
-0.2982519567012787 -7.40087366104126 -2.5
0.29823240637779236 -7.40087366104126 -2.5
2.6264941692352295 -6.925546646118164 -2.5
4.207568168640137 -6.095742225646973 -2.5
5.544111251831055 -4.911669731140137 -2.5
6.558456897735596 -3.442148447036743 -2.5
7.025702953338623 -2.345517635345459 -2.5
7.191650390625 -1.7725830078125 -2.5
7.310946941375732 -1.1881542205810547 -2.5
7.38284158706665 -0.5960156321525574 -2.5
-7.121425628662109 -0.5749072432518005 -2.5
-6.57287073135376 -2.8004491329193115 -2.5
-6.326210975646973 -3.320258617401123 -2.5
-5.711689472198486 -4.292070388793945 -2.5
-4.94924783706665 -5.152695178985596 -2.5
-3.5722949504852295 -6.187402248382568 -2.5
-3.0628318786621094 -6.454784870147705 -2.5
-2.533515453338623 -6.680312156677246 -2.5
-0.8611913919448853 -7.092499732971191 -2.5
-0.2876953184604645 -7.138798713684082 -2.5
0.8611816167831421 -7.092504501342773 -2.5
1.4290918111801147 -7.000205039978027 -2.5
1.987734317779541 -6.862509727478027 -2.5
3.572275400161743 -6.187397480010986 -2.5
4.058574199676514 -5.8798828125 -2.5
5.347792625427246 -4.737743854522705 -2.5
5.711679458618164 -4.292065143585205 -2.5
6.038515567779541 -3.818544864654541 -2.5
6.572861194610596 -2.8004393577575684 -2.5
6.936982154846191 -1.7098095417022705 -2.5
7.121425628662109 -0.574902355670929 -2.5
-6.80908203125 -1.106591820716858 -2.5
-6.697968482971191 -1.6509032249450684 -2.5
-6.543388366699219 -2.184501886367798 -2.5
-6.346415996551514 -2.7039549350738525 -2.5
-5.830468654632568 -3.6869726181030273 -2.5
-5.163535118103027 -4.574496746063232 -2.5
-4.778700828552246 -4.975156307220459 -2.5
-4.362880706787109 -5.343549728393555 -2.5
-3.91875958442688 -5.677289962768555 -2.5
-3.449208974838257 -5.974199295043945 -2.5
-2.9572949409484863 -6.232372760772705 -2.5
-1.3798632621765137 -6.759003639221191 -2.5
-0.27778318524360657 -6.892822265625 -2.5
0.2777734398841858 -6.892822265625 -2.5
0.8315038681030273 -6.848119735717773 -2.5
1.3798534870147705 -6.759003639221191 -2.5
3.9187400341033936 -5.677285194396973 -2.5
4.362871170043945 -5.343544960021973 -2.5
5.514873027801514 -4.144169807434082 -2.5
5.830458641052246 -3.686967611312866 -2.5
6.543378829956055 -2.184506893157959 -2.5
6.809072017669678 -1.1065869331359863 -2.5
6.876044750213623 -0.5550878643989563 -2.5
-6.666855335235596 -1.4648437172581907e-05 -2.5
-6.645224571228027 -0.5364599227905273 -2.5
-6.580517292022705 -1.0694433450698853 -2.5
-6.473124980926514 -1.59548819065094 -2.5
-6.133368968963623 -2.6131932735443115 -2.5
-5.90319299697876 -3.0982420444488525 -2.5
-5.634736061096191 -3.5632030963897705 -2.5
-4.990195274353027 -4.420937538146973 -2.5
-4.618290901184082 -4.808144569396973 -2.5
-4.216415882110596 -5.164169788360596 -2.5
-1.8548535108566284 -6.403627872467041 -2.5
-1.3335448503494263 -6.532118797302246 -2.5
-0.80360347032547 -6.618242263793945 -2.5
0.26844725012779236 -6.661435604095459 -2.5
1.333535075187683 -6.532109260559082 -2.5
1.8548144102096558 -6.403632640838623 -2.5
3.787187337875366 -5.486703872680664 -2.5
4.216425895690918 -5.164169788360596 -2.5
4.618261814117432 -4.808149337768555 -2.5
5.329755783081055 -4.005058288574219 -2.5
5.634755611419678 -3.5631980895996094 -2.5
6.133339881896973 -2.6131932735443115 -2.5
6.32375955581665 -2.1111717224121094 -2.5
6.473114967346191 -1.5954785346984863 -2.5
6.580507755279541 -1.0694433450698853 -2.5
-6.448574066162109 -4.882812390860636e-06 -2.5
-6.427656173706055 -0.5189062356948853 -2.5
-6.365048885345459 -1.0344287157058716 -2.5
-6.261181354522705 -1.54324209690094 -2.5
-5.932548522949219 -2.5276317596435547 -2.5
-5.709921836853027 -2.9967968463897705 -2.5
-4.826826095581055 -4.276201248168945 -2.5
-3.2242870330810547 -5.584628582000732 -2.5
-2.764462947845459 -5.825966835021973 -2.5
-0.7773144245147705 -6.401552677154541 -2.5
-0.2596679627895355 -6.443334579467773 -2.5
0.7772753834724426 -6.401552677154541 -2.5
2.286689519882202 -6.029511451721191 -2.5
2.7644433975219727 -5.825961589813232 -2.5
3.2242674827575684 -5.58462381362915 -2.5
4.826826095581055 -4.276191234588623 -2.5
5.155263423919678 -3.8739256858825684 -2.5
5.450253963470459 -3.446533203125 -2.5
6.365029335021973 -1.0344336032867432 -2.5
6.427646160125732 -0.5188964605331421 -2.5
-6.161581993103027 -1.0013574361801147 -2.5
-5.742900371551514 -2.446830987930298 -2.5
-4.990458965301514 -3.7500975131988525 -2.5
-4.672519207000732 -4.139502048492432 -2.5
-4.324286937713623 -4.502050876617432 -2.5
-3.948007822036743 -4.835414886474609 -2.5
-3.121220588684082 -5.406103610992432 -2.5
-2.2136034965515137 -5.836767673492432 -2.5
-1.2486523389816284 -6.116269588470459 -2.5
0.2513476610183716 -6.237358093261719 -2.5
1.736757755279541 -5.995956897735596 -2.5
2.213574171066284 -5.836777210235596 -2.5
2.6760644912719727 -5.639726638793945 -2.5
3.1212010383605957 -5.406098365783691 -2.5
3.947988271713257 -4.835414886474609 -2.5
4.324267387390137 -4.502050876617432 -2.5
4.672519207000732 -4.139492034912109 -2.5
5.276025295257568 -3.336367130279541 -2.5
5.742870807647705 -2.446830987930298 -2.5
5.921162128448486 -1.9767773151397705 -2.5
6.22216796875 -0.5023144483566284 -2.5
-6.027773380279541 -0.48661619424819946 -2.5
-5.871660232543945 -1.447241187095642 -2.5
-5.354687213897705 -2.81036114692688 -2.5
-4.526533126831055 -4.010165691375732 -2.5
-4.189169883728027 -4.361386775970459 -2.5
-3.8246288299560547 -4.684326171875 -2.5
-0.7289355397224426 -6.003281116485596 -2.5
0.24348632991313934 -6.04247522354126 -2.5
0.7289355397224426 -6.003281116485596 -2.5
1.209619164466858 -5.92516565322876 -2.5
2.5924413204193115 -5.463515281677246 -2.5
3.824638605117798 -4.684326171875 -2.5
4.189169883728027 -4.361381530761719 -2.5
4.834531307220459 -3.6329197883605957 -2.5
5.111171722412109 -3.232119083404541 -2.5
5.354677677154541 -2.81036114692688 -2.5
5.736142635345459 -1.9150195121765137 -2.5
5.969052791595459 -0.9700732231140137 -2.5
6.027743816375732 -0.48662108182907104 -2.5
-5.843505859375 -0.4717431664466858 -2.5
-5.393408298492432 -2.297919988632202 -2.5
-5.191015720367432 -2.7244529724121094 -2.5
-4.954941272735596 -3.1333203315734863 -2.5
-4.686767578125 -3.5218749046325684 -2.5
-4.061122894287109 -4.228071212768555 -2.5
-3.7077343463897705 -4.541142463684082 -2.5
-2.9312596321105957 -5.077104568481445 -2.5
-2.5132226943969727 -5.296498775482178 -2.5
-1.6310644149780273 -5.631064414978027 -2.5
-0.7066503763198853 -5.819780349731445 -2.5
-0.23606444895267487 -5.857773303985596 -2.5
0.23604491353034973 -5.857773303985596 -2.5
2.078867197036743 -5.481552600860596 -2.5
2.5132031440734863 -5.296504020690918 -2.5
3.3302831649780273 -4.824765682220459 -2.5
3.7077245712280273 -4.541142463684082 -2.5
4.061103343963623 -4.228066444396973 -2.5
4.388144493103027 -3.887578010559082 -2.5
4.686738014221191 -3.521865129470825 -2.5
4.954931735992432 -3.1333203315734863 -2.5
5.786601543426514 -0.9404150247573853 -2.5
5.843505859375 -0.471748024225235 -2.5
-5.687031269073486 -9.765624781721272e-06 -2.5
-5.668583869934082 -0.45762205123901367 -2.5
-5.613388538360596 -0.9122704863548279 -2.5
-5.521777153015137 -1.361000895500183 -2.5
-5.394345760345459 -1.8009033203125 -2.5
-4.256806373596191 -3.7712059020996094 -2.5
-3.9395506381988525 -4.101503849029541 -2.5
-3.5967283248901367 -4.405200004577637 -2.5
-2.843515634536743 -4.925112247467041 -2.5
-2.4380078315734863 -5.137948989868164 -2.5
-1.5822362899780273 -5.462490081787109 -2.5
-1.1375585794448853 -5.572089672088623 -2.5
-0.22898437082767487 -5.682412147521973 -2.5
0.6854882836341858 -5.645566463470459 -2.5
1.137548804283142 -5.572089672088623 -2.5
1.5822265148162842 -5.462500095367432 -2.5
2.0166406631469727 -5.317470550537109 -2.5
3.9395408630371094 -4.101493835449219 -2.5
4.806611061096191 -3.0395214557647705 -2.5
5.394335746765137 -1.8008984327316284 -2.5
5.613379001617432 -0.9122655987739563 -2.5
5.66857385635376 -0.45762205123901367 -2.5
-5.520175457000732 -9.765624781721272e-06 -2.5
-5.236073970794678 -1.7480615377426147 -2.5
-5.078427791595459 -2.1637206077575684 -2.5
-4.665585994720459 -2.9503417015075684 -2.5
-4.131904125213623 -3.6605467796325684 -2.5
-3.491201162338257 -4.275947093963623 -2.5
-2.366455078125 -4.987187385559082 -2.5
-1.957460880279541 -5.161445140838623 -2.5
-1.5358104705810547 -5.302216529846191 -2.5
-1.104189395904541 -5.408613204956055 -2.5
-0.2222949117422104 -5.515688419342041 -2.5
0.22226561605930328 -5.515683650970459 -2.5
1.5358006954193115 -5.302211761474609 -2.5
1.957460880279541 -5.161445140838623 -2.5
2.760077953338623 -4.780595779418945 -2.5
3.491201162338257 -4.275942325592041 -2.5
3.8239452838897705 -3.981157064437866 -2.5
4.665566444396973 -2.950331926345825 -2.5
4.887831687927246 -2.5653514862060547 -2.5
5.078417778015137 -2.1637206077575684 -2.5
5.236054420471191 -1.7480615377426147 -2.5
5.502255916595459 -0.44419431686401367 -2.5
-5.361289024353027 -1.4648437172581907e-05 -2.5
-5.291865348815918 -0.8600146174430847 -2.5
-5.205488204956055 -1.283046841621399 -2.5
-4.932265281677246 -2.101445198059082 -2.5
-4.012959003448486 -3.555180549621582 -2.5
-3.7138867378234863 -3.8665623664855957 -2.5
-3.0455565452575684 -4.412246227264404 -2.5
-2.6806445121765137 -4.642997741699219 -2.5
-2.29833984375 -4.843642234802246 -2.5
-1.901123046875 -5.012876033782959 -2.5
-0.21585936844348907 -5.356923580169678 -2.5
0.2158789038658142 -5.356923580169678 -2.5
1.0723730325698853 -5.2529296875 -2.5
2.29833984375 -4.843642234802246 -2.5
3.045546770095825 -4.412240982055664 -2.5
3.713857412338257 -3.866572141647339 -2.5
4.286025524139404 -3.2207422256469727 -2.5
4.747177600860596 -2.491503953933716 -2.5
5.085341453552246 -1.6977490186691284 -2.5
5.205468654632568 -1.2830370664596558 -2.5
5.291835784912109 -0.8600097298622131 -2.5
