ply
format ascii 1.0
element vertex 886
property float x
property float y
property float z
end_header
25.76553726196289 13.522802352905273 3.769413471221924
17.98517608642578 15.93349552154541 3.1125645637512207
15.303266525268555 15.932406425476074 2.861708879470825
13.0076265335083 15.931474685668945 2.664262533187866
9.34518051147461 16.18633270263672 2.4211370944976807
7.68017053604126 16.185653686523438 2.3207435607910156
3.175712823867798 15.555644035339355 2.0566301345825195
1.888735294342041 15.555121421813965 2.0297985076904297
-0.5998388528823853 14.884916305541992 1.9297466278076172
-2.3234472274780273 6.12645959854126 0.8487756252288818
-7.061718463897705 14.882269859313965 2.133864164352417
-12.149274826049805 14.880180358886719 2.488464593887329
-17.310522079467773 15.335790634155273 2.995806932449341
-26.762550354003906 6.596372127532959 3.5705559253692627
25.76553726196289 13.522797584533691 3.442004919052124
7.382040977478027 15.557357788085938 2.0369038581848145
5.899892330169678 15.55675220489502 1.9680627584457397
4.505908012390137 15.556180953979492 1.9157406091690063
1.888735294342041 15.555116653442383 1.8534917831420898
-0.5998388528823853 14.884916305541992 1.762129783630371
-1.842324137687683 15.172856330871582 1.807942509651184
-1.9085302352905273 6.589023113250732 0.8114358186721802
-7.061718463897705 14.882269859313965 1.948519229888916
-8.6996431350708 15.068217277526855 2.058119535446167
-11.0186128616333 15.963188171386719 2.294393301010132
-17.339580535888672 15.361533164978027 2.740185499191284
25.76553726196289 13.522797584533691 3.115448474884033
17.98517608642578 15.93349552154541 2.572561025619507
15.303266525268555 15.932406425476074 2.365224599838257
5.89989709854126 15.55675220489502 1.7813454866409302
3.175712823867798 15.555644035339355 1.6998201608657837
-1.9075292348861694 6.58556604385376 0.7340667843818665
-11.059643745422363 16.02263069152832 2.084449529647827
-23.552215576171875 14.893534660339355 2.983471632003784
-26.709716796875 6.583349227905273 2.945270299911499
25.76553726196289 13.522797584533691 2.789670944213867
14.945985794067383 15.560439109802246 2.0684502124786377
12.70394515991211 15.559526443481445 1.9257348775863647
10.73941421508789 15.558725357055664 1.81243896484375
8.982421875 15.55800724029541 1.7222810983657837
5.89989709854126 15.55675220489502 1.595072627067566
4.505903244018555 15.556180953979492 1.5526663064956665
3.175712823867798 15.555639266967773 1.522072434425354
1.888735294342041 15.555121421813965 1.5022149085998535
0.6268212795257568 15.554609298706055 1.4924236536026
-2.3241941928863525 6.128432273864746 0.6283667087554932
-7.061718463897705 14.882269859313965 1.5792312622070312
-8.747992515563965 15.151972770690918 1.6773335933685303
-23.552215576171875 14.893534660339355 2.6714928150177
-26.6834716796875 6.576879501342773 2.6346659660339355
25.76553726196289 13.522797584533691 2.4645845890045166
17.565288543701172 15.561498641967773 1.9875991344451904
14.945985794067383 15.560439109802246 1.827409267425537
10.73941421508789 15.558730125427246 1.601231336593628
8.982417106628418 15.55800724029541 1.5215802192687988
7.382045745849609 15.557353019714355 1.4584875106811523
4.505908012390137 15.556180953979492 1.371730923652649
1.888735294342041 15.555121421813965 1.327158808708191
-0.5998388528823853 14.884916305541992 1.2617404460906982
-2.3244481086730957 6.129086971282959 0.5552038550376892
-11.137614250183105 16.135595321655273 1.6606009006500244
-17.07648468017578 15.128451347351074 1.9322887659072876
17.565282821655273 15.561498641967773 1.7259200811386108
14.945985794067383 15.560439109802246 1.5868200063705444
12.70394515991211 15.559526443481445 1.477336049079895
10.73941421508789 15.558730125427246 1.3904201984405518
8.982417106628418 15.55800724029541 1.3212554454803467
7.382045745849609 15.557353019714355 1.2664693593978882
4.505903244018555 15.556180953979492 1.1911345720291138
3.175712823867798 15.555644035339355 1.1676647663116455
-8.747316360473633 15.150795936584473 1.2866756916046143
-11.137951850891113 16.1361026763916 1.4420183897018433
-12.149274826049805 14.880180358886719 1.4128234386444092
-20.158466339111328 15.148110389709473 1.8545290231704712
17.565288543701172 15.561503410339355 1.4646679162979126
10.73941421508789 15.558730125427246 1.1799520254135132
8.982421875 15.558012008666992 1.121256709098816
5.89990234375 15.55675220489502 1.038440227508545
1.888735294342041 15.555121421813965 0.9779870510101318
-0.5998388528823853 14.884916305541992 0.9297802448272705
-1.842016577720642 15.170292854309082 0.9537920951843262
-11.138288497924805 16.1365909576416 1.2237768173217773
-17.10283851623535 15.151796340942383 1.4261038303375244
-23.552215576171875 14.893525123596191 1.7392241954803467
-26.605356216430664 6.557631492614746 1.710227608680725
22.143733978271484 16.639934539794922 1.4208614826202393
14.9459810256958 15.560439109802246 1.1067581176757812
12.70394515991211 15.559526443481445 1.030395746231079
8.982412338256836 15.557997703552246 0.9215341210365295
5.899892330169678 15.556742668151855 0.8534688949584961
3.175708055496216 15.555634498596191 0.8144091367721558
1.888735294342041 15.5551118850708 0.8037841320037842
0.6268212795257568 15.554598808288574 0.7985451817512512
-12.149274826049805 14.880180358886719 0.9854156374931335
-17.10195541381836 15.151015281677246 1.1720153093338013
-20.156267166137695 15.146454811096191 1.2933367490768433
-23.552215576171875 14.893534660339355 1.4294463396072388
-26.579496383666992 6.551259517669678 1.4042354822158813
25.76553726196289 13.522797584533691 1.169525146484375
17.56526756286621 15.561493873596191 0.9431796073913574
12.703935623168945 15.559511184692383 0.8073333501815796
10.739398956298828 15.558720588684082 0.7598357796669006
8.982412338256836 15.557997703552246 0.7220388650894165
7.382040977478027 15.557348251342773 0.6920995712280273
5.899887561798096 15.556742668151855 0.6687085032463074
4.505903244018555 15.556171417236328 0.6509304642677307
3.175708055496216 15.555634498596191 0.6381045579910278
0.6268212795257568 15.554598808288574 0.6256747245788574
-2.325439453125 6.131703853607178 0.2635754346847534
-11.13896656036377 16.137548446655273 0.7881045341491699
-12.149274826049805 14.880180358886719 0.7720937728881836
-17.101072311401367 15.15023422241211 0.9182574152946472
-20.155168533325195 15.145625114440918 1.0133007764816284
-23.552215576171875 14.893529891967773 1.1199814081192017
-26.55372428894043 6.544897079467773 1.0991629362106323
25.76553726196289 13.522802352905273 0.8466790318489075
23.962709426879883 15.153124809265137 0.8249529600143433
22.14373016357422 16.639938354492188 0.805955171585083
17.56527328491211 15.561493873596191 0.6828170418739319
10.739398956298828 15.558720588684082 0.5500848293304443
7.382035732269287 15.557343482971191 0.5010467171669006
5.899892330169678 15.556742668151855 0.4841131567955017
4.505903244018555 15.556171417236328 0.47124266624450684
3.175708055496216 15.555634498596191 0.4619573950767517
-1.8418309688568115 15.168768882751465 0.44460663199424744
-2.325688362121582 6.132358074188232 0.19082488119602203
-7.061720848083496 14.882269859313965 0.4793029725551605
-12.149271965026855 14.880180358886719 0.5589526295661926
-17.100177764892578 15.149442672729492 0.6647445559501648
25.76553726196289 13.522797584533691 0.5240399241447449
14.945971488952637 15.5604248046875 0.38856077194213867
12.703930854797363 15.559511184692383 0.3617517054080963
10.739408493041992 15.5587158203125 0.34046873450279236
8.982417106628418 15.557997703552246 0.32353270053863525
7.382035732269287 15.557343482971191 0.3101171851158142
5.899892330169678 15.556742668151855 0.29963621497154236
3.175708055496216 15.555634498596191 0.28592315316200256
1.888735294342041 15.5551118850708 0.28219297528266907
0.6268212795257568 15.554598808288574 0.28035369515419006
-1.8417675495147705 15.168256759643555 0.2751748561859131
-1.899633765220642 6.558320045471191 0.12296538800001144
-2.325932502746582 6.133007526397705 0.11812347173690796
-7.061718463897705 14.882269859313965 0.29665741324424744
-8.74562931060791 15.147875785827637 0.3150070011615753
-12.149274826049805 14.880180358886719 0.34595945477485657
-20.15296173095703 15.143974304199219 0.45399045944213867
-26.502376556396484 6.532246112823486 0.4915679693222046
10.739408493041992 15.5587158203125 0.13093627989292145
7.382035732269287 15.557348251342773 0.1192639097571373
5.899892330169678 15.556742668151855 0.1152331531047821
4.505903244018555 15.556171417236328 0.11216948926448822
1.888735294342041 15.5551118850708 0.10852477699518204
0.6268212795257568 15.554598808288574 0.1078173816204071
-1.8417088985443115 15.167753219604492 0.1058221384882927
-1.898657202720642 6.554941177368164 0.04726516455411911
-11.140016555786133 16.13909149169922 0.13582061231136322
-17.09840202331543 15.147871017456055 0.158213809132576
-26.482118606567383 6.52725076675415 0.18890288472175598
25.76553726196289 13.522802352905273 -0.12093047797679901
17.98516082763672 15.933485984802246 -0.0998522937297821
1.9338817596435547 15.926952362060547 -0.06667312234640121
-0.5998437404632568 14.884916305541992 -0.0619061253964901
-1.8976855278015137 6.551577091217041 -0.028345337137579918
-2.326425790786743 6.134311199188232 -0.02726394683122635
-11.140385627746582 16.139604568481445 -0.08149688690900803
-17.097517013549805 15.147079467773438 -0.09492293745279312
-26.47234344482422 6.524843692779541 -0.1133018434047699
25.76553726196289 13.522802352905273 -0.4434107840061188
17.985166549682617 15.933485984802246 -0.36614134907722473
1.9338817596435547 15.926958084106445 -0.24447982013225555
-1.8415868282318115 15.16673755645752 -0.23281019926071167
-1.8967089653015137 6.548207759857178 -0.1038842722773552
-2.326674699783325 6.134965896606445 -0.09998275339603424
-7.061718463897705 14.882269859313965 -0.25101974606513977
-8.744619369506836 15.146127700805664 -0.26650115847587585
-11.140748977661133 16.14015007019043 -0.2988467216491699
-20.149660110473633 15.141489028930664 -0.38407453894615173
-26.46257781982422 6.522441387176514 -0.4153083562850952
15.549579620361328 16.188852310180664 -0.5909039378166199
3.303964853286743 16.183862686157227 -0.43481793999671936
1.9338866472244263 15.926952362060547 -0.42234665155410767
-2.326918840408325 6.13561487197876 -0.17274093627929688
-8.74428653717041 15.145541191101074 -0.46037596464157104
-11.141115188598633 16.140684127807617 -0.516284167766571
-12.149270057678223 14.880180358886719 -0.5056968331336975
-23.552215576171875 14.893534660339355 -0.7336028814315796
-26.452816009521484 6.520024299621582 -0.7171939015388489
4.610463619232178 15.917153358459473 -0.6200602650642395
1.9338866472244263 15.926952362060547 -0.6003210544586182
-1.8947558403015137 6.541479110717773 -0.25482529401779175
-12.149274826049805 14.880180358886719 -0.7187792658805847
-17.094852447509766 15.144721031188965 -0.8545547127723694
-20.147457122802734 15.139833450317383 -0.9429858326911926
23.962718963623047 15.153120040893555 -1.3756108283996582
15.303261756896973 15.93239688873291 -1.0718615055084229
4.610463619232178 15.917162895202637 -0.8040347099304199
3.303959846496582 16.183866500854492 -0.8014266490936279
1.9338866472244263 15.926952362060547 -0.778441309928894
0.8250634670257568 20.47386360168457 -0.9941851496696472
-0.5998437404632568 14.884916305541992 -0.7227917313575745
-7.061718463897705 14.882269859313965 -0.7992464900016785
-8.74361515045166 15.14437484741211 -0.8484652638435364
-11.141850471496582 16.141727447509766 -0.9516427516937256
-26.433290481567383 6.515219688415527 -1.3209091424942017
25.76553726196289 13.522797584533691 -1.7352439165115356
15.553505897521973 16.192934036254883 -1.3389278650283813
13.50759220123291 16.543807983398438 -1.2736352682113647
11.749267578125 17.021759033203125 -1.2333950996398926
4.610463619232178 15.917147636413574 -0.9882094860076904
4.136342525482178 20.261125564575195 -1.2331598997116089
0.8219872713088989 20.397546768188477 -1.2173608541488647
-0.5998388528823853 14.884916305541992 -0.8883572220802307
-1.8413329124450684 15.164701461791992 -0.9109640121459961
-7.061720848083496 14.882269859313965 -0.9823226928710938
-8.743278503417969 15.143794059753418 -1.0427812337875366
-11.142216682434082 16.142274856567383 -1.1696679592132568
-12.149274826049805 14.880180358886719 -1.145551323890686
-17.093069076538086 15.143144607543945 -1.3617914915084839
-26.423524856567383 6.51281213760376 -1.622880220413208
17.735063552856445 5.920839786529541 -1.3230581283569336
23.96271514892578 15.153124809265137 -2.0062334537506104
22.14373016357422 16.639934539794922 -1.9600372314453125
6.459892272949219 17.033344268798828 -1.2890832424163818
4.137372970581055 20.266183853149414 -1.463655948638916
1.8132177591323853 14.93319320678711 -1.0644636154174805
-0.5998437404632568 14.884916305541992 -1.0541414022445679
-1.8412694931030273 15.164194107055664 -1.0809298753738403
-1.8918359279632568 6.531381607055664 -0.4811711013317108
-2.3279149532318115 6.138232231140137 -0.46454083919525146
-7.061718463897705 14.882269859313965 -1.1656403541564941
-8.742941856384277 15.143207550048828 -1.2373336553573608
-12.149274826049805 14.880180358886719 -1.3593409061431885
-25.697256088256836 6.333803653717041 -1.8728097677230835
25.37834930419922 13.319594383239746 -2.347599983215332
17.56526756286621 15.56148910522461 -1.9221383333206177
13.431669235229492 16.45082664489746 -1.7395422458648682
16.221376419067383 23.500709533691406 -2.338927984237671
14.296859741210938 24.762897491455078 -2.3420627117156982
12.257963180541992 25.83315658569336 -2.3420746326446533
1.8132177591323853 14.93319320678711 -1.2321346998214722
0.6418066024780273 15.926430702209473 -1.305564522743225
-1.8908593654632568 6.528022289276123 -0.5566769242286682
-2.3281590938568115 6.138881683349609 -0.537770688533783
-7.061720848083496 14.882269859313965 -1.3492504358291626
-8.742605209350586 15.142621994018555 -1.4321800470352173
-11.142956733703613 16.143339157104492 -1.6066820621490479
-12.149274826049805 14.880180358886719 -1.5734472274780273
-25.378353118896484 13.319575309753418 -2.347599983215332
-28.29021453857422 4.597621917724609 -2.347599983215332
26.510995864868164 4.3084716796875 -2.499875068664551
24.48982810974121 6.036215782165527 -2.347599983215332
21.318021774291992 13.480717658996582 -2.347599983215332
20.16415023803711 15.152382850646973 -2.347599983215332
12.581645011901855 21.792037963867188 -2.342064380645752
10.787343978881836 22.733888626098633 -2.3420751094818115
8.923100471496582 23.528295516967773 -2.342085599899292
3.175708055496216 15.555634498596191 -1.4776982069015503
1.8132177591323853 14.93319320678711 -1.4001095294952393
0.6268261671066284 15.554594039916992 -1.448913812637329
-0.5998437404632568 14.884916305541992 -1.3865325450897217
-5.045207500457764 24.713024139404297 -2.347599983215332
-1.8898876905441284 6.524648189544678 -0.6322411894798279
-2.3284082412719727 6.139540672302246 -0.611150324344635
-8.710516929626465 15.08705997467041 -1.6214567422866821
-12.149274826049805 14.880180358886719 -1.7879729270935059
-17.025821685791016 15.083574295043945 -2.1171014308929443
-20.06956672668457 15.081303596496582 -2.336587429046631
-22.333648681640625 11.72159194946289 -2.347599983215332
-23.92470932006836 7.987241268157959 -2.347599983215332
-24.489831924438477 6.036211013793945 -2.347599983215332
-25.898197174072266 4.208886623382568 -2.442091226577759
-26.773056030273438 2.1613476276397705 -2.5
23.97757339477539 9.765624781721272e-06 -2.5
23.89981460571289 1.9293993711471558 -2.5
23.667070388793945 3.8462841510772705 -2.5
16.769731521606445 7.144911766052246 -1.90056574344635
19.03020477294922 12.033988952636719 -2.347599983215332
16.853384017944336 14.930814743041992 -2.347599983215332
14.945971488952637 15.5604248046875 -2.2495665550231934
9.61672306060791 20.26685905456543 -2.338927984237671
4.505903244018555 15.556171417236328 -1.6886202096939087
-0.5998388528823853 14.884916305541992 -1.5532199144363403
-1.8410838842391968 15.1626558303833 -1.5925310850143433
-1.8889062404632568 6.521284103393555 -0.7078837156295776
-2.328662157058716 6.140204906463623 -0.6846963167190552
-8.710185050964355 15.086479187011719 -1.8163188695907593
-12.149274826049805 14.880180358886719 -2.0029172897338867
-16.8533878326416 14.930805206298828 -2.347599983215332
-18.00017547607422 13.526254653930664 -2.347599983215332
-19.03020668029785 12.033979415893555 -2.347599983215332
-19.936838150024414 10.463651657104492 -2.347599983215332
-21.35714340209961 7.130063533782959 -2.347599983215332
-23.65200424194336 3.8438377380371094 -2.4984092712402344
-23.899816513061523 1.9293895959854126 -2.5
21.648895263671875 9.765624781721272e-06 -2.5
19.738447189331055 4.865102291107178 -2.347599983215332
14.093066215515137 4.704960823059082 -1.715756893157959
18.000585556030273 9.447450637817383 -2.347599983215332
17.182010650634766 10.865262985229492 -2.347599983215332
16.252012252807617 12.212602615356445 -2.347599983215332
14.082504272460938 14.661469459533691 -2.347599983215332
12.80959415435791 15.688920974731445 -2.338927984237671
10.12704086303711 17.540552139282227 -2.338927984237671
7.182197093963623 18.937891006469727 -2.338927984237671
0.6268212795257568 15.554598808288574 -1.7976921796798706
-0.5998437404632568 14.884916305541992 -1.7202954292297363
-4.066364765167236 19.91834259033203 -2.347599983215332
-11.090253829956055 16.06697654724121 -2.2544848918914795
-12.149274826049805 14.880180358886719 -2.218360185623169
-14.082477569580078 14.661649703979492 -2.347599983215332
-15.216606140136719 13.480741500854492 -2.347599983215332
-18.702423095703125 7.968354225158691 -2.347599983215332
-19.282962799072266 6.437602519989014 -2.347599983215332
-19.738445281982422 4.865097522735596 -2.347599983215332
-21.368547439575195 3.4727392196655273 -2.5
-21.578693389892578 1.7420116662979126 -2.5
19.72799301147461 0.0 -2.5
19.472515106201172 3.164604425430298 -2.5
17.987051010131836 4.433422565460205 -2.347599983215332
14.093066215515137 4.704960823059082 -1.8828201293945312
16.66728973388672 7.101264476776123 -2.2958531379699707
11.716269493103027 14.349848747253418 -2.347599983215332
7.912338733673096 16.67493438720703 -2.338927984237671
4.505903244018555 15.556166648864746 -2.052363872528076
3.175708055496216 15.55562973022461 -2.0119245052337646
-1.8338232040405273 15.102861404418945 -1.927944540977478
-2.329164981842041 6.141528129577637 -0.8323655724525452
-13.866435050964355 12.284589767456055 -2.347599983215332
-14.809969902038574 11.128954887390137 -2.347599983215332
-15.657450675964355 9.901176452636719 -2.347599983215332
-17.042959213256836 7.261318206787109 -2.347599983215332
-17.57198715209961 5.866386413574219 -2.347599983215332
-19.472509384155273 3.164604425430298 -2.5
-19.664011001586914 1.587441325187683 -2.5
18.057310104370117 1.4577441215515137 -2.5
14.093066215515137 4.704965591430664 -2.050349473953247
15.65041446685791 6.668022155761719 -2.347599983215332
15.063105583190918 7.905736923217773 -2.347599983215332
14.378119468688965 9.092182159423828 -2.347599983215332
13.59987735748291 10.219653129577637 -2.347599983215332
12.73343276977539 11.280854225158691 -2.347599983215332
11.784408569335938 12.268891334533691 -2.347599983215332
10.758964538574219 13.177352905273438 -2.347599983215332
8.505839347839355 14.732572555541992 -2.347599983215332
7.292773246765137 15.369242668151855 -2.347599983215332
6.010136604309082 15.847460746765137 -2.338927984237671
3.175708055496216 15.555634498596191 -2.190941095352173
1.8132177591323853 14.93319320678711 -2.0759027004241943
-1.8337645530700684 15.102343559265137 -2.0994174480438232
-3.402783155441284 16.667905807495117 -2.347599983215332
-1.8859716653823853 6.51113748550415 -0.9354643225669861
-2.329418897628784 6.142192363739014 -0.9065252542495728
-7.061718463897705 14.882269859313965 -2.273221254348755
-8.505854606628418 14.732563018798828 -2.347599983215332
-9.663762092590332 14.000350952148438 -2.347599983215332
-11.784411430358887 12.268896102905273 -2.347599983215332
-13.59988021850586 10.219643592834473 -2.347599983215332
-16.13621711730957 5.387060642242432 -2.347599983215332
-17.881454467773438 2.9060301780700684 -2.5
-18.057310104370117 1.4577343463897705 -2.5
16.68946647644043 1.3473193645477295 -2.5
16.526933670043945 2.6858983039855957 -2.5
16.229639053344727 4.000258922576904 -2.4957587718963623
14.093066215515137 4.704965591430664 -2.218393564224243
14.464892387390137 6.162909984588623 -2.347599983215332
13.922069549560547 7.306869983673096 -2.347599983215332
13.28896427154541 8.403451919555664 -2.347599983215332
12.569682121276855 9.445512771606445 -2.347599983215332
10.891733169555664 11.339521408081055 -2.347599983215332
9.9439697265625 12.17916488647461 -2.347599983215332
8.931714057922363 12.939824104309082 -2.347599983215332
7.861527919769287 13.6165771484375 -2.347599983215332
6.740346431732178 14.205009460449219 -2.347599983215332
-1.8337011337280273 15.10183048248291 -2.2714056968688965
-8.93172836303711 12.9398193359375 -2.347599983215332
-9.94396686553955 12.179174423217773 -2.347599983215332
-13.288969039916992 8.4034423828125 -2.347599983215332
-14.913893699645996 4.978984355926514 -2.347599983215332
15.510629653930664 1.252163052558899 -2.5
15.108915328979492 3.7240233421325684 -2.5
13.443187713623047 5.727612018585205 -2.347599983215332
9.241591453552246 11.318915367126465 -2.347599983215332
7.306240081787109 12.654789924621582 -2.347599983215332
5.181660175323486 13.662914276123047 -2.347599983215332
1.7613378763198853 14.5059175491333 -2.347599983215332
0.58837890625 14.600625038146973 -2.347599983215332
-1.7613476514816284 14.50594711303711 -2.347599983215332
-2.3299267292022705 6.143530368804932 -1.055597186088562
-6.264260292053223 13.20166015625 -2.347599983215332
-7.306249618530273 12.654789924621582 -2.347599983215332
-8.30084228515625 12.025835037231445 -2.347599983215332
-10.122416496276855 10.538569450378418 -2.347599983215332
-10.937597274780273 9.6898775100708 -2.347599983215332
-6.480283260345459 4.869624137878418 -1.3022874593734741
-12.350321769714355 7.809877872467041 -2.347599983215332
-13.8604736328125 4.627304553985596 -2.347599983215332
-15.108908653259277 3.7240185737609863 -2.5
14.531054496765137 4.882812390860636e-06 -2.5
14.483935356140137 1.1692724227905273 -2.5
14.342880249023438 2.3309569358825684 -2.5
12.943007469177246 4.321015357971191 -2.347599983215332
11.532816886901855 7.292929649353027 -2.347599983215332
10.213598251342773 9.048476219177246 -2.347599983215332
7.751376628875732 11.229819297790527 -2.347599983215332
6.822617053985596 11.81712818145752 -2.347599983215332
5.84960412979126 12.327807426452637 -2.347599983215332
4.838662147521973 12.758524894714355 -2.347599983215332
3.796342611312866 13.1065034866333 -2.347599983215332
1.6447460651397705 13.545746803283691 -2.347599983215332
0.5494287014007568 13.6341552734375 -2.347599983215332
-0.5494384765625 13.63417911529541 -2.347599983215332
-1.6447607278823853 13.545751571655273 -2.347599983215332
-1.8830126523971558 6.500917911529541 -1.1644253730773926
-8.629862785339355 10.569682121276855 -2.347599983215332
-11.532821655273438 7.292924404144287 -2.347599983215332
-12.082260131835938 6.341259479522705 -2.347599983215332
-12.943010330200195 4.321015357971191 -2.347599983215332
-14.342880249023438 2.3309521675109863 -2.5
-14.483935356140137 1.1692626476287842 -2.5
13.581483840942383 1.0964208841323853 -2.5
13.189921379089355 3.251030206680298 -2.492476463317871
12.303808212280273 4.107616901397705 -2.3799490928649902
11.32945728302002 5.94616174697876 -2.347599983215332
10.81424331665039 6.838525295257568 -2.347599983215332
10.228900909423828 7.686537742614746 -2.347599983215332
9.577231407165527 8.484697341918945 -2.347599983215332
8.863432884216309 9.227831840515137 -2.347599983215332
7.268417835235596 10.530126571655273 -2.347599983215332
6.397519588470459 11.080839157104492 -2.347599983215332
5.485131740570068 11.559701919555664 -2.347599983215332
4.537182331085205 11.963583946228027 -2.347599983215332
3.559809446334839 12.289877891540527 -2.347599983215332
1.54226553440094 12.701743125915527 -2.347599983215332
-2.5593457221984863 12.536469459533691 -2.347599983215332
-1.8820165395736694 6.497499942779541 -1.2411444187164307
-5.410070896148682 4.792910099029541 -1.3261337280273438
-10.814248085021973 6.838525295257568 -2.347599983215332
-13.22973346710205 3.2608397006988525 -2.5
12.82345199584961 1.4648437172581907e-05 -2.5
10.177543640136719 6.435903072357178 -2.347599983215332
9.626669883728027 7.233979225158691 -2.347599983215332
9.013359069824219 7.985156059265137 -2.347599983215332
8.341591835021973 8.684531211853027 -2.347599983215332
7.615727424621582 9.327597618103027 -2.347599983215332
6.84048318862915 9.91015625 -2.347599983215332
6.020864009857178 10.428442001342773 -2.347599983215332
5.162192344665527 10.879111289978027 -2.347599983215332
3.3502197265625 11.566298484802246 -2.347599983215332
2.4086570739746094 11.798378944396973 -2.347599983215332
-1.8810253143310547 6.494077205657959 -1.3180947303771973
-5.162197113037109 10.879111289978027 -2.347599983215332
-7.615729808807373 9.327592849731445 -2.347599983215332
-10.17755126953125 6.435903072357178 -2.347599983215332
-12.138568878173828 4.052451133728027 -2.4948737621307373
12.10750961303711 4.882812390860636e-06 -2.5
11.2907075881958 3.7693943977355957 -2.4578306674957275
10.067143440246582 5.283647537231445 -2.347599983215332
9.609331130981445 6.076586723327637 -2.347599983215332
9.089213371276855 6.83010721206665 -2.347599983215332
8.510141372680664 7.539345741271973 -2.347599983215332
7.875878810882568 8.19967269897461 -2.347599983215332
7.190536975860596 8.806830406188965 -2.347599983215332
6.458574295043945 9.356864929199219 -2.347599983215332
5.684716701507568 9.846220016479492 -2.347599983215332
4.873984336853027 10.271728515625 -2.347599983215332
4.031655311584473 10.630615234375 -2.347599983215332
2.274184465408325 11.139667510986328 -2.347599983215332
1.3704345226287842 11.286552429199219 -2.347599983215332
-2.2741894721984863 11.139667510986328 -2.347599983215332
-1.8800292015075684 6.490624904632568 -1.3952938318252563
-7.190541744232178 8.806830406188965 -2.347599983215332
-6.192221641540527 4.653159141540527 -1.5993531942367554
-9.609335899353027 6.076586723327637 -2.347599983215332
-10.067140579223633 5.283637523651123 -2.347599983215332
-11.478036880493164 3.8319385051727295 -2.4986112117767334
-12.068246841430664 0.9742528796195984 -2.5
11.316054344177246 1.8390429019927979 -2.5
9.923544883728027 4.228032112121582 -2.3521926403045654
9.532499313354492 5.003046989440918 -2.347599983215332
8.6065034866333 6.467382431030273 -2.347599983215332
8.058188438415527 7.138949871063232 -2.347599983215332
7.457612037658691 7.764208793640137 -2.347599983215332
6.808671951293945 8.339125633239746 -2.347599983215332
2.1534080505371094 10.548070907592773 -2.347599983215332
1.2976561784744263 10.687148094177246 -2.347599983215332
0.43348631262779236 10.756903648376465 -2.347599983215332
-0.43349120020866394 10.756903648376465 -2.347599983215332
-1.2976610660552979 10.687143325805664 -2.347599983215332
-1.8790332078933716 6.4871826171875 -1.472767949104309
-2.3312060832977295 6.146918773651123 -1.4335802793502808
-3.4828758239746094 7.340063095092773 -1.771651268005371
-5.252433776855469 4.653256893157959 -1.5301966667175293
-9.099011421203613 5.753871917724609 -2.347599983215332
-9.53249740600586 5.003041744232178 -2.347599983215332
-9.9235200881958 4.228012561798096 -2.3521883487701416
-10.874513626098633 3.630444288253784 -2.5
-11.131376266479492 2.74365234375 -2.5
-11.316052436828613 1.8390477895736694 -2.5
10.883695602416992 9.765624781721272e-06 -2.5
10.567436218261719 2.6046533584594727 -2.5
9.580283164978027 4.081777095794678 -2.39201283454895
9.049565315246582 4.749589920043945 -2.347599983215332
8.638041496276855 5.462368011474609 -2.347599983215332
8.170493125915527 6.139731407165527 -2.347599983215332
7.649950981140137 6.777270317077637 -2.347599983215332
6.463730335235596 7.916640281677246 -2.347599983215332
5.805751800537109 8.411088943481445 -2.347599983215332
5.110112190246582 8.850981712341309 -2.347599983215332
2.843447208404541 9.816713333129883 -2.347599983215332
2.044306516647339 10.013690948486328 -2.347599983215332
0.4115234315395355 10.211942672729492 -2.347599983215332
-1.2319189310073853 10.145712852478027 -2.347599983215332
-1.8780224323272705 6.483705997467041 -1.5505326986312866
-2.331469774246216 6.147602558135986 -1.5102529525756836
-4.381332874298096 9.233476638793945 -2.347599983215332
-5.805756568908691 8.411084175109863 -2.347599983215332
-6.463732719421387 7.916645526885986 -2.347599983215332
-7.079797267913818 7.370859146118164 -2.347599983215332
-6.157192230224609 4.626835823059082 -1.7691271305084229
-8.63803482055664 5.462368011474609 -2.347599983215332
-9.049562454223633 4.749575138092041 -2.347599983215332
-10.74276065826416 1.7458739280700684 -2.5
-10.848407745361328 0.875781238079071 -2.5
9.800468444824219 3.2718799114227295 -2.494168758392334
8.611088752746582 4.519453048706055 -2.347599983215332
7.279286861419678 6.448896408081055 -2.347599983215332
6.736762523651123 7.013725280761719 -2.347599983215332
4.862514495849609 8.422123908996582 -2.347599983215332
4.169043064117432 8.786088943481445 -2.347599983215332
3.448539972305298 9.093066215515137 -2.347599983215332
2.7056736946105957 9.341069221496582 -2.347599983215332
1.945253849029541 9.528495788574219 -2.347599983215332
1.172216773033142 9.654126167297363 -2.347599983215332
0.39158201217651367 9.717143058776855 -2.347599983215332
-0.39159178733825684 9.717147827148438 -2.347599983215332
-1.877016544342041 6.48021936416626 -1.6286094188690186
-2.331733465194702 6.148295879364014 -1.5873334407806396
-4.169045448303223 8.786088943481445 -2.347599983215332
-4.862514495849609 8.422123908996582 -2.347599983215332
-5.524455547332764 8.003544807434082 -2.347599983215332
-6.150549411773682 7.533061504364014 -2.347599983215332
-6.736764907836914 7.013725280761719 -2.347599983215332
-5.225717544555664 4.629589557647705 -1.6853152513504028
-6.157192230224609 4.626835823059082 -1.859210729598999
-8.611088752746582 4.519448280334473 -2.347599983215332
-9.823381423950195 3.2795262336730957 -2.5
-10.055419921875 2.478442430496216 -2.5
-10.322772979736328 0.8333446979522705 -2.5
9.8753023147583 4.882812390860636e-06 -2.5
9.843280792236328 0.7946337461471558 -2.5
9.58834457397461 2.3633251190185547 -2.5
9.367079734802246 3.127197265625 -2.5
8.917929649353027 3.799575090408325 -2.4540047645568848
7.837699890136719 4.956274509429932 -2.347599983215332
7.413476467132568 5.570873737335205 -2.347599983215332
6.941171646118164 6.149340629577637 -2.347599983215332
5.267831802368164 7.631782054901123 -2.347599983215332
3.9753904342651367 8.377978324890137 -2.347599983215332
1.1177685260772705 9.205693244934082 -2.347599983215332
0.37339353561401367 9.265786170959473 -2.347599983215332
-1.1177783012390137 9.205693244934082 -2.347599983215332
-1.8549071550369263 9.085898399353027 -2.347599983215332
-3.975393056869507 8.377973556518555 -2.347599983215332
-6.423837661743164 6.687929630279541 -2.347599983215332
-6.1571946144104 4.626835823059082 -1.9497780799865723
-9.367082595825195 3.127197265625 -2.5
-9.747419357299805 1.5841211080551147 -2.5
9.404013633728027 0.7591796517372131 -2.5
9.312426567077637 1.513427734375 -2.5
9.160449028015137 2.2578563690185547 -2.5
8.581073760986328 3.6560497283935547 -2.4716100692749023
7.487934589385986 4.735092639923096 -2.347599983215332
7.082631587982178 5.322265625 -2.347599983215332
6.631401062011719 5.874917030334473 -2.347599983215332
3.812856435775757 4.669907093048096 -1.5975112915039062
5.03274393081665 7.291196346282959 -2.347599983215332
3.797983407974243 8.004091262817383 -2.347599983215332
3.1416015625 8.2837495803833 -2.347599983215332
1.77212393283844 8.680424690246582 -2.347599983215332
0.3567236363887787 8.852290153503418 -2.347599983215332
-0.35673826932907104 8.852290153503418 -2.347599983215332
-1.0679004192352295 8.794873237609863 -2.347599983215332
-1.7721288204193115 8.680424690246582 -2.347599983215332
-1.8749853372573853 6.473212718963623 -1.7857908010482788
-2.3322558403015137 6.14968729019165 -1.7428100109100342
-3.5491552352905273 7.47973108291626 -2.1938023567199707
-4.429733753204346 7.672524452209473 -2.347599983215332
-5.603122234344482 6.862587928771973 -2.347599983215332
-6.137167930603027 6.389482498168945 -2.347599983215332
-5.224535942077637 4.6285400390625 -1.8495497703552246
-8.032854080200195 4.215966701507568 -2.403916358947754
-8.94906234741211 2.9876415729522705 -2.5
-9.404006004333496 0.7591747641563416 -2.5
8.912348747253418 1.4484081268310547 -2.5
7.706425666809082 4.044643402099609 -2.409754991531372
7.166240215301514 4.531669616699219 -2.347599983215332
6.778359413146973 5.093613147735596 -2.347599983215332
6.346513748168945 5.622524261474609 -2.347599983215332
3.812856435775757 4.669907093048096 -1.669223427772522
4.816537857055664 6.977958679199219 -2.347599983215332
4.239423751831055 7.342905044555664 -2.347599983215332
2.358959913253784 8.144091606140137 -2.347599983215332
1.695986270904541 8.307504653930664 -2.347599983215332
0.3414013683795929 8.471977233886719 -2.347599983215332
-0.34141600131988525 8.4719820022583 -2.347599983215332
-1.0220214128494263 8.417036056518555 -2.347599983215332
-2.332524299621582 6.150395393371582 -1.8212530612945557
-4.816540241241455 6.977953910827637 -2.347599983215332
-5.362404823303223 6.567763328552246 -2.347599983215332
-7.971518516540527 4.183774471282959 -2.492647886276245
-8.306753158569336 3.539174795150757 -2.5
-8.56459903717041 2.8592870235443115 -2.5
-8.999995231628418 0.7265527248382568 -2.5
8.6551513671875 4.882812390860636e-06 -2.5
8.543070793151855 1.388393521308899 -2.5
7.927919864654541 3.3777732849121094 -2.489121913909912
7.475844383239746 3.9236278533935547 -2.438699722290039
6.083544731140137 5.389550685882568 -2.347599983215332
5.630136489868164 5.86160135269165 -2.347599983215332
4.063764572143555 7.038657188415527 -2.347599983215332
3.484208822250366 7.342822074890137 -2.347599983215332
2.8820555210113525 7.599379539489746 -2.347599983215332
2.261220693588257 7.806645393371582 -2.347599983215332
1.6257177591323853 7.96328592300415 -2.347599983215332
0.9796581864356995 8.068276405334473 -2.347599983215332
-0.9796777367591858 8.068281173706055 -2.347599983215332
-1.8729394674301147 6.466142654418945 -1.9444836378097534
-2.3327929973602295 6.151098728179932 -1.9001961946487427
-3.1507420539855957 5.457289695739746 -1.820164442062378
-4.616967678070068 6.688832759857178 -2.347599983215332
-5.140217304229736 6.295634746551514 -2.347599983215332
-5.630138874053955 5.861606121063232 -2.347599983215332
-5.224533557891846 4.6285400390625 -2.016113519668579
-6.1571946144104 4.626835823059082 -2.2246456146240234
-7.962565898895264 3.392529249191284 -2.5
-8.209729194641113 2.7408154010772705 -2.5
8.30868148803711 4.882812390860636e-06 -2.5
8.201088905334473 1.3328124284744263 -2.5
8.067240715026855 1.9884033203125 -2.5
7.628964900970459 3.2504003047943115 -2.495142936706543
7.224252700805664 3.791581869125366 -2.4549005031585693
6.675102233886719 4.221084117889404 -2.3763558864593506
6.237397193908691 4.687099456787109 -2.347599983215332
3.9010839462280273 6.756889343261719 -2.347599983215332
3.344731330871582 7.048886775970459 -2.347599983215332
2.7666893005371094 7.295166015625 -2.347599983215332
2.170703172683716 7.494130611419678 -2.347599983215332
-0.31416502594947815 7.795854091644287 -2.347599983215332
-1.4779735803604126 7.239667892456055 -2.2232725620269775
-1.8718993663787842 6.462573051452637 -2.0244531631469727
-2.085952043533325 5.500195026397705 -1.7699716091156006
-2.6002538204193115 5.479970455169678 -1.8250759840011597
-3.1507420539855957 5.457289695739746 -1.8960665464401245
-4.432148456573486 6.421069145202637 -2.347599983215332
-5.404757976531982 5.626957893371582 -2.347599983215332
-6.675085067749023 4.2210693359375 -2.3763508796691895
-7.3515625 3.858403205871582 -2.4981627464294434
-7.881081581115723 2.631093740463257 -2.5
-8.067245483398438 1.9884033203125 -2.5
-8.20108413696289 1.3328173160552979 -2.5
-8.281733512878418 0.6685742139816284 -2.5
7.883388519287109 1.2811815738677979 -2.5
7.754726409912109 1.9113818407058716 -2.5
7.575780868530273 2.5291748046875 -2.5
7.347704887390137 3.130566358566284 -2.5
6.987514495849609 3.6673338413238525 -2.470144271850586
5.995771408081055 4.505532264709473 -2.347599983215332
3.8070311546325684 4.662768363952637 -1.8842116594314575
4.260454177856445 6.172324180603027 -2.347599983215332
3.215156078338623 6.775820255279541 -2.347599983215332
-0.3019970655441284 7.493862152099609 -2.347599983215332
-0.9040234088897705 7.445258617401123 -2.347599983215332
-2.0862841606140137 5.501147270202637 -1.8416171073913574
-2.6002538204193115 5.479970455169678 -1.898625135421753
-3.1507420539855957 5.457289695739746 -1.9724767208099365
-4.743295669555664 5.809496879577637 -2.347599983215332
-5.195387840270996 5.408979415893555 -2.347599983215332
-5.995769023895264 4.505532264709473 -2.347599983215332
-7.347709655761719 3.130566358566284 -2.5
-7.575780868530273 2.529169797897339 -2.5
-7.754735946655273 1.911376953125 -2.5
-7.960910320281982 0.6426708698272705 -2.5
7.686967372894287 4.882812390860636e-06 -2.5
7.662035942077637 0.6185497641563416 -2.5
7.463593482971191 1.8396190404891968 -2.5
7.291362285614014 2.434218645095825 -2.5
7.071850299835205 3.0130369663238525 -2.5
6.755195140838623 3.545400381088257 -2.4811675548553467
6.315195083618164 3.9934959411621094 -2.4300622940063477
5.770668983459473 4.336381912231445 -2.347599983215332
5.000336647033691 5.205903053283691 -2.347599983215332
3.8070311546325684 4.662768363952637 -1.9577099084854126
4.100497722625732 5.940600395202637 -2.347599983215332
2.5596678256988525 6.74929666519165 -2.347599983215332
2.0082714557647705 6.933373928070068 -2.347599983215332
1.4438574314117432 7.072490215301514 -2.347599983215332
0.2906494140625 7.212514400482178 -2.347599983215332
-0.2906543016433716 7.21251916885376 -2.347599983215332
-1.125512719154358 5.513217449188232 -1.8300200700759888
-2.6002538204193115 5.479970455169678 -1.9726852178573608
-3.1507420539855957 5.457289695739746 -2.0494182109832764
-4.100507736206055 5.940600395202637 -2.347599983215332
-4.565219402313232 5.591386795043945 -2.347599983215332
-4.973103046417236 5.177553653717041 -2.3348147869110107
-5.770671367645264 4.336381912231445 -2.347599983215332
-6.806469440460205 3.5723094940185547 -2.5
-7.463598251342773 1.8396190404891968 -2.5
-7.662031173706055 0.6185449361801147 -2.5
7.382856369018555 0.5960156321525574 -2.5
7.19164514541626 1.7725927829742432 -2.5
6.814174652099609 2.903247117996216 -2.5
6.524101257324219 3.4241161346435547 -2.4869017601013184
6.122524261474609 3.871650218963623 -2.4450128078460693
5.618300437927246 4.221884727478027 -2.3720436096191406
4.818139553070068 5.016220569610596 -2.347599983215332
2.981699228286743 6.28380823135376 -2.347599983215332
2.4663963317871094 6.503368854522705 -2.347599983215332
0.8383740186691284 6.904638290405273 -2.347599983215332
0.2800585925579071 6.949711799621582 -2.347599983215332
-0.2800634801387787 6.949711799621582 -2.347599983215332
-1.125512719154358 5.513217449188232 -1.8992222547531128
-1.5992236137390137 5.521210670471191 -1.9401394128799438
-3.9510936737060547 5.724140644073486 -2.347599983215332
-4.398874282836914 5.387656211853027 -2.347599983215332
-4.818141937255859 5.016220569610596 -2.347599983215332
-5.618290901184082 4.221869945526123 -2.3720388412475586
-6.814172267913818 2.903247117996216 -2.5
-7.02569055557251 2.345527410507202 -2.5
-7.19164514541626 1.7725878953933716 -2.5
-7.310956954956055 1.1881542205810547 -2.5
-7.382853984832764 0.5960058569908142 -2.5
7.144584655761719 9.765624781721272e-06 -2.5
7.052065372467041 1.1460790634155273 -2.5
6.776899337768555 2.262465715408325 -2.5
6.572880744934082 2.8004393577575684 -2.5
4.647529125213623 4.838588714599609 -2.347599983215332
3.8070311546325684 4.662768363952637 -2.106328010559082
3.8111815452575684 5.521445274353027 -2.347599983215332
3.3545262813568115 5.810214519500732 -2.347599983215332
2.8761181831359863 6.061298847198486 -2.347599983215332
1.8665722608566284 6.444169998168945 -2.347599983215332
1.341982364654541 6.573471546173096 -2.347599983215332
0.2701367139816284 6.70361328125 -2.347599983215332
-0.2701513469219208 6.703618049621582 -2.347599983215332
-2.0862841606140137 5.501147270202637 -2.0587120056152344
-4.243107795715332 5.196869850158691 -2.347599983215332
-5.021799087524414 4.448930740356445 -2.347599983215332
-5.598918437957764 4.207319259643555 -2.4506402015686035
-6.5728759765625 2.8004393577575684 -2.5
6.697958946228027 1.6509032249450684 -2.5
6.543393611907959 2.184506893157959 -2.5
6.346401214599609 2.7039451599121094 -2.5
6.101840496063232 3.2024950981140137 -2.497379779815674
5.766635417938232 3.646601438522339 -2.472628116607666
3.6798582077026367 5.331191062927246 -2.347599983215332
3.2389402389526367 5.610009670257568 -2.347599983215332
2.7770166397094727 5.85244607925415 -2.347599983215332
2.2970898151397705 6.056928634643555 -2.347599983215332
1.8022558689117432 6.222128868103027 -2.347599983215332
1.295742154121399 6.346967697143555 -2.347599983215332
0.7808203101158142 6.430654048919678 -2.347599983215332
0.2608349621295929 6.472626686096191 -2.347599983215332
-0.2608398497104645 6.472631454467773 -2.347599983215332
-1.125512719154358 5.513217449188232 -2.0392096042633057
-1.5992236137390137 5.521210670471191 -2.083142042160034
-2.0862841606140137 5.501147270202637 -2.1321799755096436
-4.096901893615723 5.017802715301514 -2.347599983215332
-4.848764419555664 4.295634746551514 -2.347599983215332
-5.830466270446777 3.686967611312866 -2.5
-6.697956562042236 1.6508984565734863 -2.5
-6.876039981842041 0.5550927519798279 -2.5
6.666840553283691 0.0 -2.5
6.645219802856445 0.5364599227905273 -2.5
6.133359432220459 2.6131787300109863 -2.5
5.593159198760986 3.5369043350219727 -2.4815471172332764
5.018036842346191 3.77081036567688 -2.3537817001342773
4.76260232925415 4.219296932220459 -2.3859753608703613
2.6837987899780273 5.655991077423096 -2.347599983215332
1.2522509098052979 6.1339111328125 -2.347599983215332
0.7546093463897705 6.214789867401123 -2.347599983215332
0.2520800828933716 6.255356311798096 -2.347599983215332
-0.2520849406719208 6.255356311798096 -2.347599983215332
-0.7546191215515137 6.214789867401123 -2.347599983215332
-2.074521541595459 5.470131874084473 -2.1938023567199707
-2.5489842891693115 5.371928691864014 -2.2296907901763916
-3.088627815246582 5.349692344665527 -2.316420555114746
-3.55633282661438 5.152235984802246 -2.347599983215332
-3.9593799114227295 4.849370002746582 -2.347599983215332
-5.320783615112305 3.9983153343200684 -2.495791435241699
-5.90319299697876 3.0982322692871094 -2.5
-6.323742389678955 2.1111767292022705 -2.5
-6.473117351531982 1.595483422279358 -2.5
-6.58050537109375 1.0694433450698853 -2.5
-6.645222187042236 0.5364648103713989 -2.5
6.365053653717041 1.0344287157058716 -2.5
5.932543754577637 2.5276172161102295 -2.5
5.412446022033691 3.4226317405700684 -2.482656240463257
4.194765567779541 4.367211818695068 -2.347599983215332
3.7943408489227295 4.647231578826904 -2.3258981704711914
3.439892530441284 4.98354959487915 -2.347599983215332
3.0277342796325684 5.244179725646973 -2.347599983215332
1.6847362518310547 5.816381931304932 -2.347599983215332
0.729907214641571 6.011313438415527 -2.347599983215332
0.24382811784744263 6.050551414489746 -2.347599983215332
-1.5743505954742432 5.435346603393555 -2.1938023567199707
-2.0451464653015137 5.392685413360596 -2.2359490394592285
-2.5489842891693115 5.371928691864014 -2.305164098739624
-3.0277295112609863 5.244184494018555 -2.347599983215332
-3.439897298812866 4.983544826507568 -2.347599983215332
-3.8297436237335205 4.690595626831055 -2.347599983215332
-4.194760799407959 4.36721658706665 -2.347599983215332
-4.747360706329346 4.205800533294678 -2.4588449001312256
-5.709924221038818 2.9967968463897705 -2.5
-5.932546138763428 2.5276172161102295 -2.5
-6.116696834564209 2.042055606842041 -2.5
-6.365056037902832 1.0344287157058716 -2.5
-6.427651405334473 0.5188964605331421 -2.5
6.242416858673096 0.0 -2.5
6.222177505493164 0.5023095607757568 -2.5
5.527387619018555 2.9010009765625 -2.5
5.24795389175415 3.318608283996582 -2.486696720123291
4.416640758514404 3.9128074645996094 -2.3630964756011963
2.512939453125 5.295922756195068 -2.347599983215332
2.0786523818969727 5.48095703125 -2.347599983215332
0.7065771222114563 5.819150447845459 -2.347599983215332
-0.23603515326976776 5.857128620147705 -2.347599983215332
-0.7065771222114563 5.819140434265137 -2.347599983215332
-1.5676854848861694 5.412353515625 -2.2566640377044678
-2.0451512336730957 5.392685413360596 -2.309786558151245
-2.512944221496582 5.29592752456665 -2.347599983215332
-2.9309375286102295 5.0765380859375 -2.347599983215332
-3.3299267292022705 4.824238300323486 -2.347599983215332
-3.7073168754577637 4.540644645690918 -2.347599983215332
-4.990451335906982 3.7500829696655273 -2.4999985694885254
-6.161579608917236 1.0013574361801147 -2.5
5.099833965301514 3.2249412536621094 -2.49444842338562
4.624365329742432 3.474990129470825 -2.3913214206695557
4.377934455871582 3.8785107135772705 -2.417933225631714
3.59148907661438 4.398769378662109 -2.347599983215332
3.22588849067688 4.673501014709473 -2.347599983215332
2.839365243911743 4.917924880981445 -2.347599983215332
2.4344236850738525 5.130449295043945 -2.347599983215332
2.0137059688568115 5.309701919555664 -2.347599983215332
1.1358935832977295 5.56396484375 -2.347599983215332
0.22866210341453552 5.674120903015137 -2.347599983215332
-0.684497058391571 5.63732385635376 -2.347599983215332
-1.567690372467041 5.412353515625 -2.329446315765381
-2.839360237121582 4.917924880981445 -2.347599983215332
-3.225893497467041 4.673501014709473 -2.347599983215332
-3.591481924057007 4.398779392242432 -2.347599983215332
-4.518754959106445 4.003266334533691 -2.4957072734832764
-5.111178874969482 3.232119083404541 -2.5
-5.354680061340332 2.810351610183716 -2.5
-5.563466548919678 2.370371103286743 -2.5
-5.736156940460205 1.915014624595642 -2.5
-5.871650218963623 1.4472362995147705 -2.5
5.843505859375 0.4717382788658142 -2.5
5.692162990570068 1.402993083000183 -2.5
5.393398284912109 2.297910213470459 -2.5
5.191000938415527 2.7244482040405273 -2.5
4.954941272735596 3.1333203315734863 -2.5
4.587914943695068 3.4475975036621094 -2.447279691696167
4.035234451293945 4.201132774353027 -2.48407244682312
3.1272802352905273 4.5306396484375 -2.347599983215332
2.752568244934082 4.767592430114746 -2.347599983215332
2.3600096702575684 4.973622798919678 -2.347599983215332
1.1011669635772705 5.393886566162109 -2.347599983215332
0.6635693311691284 5.464999675750732 -2.347599983215332
-0.22166991233825684 5.500673770904541 -2.347599983215332
-0.66357421875 5.464999675750732 -2.347599983215332
-1.101171851158142 5.393881797790527 -2.347599983215332
-1.5316259860992432 5.287783145904541 -2.347599983215332
-1.9521484375 5.147402286529541 -2.347599983215332
-2.3600096702575684 4.973622798919678 -2.347599983215332
-3.481694221496582 4.26431131362915 -2.347599983215332
-4.384167194366455 3.884037971496582 -2.497728109359741
-4.686748027801514 3.521865129470825 -2.5
-4.954941272735596 3.1333203315734863 -2.5
-5.692165374755859 1.4029979705810547 -2.5
-5.786599159240723 0.9404199123382568 -2.5
-5.843505859375 0.4717382788658142 -2.5
5.6685791015625 0.4576171636581421 -2.5
5.613379001617432 0.9122655987739563 -2.5
5.521767616271973 1.3609960079193115 -2.5
5.035614967346191 2.642890453338623 -2.5
4.806616306304932 3.0395214557647705 -2.5
