ply
format ascii 1.0
element vertex 699
property float x
property float y
property float z
end_header
21.541410446166992 -9.177929878234863 5.173989295959473
-23.868602752685547 -10.169472694396973 0.1796911507844925
-22.60112762451172 -11.862021446228027 -0.10607253760099411
-23.868602752685547 -10.169472694396973 -0.39534956216812134
-22.60112762451172 -11.862021446228027 -0.38895171880722046
-22.601131439208984 -11.862021446228027 -0.6719263792037964
-23.86861228942871 -10.169472694396973 -1.2588214874267578
-22.601131439208984 -11.862021446228027 -1.2384487390518188
-22.928890228271484 -1.8510204553604126 -1.3717743158340454
-21.575267791748047 -16.212812423706055 -1.6093777418136597
-22.292842864990234 -1.7996728420257568 -1.5826183557510376
-23.868602752685547 -10.169472694396973 -1.8358010053634644
-14.82485294342041 -18.157148361206055 -1.6586995124816895
9.808988571166992 -20.6719913482666 -1.619118332862854
17.185894012451172 -17.89242172241211 -1.7555456161499023
-22.936065673828125 -17.2353515625 -2.34995436668396
-19.95830726623535 -20.778818130493164 -2.359880208969116
-14.919281959533691 -18.272802352905273 -1.9321997165679932
-14.468114852905273 -25.059492111206055 -2.370114803314209
-10.278368949890137 -27.10185432434082 -2.3741464614868164
-8.06820297241211 -27.85469627380371 -2.375312089920044
-5.802402019500732 -28.422109603881836 -2.3760228157043457
-2.482621908187866 -20.44637680053711 -1.6870275735855103
1.1679540872573853 -28.981943130493164 -2.375779867172241
5.795737266540527 -28.389404296875 -2.373289108276367
18.227251052856445 -22.32430648803711 -2.3606114387512207
19.93987274169922 -20.75960922241211 -2.3577024936676025
21.515512466430664 -19.061063766479492 -2.3544015884399414
24.224281311035156 -15.318495750427246 -2.347599983215332
25.37839698791504 -13.319608688354492 -2.347599983215332
26.36783218383789 -11.23428726196289 -2.347599983215332
-26.86015510559082 -3.417968764551915e-05 -2.5
-22.18245506286621 -1.7907665967941284 -2.0713412761688232
-26.512331008911133 -4.308681488037109 -2.5
-26.07965087890625 -6.428085803985596 -2.5
-23.572689056396484 -10.043397903442383 -2.3848588466644287
-22.333637237548828 -11.721631050109863 -2.347599983215332
-21.318021774291992 -13.480712890625 -2.347599983215332
-18.87950897216797 -16.72579002380371 -2.347599983215332
-17.477785110473633 -18.196327209472656 -2.3483223915100098
-15.001205444335938 -18.37313461303711 -2.207672119140625
-12.663413047790527 -21.933671951293945 -2.357285261154175
-7.061059474945068 -24.37766456604004 -2.362206220626831
-5.078139305114746 -24.874374389648438 -2.3629279136657715
-1.0226562023162842 -25.377382278442383 -2.363908290863037
1.022485375404358 -25.372196197509766 -2.363424777984619
5.075815200805664 -24.86296844482422 -2.3618435859680176
8.98745059967041 -23.69792938232422 -2.358971118927002
10.857611656188965 -22.88197135925293 -2.357329845428467
20.164154052734375 -15.152362823486328 -2.347599983215332
21.318037033081055 -13.48070240020752 -2.347599983215332
22.333656311035156 -11.721601486206055 -2.347599983215332
23.204418182373047 -9.886465072631836 -2.347599983215332
24.966405868530273 -8.335004806518555 -2.4498164653778076
26.079647064208984 -6.428051471710205 -2.5
26.512332916259766 -4.308666706085205 -2.5
-23.977602005004883 -1.9531249563442543e-05 -2.5
-23.899845123291016 -1.9294042587280273 -2.5
-23.280858993530273 -5.738242149353027 -2.5
-22.743593215942383 -7.592944145202637 -2.5
-22.058866500854492 -9.398417472839355 -2.5
-20.59407615661621 -10.808642387390137 -2.424989700317383
-18.00017738342285 -13.52627944946289 -2.347599983215332
-14.24007797241211 -17.44096565246582 -2.347599983215332
-8.819941520690918 -15.27660083770752 -1.839205265045166
-7.613095760345459 -16.044296264648438 -1.8516161441802979
-4.513774394989014 -22.10999870300293 -2.352825880050659
2.720102548599243 -22.401952743530273 -2.352871894836426
4.512534141540527 -22.10384750366211 -2.352173328399658
7.991498947143555 -21.071805953979492 -2.3497259616851807
11.257953643798828 -19.499374389648438 -2.347599983215332
14.240107536315918 -17.440946578979492 -2.347599983215332
16.853418350219727 -14.93080997467041 -2.347599983215332
18.00017547607422 -13.526240348815918 -2.347599983215332
19.030242919921875 -12.033984184265137 -2.347599983215332
22.053144454956055 -9.395956993103027 -2.4993507862091064
22.74358367919922 -7.592919826507568 -2.5
23.66706085205078 -3.846264600753784 -2.5
-21.57869529724121 -1.7420263290405273 -2.5
-21.368541717529297 -3.472734212875366 -2.5
-21.019813537597656 -5.180932521820068 -2.5
-20.5347843170166 -6.855639457702637 -2.5
-16.251995086669922 -12.212616920471191 -2.347599983215332
-15.216606140136719 -13.480751991271973 -2.347599983215332
-14.082504272460938 -14.66146469116211 -2.347599983215332
-6.570507526397705 -9.519022941589355 -1.3356902599334717
-7.208818435668945 -19.008113861083984 -2.347599983215332
-5.655927658081055 -19.52654266357422 -2.347599983215332
-0.8185595273971558 -20.312685012817383 -2.347599983215332
0.8185839653015137 -20.312685012817383 -2.347599983215332
4.066352367401123 -19.9183292388916 -2.347599983215332
8.714980125427246 -18.36641502380371 -2.347599983215332
16.27994155883789 -12.233573913574219 -2.3516345024108887
18.212533950805664 -11.516913414001465 -2.488400936126709
19.169130325317383 -10.060731887817383 -2.5
19.916532516479492 -8.485639572143555 -2.5
21.368539810180664 -3.472719669342041 -2.5
21.578691482543945 -1.7420018911361694 -2.5
-19.154726028442383 -4.721230506896973 -2.5
-18.71269989013672 -6.247241020202637 -2.5
-18.149335861206055 -7.732719421386719 -2.5
-17.468252182006836 -9.168075561523438 -2.5
-16.673891067504883 -10.543935775756836 -2.5
-15.74620532989502 -11.832529067993164 -2.4960083961486816
-12.832968711853027 -13.360546112060547 -2.347599983215332
-7.509208679199219 -9.197128295898438 -1.504626989364624
-6.533276081085205 -9.465097427368164 -1.4574410915374756
-7.421792030334473 -15.64110279083252 -2.1939163208007812
-5.154072284698486 -17.793954849243164 -2.347599983215332
-3.7055418491363525 -18.150976181030273 -2.347599983215332
-0.7459179759025574 -18.510351181030273 -2.347599983215332
2.232988119125366 -18.39029312133789 -2.347599983215332
3.7055468559265137 -18.150976181030273 -2.347599983215332
6.569199085235596 -17.321523666381836 -2.347599983215332
7.941694259643555 -16.736738204956055 -2.347599983215332
9.262685775756836 -16.043437957763672 -2.347599983215332
10.523603439331055 -15.246073722839355 -2.347599983215332
12.832987785339355 -13.360536575317383 -2.347599983215332
15.771406173706055 -11.851435661315918 -2.5
17.468252182006836 -9.16805648803711 -2.5
19.472509384155273 -3.1645898818969727 -2.5
-17.58963394165039 -4.335473537445068 -2.5
-17.183734893798828 -5.736786842346191 -2.5
-16.666400909423828 -7.100893497467041 -2.5
-14.482744216918945 -10.883095741271973 -2.5
-13.560063362121582 -12.01317310333252 -2.5
-4.732949256896973 -16.340038299560547 -2.347599983215332
-3.402773380279541 -16.66790008544922 -2.347599983215332
0.6850048899650574 -16.99789047241211 -2.347599983215332
2.050541877746582 -16.887664794921875 -2.347599983215332
3.402783155441284 -16.667909622192383 -2.347599983215332
4.732949256896973 -16.34004783630371 -2.347599983215332
11.126826286315918 -13.627880096435547 -2.427865743637085
12.531289100646973 -13.046464920043945 -2.4963862895965576
15.311508178710938 -9.682412147521973 -2.5
17.589637756347656 -4.335453987121582 -2.5
17.881439208984375 -2.906010627746582 -2.5
-16.25721549987793 -4.007055759429932 -2.5
-14.151659965515137 -8.948965072631836 -2.5
-13.385673522949219 -10.058700561523438 -2.5
-12.532880783081055 -11.103163719177246 -2.5
-11.598808288574219 -12.075644493103027 -2.5
-7.451938152313232 -9.126982688903809 -1.7592746019363403
-8.04580020904541 -13.935751914978027 -2.402627944946289
-6.7403564453125 -14.205018997192383 -2.347599983215332
-3.145009756088257 -15.405302047729492 -2.347599983215332
-1.8951952457427979 -15.608407974243164 -2.347599983215332
3.145014524459839 -15.405312538146973 -2.347599983215332
4.374433517456055 -15.102274894714355 -2.347599983215332
6.821567058563232 -14.376142501831055 -2.3758842945098877
10.589526176452637 -12.969794273376465 -2.5
11.5988130569458 -12.075644493103027 -2.5
14.825859069824219 -7.781215667724609 -2.5
15.403901100158691 -6.562997817993164 -2.5
15.882055282592773 -5.302206993103027 -2.5
16.526927947998047 -2.6858837604522705 -2.5
-15.561088562011719 -9.765624781721272e-06 -2.5
-15.359575271606445 -2.4961814880371094 -2.5
-15.10891056060791 -3.7240233421325684 -2.5
-14.760258674621582 -4.927710056304932 -2.5
-14.315878868103027 -6.099428653717041 -2.5
-12.440195083618164 -9.348222732543945 -2.5
-7.780551433563232 -13.476298332214355 -2.5
-6.65627908706665 -14.02782154083252 -2.4945132732391357
-1.7824169397354126 -14.679598808288574 -2.375704050064087
-0.5933544635772705 -14.724169731140137 -2.3674628734588623
2.99853515625 -14.687811851501465 -2.408372163772583
4.231435298919678 -14.608603477478027 -2.4434473514556885
9.841552734375 -12.05370044708252 -2.5
10.779550552368164 -11.222704887390137 -2.5
12.440204620361328 -9.348193168640137 -2.5
13.778661727905273 -7.231606483459473 -2.5
15.108905792236328 -3.7240185737609863 -2.5
-14.108808517456055 -3.4775195121765137 -2.5
-13.783231735229492 -4.601528167724609 -2.5
-12.866605758666992 -6.752934455871582 -2.5
-11.616738319396973 -8.729433059692383 -2.5
-10.876660346984863 -9.635878562927246 -2.5
-7.26553201675415 -12.584267616271973 -2.5
-5.152788162231445 -13.586776733398438 -2.5
-4.042792797088623 -13.9573335647583 -2.5
-2.9047605991363525 -14.228466033935547 -2.498434066772461
-0.5841259360313416 -14.495283126831055 -2.49587082862854
0.5842187404632568 -14.4970703125 -2.496178150177002
1.7498290538787842 -14.411171913146973 -2.4975838661193848
5.152782917022705 -13.586767196655273 -2.5
6.229360103607178 -13.12808609008789 -2.5
8.254590034484863 -11.95882797241211 -2.5
9.190102577209473 -11.255820274353027 -2.5
12.281503677368164 -7.766357421875 -2.5
12.86660099029541 -6.752910137176514 -2.5
13.368270874023438 -5.695688247680664 -2.5
14.10879898071289 -3.4775047302246094 -2.5
14.483925819396973 -1.1692577600479126 -2.5
-13.625682830810547 -9.765624781721272e-06 -2.5
-13.449228286743164 -2.185717821121216 -2.5
-12.924443244934082 -4.314824104309082 -2.5
-12.064926147460938 -6.33218240737915 -2.5
-11.516283988952637 -7.282455921173096 -2.5
-9.438833236694336 -9.826874732971191 -2.5
-6.470034122467041 -9.373476028442383 -2.0897347927093506
-5.841225624084473 -12.3101167678833 -2.5
-4.831728458404541 -12.740234375 -2.5
-2.7254834175109863 -13.350312232971191 -2.5
-1.6423876285552979 -13.526328086853027 -2.5
-0.5486425757408142 -13.614619255065918 -2.5
1.642397403717041 -13.526328086853027 -2.5
2.7254834175109863 -13.350312232971191 -2.5
5.841225624084473 -12.310126304626465 -2.5
10.198969841003418 -9.03548812866211 -2.5
12.064921379089355 -6.332167625427246 -2.5
12.5353364944458 -5.340805530548096 -2.5
13.22972583770752 -3.2608349323272705 -2.5
13.449228286743164 -2.1857080459594727 -2.5
-12.450815200805664 -3.0688672065734863 -2.5
-12.1635103225708 -4.060781002044678 -2.5
-11.797314643859863 -5.0263671875 -2.5
-10.838252067565918 -6.853701114654541 -2.5
-9.598495483398438 -8.503530502319336 -2.5
-8.8831148147583 -9.248300552368164 -2.5
-6.473027229309082 -9.377821922302246 -2.2214956283569336
-6.411728382110596 -11.105439186096191 -2.5
-5.497314453125 -11.58536148071289 -2.5
-4.547250747680664 -11.990126609802246 -2.5
-1.545693278312683 -12.72996997833252 -2.5
0.5163525342941284 -12.8130464553833 -2.5
1.545693278312683 -12.729941368103027 -2.5
2.565019369125366 -12.56429672241211 -2.5
3.5677099227905273 -12.317148208618164 -2.5
4.547255992889404 -11.990126609802246 -2.5
5.497314453125 -11.58535099029541 -2.5
6.411728382110596 -11.105439186096191 -2.5
8.11013126373291 -9.93310546875 -2.5
9.598495483398438 -8.503520011901855 -2.5
11.797308921813965 -5.026362419128418 -2.5
12.163505554199219 -4.060771465301514 -2.5
12.450819969177246 -3.068852424621582 -2.5
-12.068246841430664 -0.97425776720047 -2.5
-11.755682945251465 -2.897529125213623 -2.5
-9.679252624511719 -7.273510456085205 -2.5
-9.062602043151855 -8.028769493103027 -2.5
-6.053754806518555 -10.4854097366333 -2.5
-5.190405368804932 -10.9385347366333 -2.5
-4.293383598327637 -11.320722579956055 -2.5
-2.421811580657959 -11.862821578979492 -2.5
-1.4593944549560547 -12.019238471984863 -2.5
0.4875243902206421 -12.097695350646973 -2.5
1.4593993425369263 -12.019238471984863 -2.5
2.421806573867798 -11.862821578979492 -2.5
3.3685302734375 -11.62948226928711 -2.5
5.190400123596191 -10.9385347366333 -2.5
6.053750038146973 -10.4854097366333 -2.5
6.877856254577637 -9.964286804199219 -2.5
7.657353401184082 -9.378544807434082 -2.5
9.062606811523438 -8.028764724731445 -2.5
9.679262161254883 -7.273496150970459 -2.5
11.138651847839355 -4.745741844177246 -2.5
11.484414100646973 -3.834057569503784 -2.5
11.95071792602539 -1.942177653312683 -2.5
12.068246841430664 -0.9742480516433716 -2.5
-11.464516639709473 -1.4648437172581907e-05 -2.5
-11.316054344177246 -1.839052677154541 -2.5
-10.874506950378418 -3.6304540634155273 -2.5
-10.547119140625 -4.493705749511719 -2.5
-10.151318550109863 -5.327841758728027 -2.5
-9.1652193069458 -6.887231349945068 -2.5
-7.250673770904541 -8.880477905273438 -2.5
-6.512587547302246 -9.4351167678833 -2.5
-4.914755821228027 -10.357626914978027 -2.5
-4.065371036529541 -10.719501495361328 -2.5
-2.2931981086730957 -11.232831954956055 -2.5
-1.3818846940994263 -11.380927085876465 -2.5
-0.46162107586860657 -11.455214500427246 -2.5
0.4616357386112213 -11.455214500427246 -2.5
2.2931933403015137 -11.23282241821289 -2.5
3.189628839492798 -11.01187515258789 -2.5
4.914751052856445 -10.357626914978027 -2.5
5.732260704040527 -9.928564071655273 -2.5
6.512592792510986 -9.4351167678833 -2.5
8.581313133239746 -7.602377891540527 -2.5
9.165224075317383 -6.887216567993164 -2.5
10.151318550109863 -5.327822208404541 -2.5
10.547114372253418 -4.493705749511719 -2.5
10.87451171875 -3.630444288253784 -2.5
11.316049575805664 -1.8390380144119263 -2.5
11.42733383178711 -0.92249995470047 -2.5
-10.84841251373291 -0.875781238079071 -2.5
-10.742768287658691 -1.7458739280700684 -2.5
-10.323588371276855 -3.446528196334839 -2.5
-9.637036323547363 -5.057924747467041 -2.5
-6.182651042938232 -8.95711898803711 -2.5
-5.441850662231445 -9.425565719604492 -2.5
-3.8594090938568115 -10.176445007324219 -2.5
-0.4382373094558716 -10.874882698059082 -2.5
1.3118847608566284 -10.80435562133789 -2.5
2.177016496658325 -10.663749694824219 -2.5
3.0280418395996094 -10.453993797302246 -2.5
4.665766716003418 -9.832890510559082 -2.5
5.441850662231445 -9.425565719604492 -2.5
6.883354187011719 -8.430571556091309 -2.5
7.539403915405273 -7.849365234375 -2.5
8.146562576293945 -7.217231273651123 -2.5
8.70089340209961 -6.538300514221191 -2.5
9.198783874511719 -5.816967487335205 -2.5
10.012768745422363 -4.266044616699219 -2.5
10.323583602905273 -3.4465184211730957 -2.5
10.848407745361328 -0.8757714629173279 -2.5
-10.35635757446289 -4.882812390860636e-06 -2.5
-10.322772979736328 -0.8333495855331421 -2.5
-10.222241401672363 -1.6612744331359863 -2.5
-9.823378562927246 -3.279541015625 -2.5
-9.1701021194458 -4.812851428985596 -2.5
-8.753090858459473 -5.535121917724609 -2.5
-7.751840591430664 -6.867534160614014 -2.5
-6.549829006195068 -8.022089958190918 -2.5
-5.178183555603027 -8.968867301940918 -2.5
-4.439697265625 -9.356454849243164 -2.5
-0.4170019328594208 -10.3479585647583 -2.5
1.2483203411102295 -10.280839920043945 -2.5
3.672416925430298 -9.683359146118164 -2.5
5.883095741271973 -8.523115158081055 -2.5
7.751840591430664 -6.867534160614014 -2.5
8.75308609008789 -5.535121917724609 -2.5
10.222235679626465 -1.6612744331359863 -2.5
10.322763442993164 -0.8333349227905273 -2.5
-9.843280792236328 -0.7946386337280273 -2.5
-9.58834457397461 -2.3633251190185547 -2.5
-9.085062980651855 -3.870800733566284 -2.5
-8.744140625 -4.589296817779541 -2.5
-7.894736289978027 -5.932519435882568 -2.5
-7.391772270202637 -6.548540115356445 -2.5
-6.840859413146973 -7.12209939956665 -2.5
-2.7474803924560547 -9.4854097366333 -2.5
-1.190332055091858 -9.803300857543945 -2.5
-0.39763182401657104 -9.867284774780273 -2.5
1.1903369426727295 -9.803290367126465 -2.5
1.9753124713897705 -9.675722122192383 -2.5
3.5018310546875 -9.233564376831055 -2.5
4.93765115737915 -8.552260398864746 -2.5
5.609814167022705 -8.12722110748291 -2.5
6.245590686798096 -7.649447917938232 -2.5
7.391772270202637 -6.548534870147705 -2.5
8.744135856628418 -4.589286804199219 -2.5
9.085067749023438 -3.87078595161438 -2.5
9.367079734802246 -3.127192258834839 -2.5
9.747411727905273 -1.5841064453125 -2.5
9.843276023864746 -0.7946337461471558 -2.5
-9.362528800964355 -0.7558300495147705 -2.48897123336792
-9.312431335449219 -1.5134228467941284 -2.5
-9.160444259643555 -2.257861375808716 -2.5
-8.94906234741211 -2.9876415729522705 -2.5
-8.35391616821289 -4.384491920471191 -2.5
-7.97402811050415 -5.04248046875 -2.5
-4.044545650482178 -8.523700714111328 -2.5
-2.624872922897339 -9.06209945678711 -2.5
-1.8871581554412842 -9.243935585021973 -2.5
-1.1372119188308716 -9.365800857543945 -2.5
1.8871630430221558 -9.243945121765137 -2.5
2.624868154525757 -9.062108993530273 -2.5
3.3455564975738525 -8.821508407592773 -2.5
4.717299461364746 -8.170605659484863 -2.5
5.359467506408691 -7.764531135559082 -2.5
7.542426586151123 -5.667763710021973 -2.5
7.974018573760986 -5.042465686798096 -2.5
8.353925704956055 -4.384487152099609 -2.5
8.679638862609863 -3.6980466842651367 -2.5
8.949057579040527 -2.9876317977905273 -2.5
9.404004096984863 -0.75916987657547 -2.5
-9.029281616210938 -9.765624781721272e-06 -2.5
-8.766908645629883 -2.1608543395996094 -2.5
-8.56459903717041 -2.8592920303344727 -2.5
-8.306753158569336 -3.539179563522339 -2.5
-7.99502420425415 -4.196127891540527 -2.5
-7.631459712982178 -4.825844764709473 -2.5
-6.758510589599609 -5.987524509429932 -2.5
-6.254804611206055 -6.511948108673096 -2.5
-5.710527420043945 -6.99413537979126 -2.5
-5.129213809967041 -7.430966854095459 -2.5
-4.5146484375 -7.819584846496582 -2.5
-1.8060839176177979 -8.846806526184082 -2.5
-1.0883593559265137 -8.963446617126465 -2.5
0.3635790944099426 -9.021963119506836 -2.5
1.0883642435073853 -8.963457107543945 -2.5
3.2018260955810547 -8.442519187927246 -2.5
3.870781183242798 -8.15750503540039 -2.5
4.514638423919678 -7.819584846496582 -2.5
5.710527420043945 -6.994115829467773 -2.5
6.25478982925415 -6.511938095092773 -2.5
7.631454944610596 -4.82583475112915 -2.5
8.306742668151855 -3.5391697883605957 -2.5
8.912343978881836 -1.4483983516693115 -2.5
-8.655160903930664 -1.4648437172581907e-05 -2.5
-8.627084732055664 -0.6964550614356995 -2.5
-8.543070793151855 -1.3883984088897705 -2.5
-8.209726333618164 -2.7408251762390137 -2.5
-7.663754940032959 -4.022260665893555 -2.5
-6.919296741485596 -5.199521541595459 -2.5
-6.478476524353027 -5.739428520202637 -2.5
-5.995639324188232 -6.242133617401123 -2.5
-3.710400342941284 -7.819506645202637 -2.5
-1.0432616472244263 -8.592050552368164 -2.5
-0.34850096702575684 -8.648138999938965 -2.5
0.3485058546066284 -8.648138999938965 -2.5
1.0432714223861694 -8.592050552368164 -2.5
1.7312499284744263 -8.480243682861328 -2.5
4.327568054199219 -7.495575904846191 -2.5
6.91930627822876 -5.199516296386719 -2.5
7.315253734588623 -4.625878810882568 -2.5
7.663759708404541 -4.022250652313232 -2.5
7.962558269500732 -3.392534017562866 -2.5
8.209726333618164 -2.7408154010772705 -2.5
8.403647422790527 -2.0713133811950684 -2.5
8.627084732055664 -0.6964501738548279 -2.5
-8.30868148803711 -1.4648437172581907e-05 -2.5
-8.281733512878418 -0.6685791015625 -2.5
-7.881088733673096 -2.631098508834839 -2.5
-7.643813133239746 -3.256723642349243 -2.5
-7.022417068481445 -4.440717697143555 -2.5
-6.642304420471191 -4.991386413574219 -2.5
-6.219130516052246 -5.509677410125732 -2.5
-4.719868183135986 -6.837914943695068 -2.5
-4.154340744018555 -7.195522308349609 -2.5
-3.5618650913238525 -7.506484031677246 -2.5
-2.946303606033325 -7.768744945526123 -2.5
-2.3116209506988525 -7.980634689331055 -2.5
-1.6619482040405273 -8.14077091217041 -2.5
-1.001499056816101 -8.2481050491333 -2.5
-0.33455565571784973 -8.3019380569458 -2.5
2.3116209506988525 -7.980639457702637 -2.5
3.5618700981140137 -7.506489276885986 -2.5
4.719868183135986 -6.837904930114746 -2.5
6.219140529632568 -5.50967264175415 -2.5
7.35696268081665 -3.8612401485443115 -2.5
7.643808364868164 -3.256723642349243 -2.5
7.881083965301514 -2.631093740463257 -2.5
8.281723022460938 -0.6685693264007568 -2.5
-7.575780868530273 -2.5291748046875 -2.5
-7.347704887390137 -3.130571126937866 -2.5
-7.071967601776123 -3.711669921875 -2.5
-6.384999752044678 -4.798022270202637 -2.5
-5.978217601776123 -5.296240329742432 -2.5
-5.532660961151123 -5.760121822357178 -2.5
-5.051220417022705 -6.186635494232178 -2.5
-4.537021160125732 -6.573022365570068 -2.5
-3.993408203125 -6.916781902313232 -2.5
-0.962695300579071 -7.928578853607178 -2.5
-0.3215917944908142 -7.98034143447876 -2.5
0.3216015696525574 -7.980336666107178 -2.5
2.832163095474243 -7.46780252456665 -2.5
3.993408203125 -6.916791915893555 -2.5
5.051230430603027 -6.186625957489014 -2.5
5.978222370147705 -5.296235084533691 -2.5
6.38500452041626 -4.798012733459473 -2.5
6.750380516052246 -4.2686767578125 -2.5
7.347704887390137 -3.130571126937866 -2.5
7.754731178283691 -1.9113720655441284 -2.5
-7.587416648864746 -1.2330809831619263 -2.5
-7.291371822357178 -2.4342284202575684 -2.5
-6.806464672088623 -3.57232403755188 -2.5
-6.145283222198486 -4.617895603179932 -2.5
-4.861581802368164 -5.954370021820068 -2.5
-3.295341730117798 -6.944804668426514 -2.5
4.366689205169678 -6.326230525970459 -2.5
6.145287990570068 -4.617880821228027 -2.5
6.49694299697876 -4.108413219451904 -2.5
6.806474685668945 -3.5723094940185547 -2.5
7.291367053985596 -2.434213876724243 -2.5
7.463593482971191 -1.8396093845367432 -2.5
-7.382861137390137 -0.5960156321525574 -2.5
-6.558456897735596 -3.4421582221984863 -2.5
-6.260219573974609 -3.9587254524230957 -2.5
-5.921371936798096 -4.449633598327637 -2.5
-5.130912780761719 -5.341865062713623 -2.5
-4.207587718963623 -6.095736980438232 -2.5
-0.8928027153015137 -7.352866172790527 -2.5
0.2982519567012787 -7.400868892669678 -2.5
1.4815673828125 -7.257187366485596 -2.5
2.626518487930298 -6.925546646118164 -2.5
3.1752734184265137 -6.691747665405273 -2.5
3.703432559967041 -6.414540767669678 -2.5
4.207587718963623 -6.095736980438232 -2.5
4.6844482421875 -5.737402439117432 -2.5
5.130918025970459 -5.341855525970459 -2.5
5.544135570526123 -4.911660194396973 -2.5
6.260214805603027 -3.9587206840515137 -2.5
7.025688171386719 -2.345517635345459 -2.5
7.191640377044678 -1.7725830078125 -2.5
7.310956954956055 -1.1881444454193115 -2.5
-6.936982154846191 -1.7098193168640137 -2.5
-6.776899337768555 -2.2624754905700684 -2.5
-6.572880744934082 -2.8004491329193115 -2.5
-6.038539886474609 -3.81853985786438 -2.5
-5.711684226989746 -4.292060375213623 -2.5
-5.347802639007568 -4.737749099731445 -2.5
-4.949233055114746 -5.152695178985596 -2.5
-4.5185546875 -5.534243106842041 -2.5
-4.05859375 -5.879887580871582 -2.5
-2.533505916595459 -6.680307388305664 -2.5
-1.9877440929412842 -6.862504959106445 -2.5
-1.4290966987609863 -7.000200271606445 -2.5
-0.8611816167831421 -7.092494964599609 -2.5
-0.2876855432987213 -7.13878870010376 -2.5
0.2876855432987213 -7.1387939453125 -2.5
0.8611816167831421 -7.092494964599609 -2.5
2.533515453338623 -6.680307388305664 -2.5
4.05859375 -5.8798828125 -2.5
4.949233055114746 -5.152695178985596 -2.5
6.5728759765625 -2.8004443645477295 -2.5
7.052065372467041 -1.1460790634155273 -2.5
7.121425628662109 -0.5748925805091858 -2.5
-6.898417949676514 0.0 -2.5
-6.876044750213623 -0.5550976395606995 -2.5
-6.80908203125 -1.106591820716858 -2.5
-6.543398380279541 -2.184516668319702 -2.5
-6.346396446228027 -2.7039501667022705 -2.5
-5.830468654632568 -3.6869726181030273 -2.5
-5.163530349731445 -4.574496746063232 -2.5
-4.778696060180664 -4.975161075592041 -2.5
-3.449208974838257 -5.974204063415527 -2.5
-2.4462108612060547 -6.450126647949219 -2.5
-0.8315087556838989 -6.848110198974609 -2.5
-0.2777685523033142 -6.89281702041626 -2.5
1.9192626476287842 -6.626049518585205 -2.5
2.4462060928344727 -6.450117111206055 -2.5
2.9572949409484863 -6.232392311096191 -2.5
3.4492039680480957 -5.974199295043945 -2.5
4.778696060180664 -4.975151062011719 -2.5
5.514877796173096 -4.144160270690918 -2.5
5.830463886260986 -3.686962842941284 -2.5
6.543393611907959 -2.184506893157959 -2.5
6.876039981842041 -0.5550927519798279 -2.5
-6.473114967346191 -1.595483422279358 -2.5
-6.133359432220459 -2.6131885051727295 -2.5
-5.903188228607178 -3.0982420444488525 -2.5
-5.634750843048096 -3.5632078647613525 -2.5
-4.990204811096191 -4.420942306518555 -2.5
-4.216411113739014 -5.164169788360596 -2.5
-3.7872021198272705 -5.486713886260986 -2.5
-3.3334226608276367 -5.773657321929932 -2.5
-2.3640966415405273 -6.233608245849609 -2.5
-1.333535075187683 -6.5321044921875 -2.5
-0.26844725012779236 -6.661430358886719 -2.5
0.8035937547683716 -6.618227481842041 -2.5
2.3640966415405273 -6.233608245849609 -2.5
3.3334178924560547 -5.773652076721191 -2.5
3.7871971130371094 -5.486703872680664 -2.5
4.618281364440918 -4.808144569396973 -2.5
4.990204811096191 -4.420937538146973 -2.5
5.329755783081055 -4.005053520202637 -2.5
6.133359432220459 -2.6131834983825684 -2.5
6.473119735717773 -1.5954785346984863 -2.5
-6.448569297790527 0.0 -2.5
-6.427651405334473 -0.5189062356948853 -2.5
-5.932553768157959 -2.5276269912719727 -2.5
-5.709917068481445 -2.9968113899230957 -2.5
-5.450258731842041 -3.446547746658325 -2.5
-4.467074871063232 -4.650722503662109 -2.5
-4.078359127044678 -4.995092868804932 -2.5
-3.663198232650757 -5.307070255279541 -2.5
-2.764453172683716 -5.82595682144165 -2.5
-2.286689519882202 -6.029516696929932 -2.5
-0.2596533000469208 -6.443329811096191 -2.5
0.7772900462150574 -6.401547908782959 -2.5
1.2898730039596558 -6.318246841430664 -2.5
2.286694288253784 -6.029511451721191 -2.5
3.2242822647094727 -5.584614276885986 -2.5
4.467080116271973 -4.650722503662109 -2.5
5.155258655548096 -3.8739256858825684 -2.5
5.450258731842041 -3.446537971496582 -2.5
5.932543754577637 -2.5276172161102295 -2.5
6.427651405334473 -0.5188915729522705 -2.5
-6.24242639541626 -4.882812390860636e-06 -2.5
-6.222182273864746 -0.5023095607757568 -2.5
-5.921162128448486 -1.9767773151397705 -2.5
-5.527392387390137 -2.901005744934082 -2.5
-4.990454196929932 -3.7500927448272705 -2.5
-4.324272155761719 -4.502055644989014 -2.5
-3.947988271713257 -4.835419654846191 -2.5
-2.676079034805298 -5.639721393585205 -2.5
-2.2135937213897705 -5.836762428283691 -2.5
-1.7367528676986694 -5.995961666107178 -2.5
-1.2486425638198853 -6.116264343261719 -2.5
-0.2513525187969208 -6.237358093261719 -2.5
0.25135740637779236 -6.237358093261719 -2.5
0.7524365186691284 -6.196904182434082 -2.5
1.2486425638198853 -6.116259574890137 -2.5
1.7367528676986694 -5.995956897735596 -2.5
2.2135887145996094 -5.836757659912109 -2.5
3.121210813522339 -5.406093597412109 -2.5
3.546098470687866 -5.137416839599609 -2.5
3.947998046875 -4.835414886474609 -2.5
4.672519207000732 -4.139482498168945 -2.5
4.990448951721191 -3.7500829696655273 -2.5
5.742895603179932 -2.446826219558716 -2.5
5.921162128448486 -1.976772427558899 -2.5
6.061025142669678 -1.4939062595367432 -2.5
-6.027763366699219 -0.48662108182907104 -2.5
-5.871645450592041 -1.447241187095642 -2.5
-5.736156940460205 -1.915014624595642 -2.5
-4.834531307220459 -3.632924795150757 -2.5
-2.1444334983825684 -5.654399394989014 -2.5
-0.2434960901737213 -6.042465686798096 -2.5
0.24350585043430328 -6.042465686798096 -2.5
1.2096288204193115 -5.92516565322876 -2.5
1.6824853420257568 -5.808613300323486 -2.5
2.1444287300109863 -5.654399394989014 -2.5
3.023686408996582 -5.237187385559082 -2.5
3.824638605117798 -4.684321403503418 -2.5
4.189159870147705 -4.361381530761719 -2.5
4.526533126831055 -4.010146617889404 -2.5
4.834531307220459 -3.6329150199890137 -2.5
5.111186504364014 -3.232119083404541 -2.5
5.563461780548096 -2.370361328125 -2.5
5.969062328338623 -0.9700683355331421 -2.5
6.027773380279541 -0.4866113066673279 -2.5
-5.862519264221191 -4.882812390860636e-06 -2.5
-5.560810565948486 -1.856484293937683 -2.5
-5.393398284912109 -2.297914981842041 -2.5
-5.191005706787109 -2.7244627475738525 -2.5
-4.686748027801514 -3.5218749046325684 -2.5
-4.061113357543945 -4.228071212768555 -2.5
-3.7077245712280273 -4.541147232055664 -2.5
-2.5132226943969727 -5.296498775482178 -2.5
-2.078871965408325 -5.481547832489014 -2.5
-1.6310546398162842 -5.631054401397705 -2.5
-1.1726512908935547 -5.744042873382568 -2.5
-0.7066454887390137 -5.819780349731445 -2.5
-0.2360546886920929 -5.857768535614014 -2.5
0.23606444895267487 -5.857758522033691 -2.5
0.7066503763198853 -5.819765567779541 -2.5
1.6310595273971558 -5.631049633026123 -2.5
3.3302929401397705 -4.824760437011719 -2.5
4.061113357543945 -4.228061199188232 -2.5
4.686748027801514 -3.521860361099243 -2.5
4.954941272735596 -3.133315324783325 -2.5
5.393398284912109 -2.297910213470459 -2.5
5.560815334320068 -1.85647451877594 -2.5
5.786606311798096 -0.9404150247573853 -2.5
5.843505859375 -0.4717333912849426 -2.5
-5.687021255493164 -9.765624781721272e-06 -2.5
-5.613383769989014 -0.9122655987739563 -2.5
-5.231947898864746 -2.229120969772339 -2.5
-3.9395360946655273 -4.101499080657959 -2.5
-3.596733331680298 -4.405195236206055 -2.5
-2.843510627746582 -4.925112247467041 -2.5
-2.437983274459839 -5.137944221496582 -2.5
-1.1375439167022705 -5.572089672088623 -2.5
-0.6854931712150574 -5.645561218261719 -2.5
0.22899413108825684 -5.682416915893555 -2.5
0.685498058795929 -5.645556449890137 -2.5
2.437978506088257 -5.137944221496582 -2.5
3.9395408630371094 -4.101499080657959 -2.5
4.806616306304932 -3.0395214557647705 -2.5
5.668583869934082 -0.4576123058795929 -2.5
-5.520161151885986 -9.765624781721272e-06 -2.5
-5.502260684967041 -0.44419431686401367 -2.5
-5.078432559967041 -2.1637256145477295 -2.5
-4.665590763092041 -2.9503369331359863 -2.5
-3.491201162338257 -4.275947093963623 -2.5
-3.135810375213623 -4.543007850646973 -2.5
-2.760082960128784 -4.780600547790527 -2.5
-1.535805583000183 -5.302206993103027 -2.5
-1.1041698455810547 -5.40859842300415 -2.5
-0.6653857231140137 -5.479911804199219 -2.5
-0.22227050364017487 -5.515673637390137 -2.5
0.22228026390075684 -5.515688419342041 -2.5
0.6653857231140137 -5.479911804199219 -2.5
1.1041747331619263 -5.408593654632568 -2.5
1.535805583000183 -5.302211761474609 -2.5
1.9574755430221558 -5.161440372467041 -2.5
3.13580060005188 -4.54299783706665 -2.5
3.8239550590515137 -3.9811620712280273 -2.5
4.413051605224609 -3.3161914348602295 -2.5
4.665585994720459 -2.9503369331359863 -2.5
5.236073970794678 -1.7480566501617432 -2.5
5.359755516052246 -1.3210644721984863 -2.5
5.502255916595459 -0.4441845715045929 -2.5
-5.361274242401123 -1.4648437172581907e-05 -2.5
-5.291840553283691 -0.8600195050239563 -2.5
-5.205483436584473 -1.2830370664596558 -2.5
-5.08535623550415 -1.6977490186691284 -2.5
-4.932260513305664 -2.1014404296875 -2.5
-4.747162818908691 -2.491518497467041 -2.5
-4.531293869018555 -2.86541485786438 -2.5
-4.286020278930664 -3.2207469940185547 -2.5
-4.012973308563232 -3.555180549621582 -2.5
-3.713881731033325 -3.866567373275757 -2.5
-3.3907079696655273 -4.152871131896973 -2.5
-3.045542001724243 -4.412236213684082 -2.5
-2.6806347370147705 -4.642988204956055 -2.5
-1.4915918111801147 -5.149594783782959 -2.5
-0.6462304592132568 -5.322182655334473 -2.5
0.2158789038658142 -5.356914043426514 -2.5
1.4915966987609863 -5.149589538574219 -2.5
3.0455517768859863 -4.412236213684082 -2.5
4.012963771820068 -3.555180549621582 -2.5
4.286030292510986 -3.2207324504852295 -2.5
4.531289100646973 -2.86541485786438 -2.5
5.291840553283691 -0.8600048422813416 -2.5
