ply
format ascii 1.0
element vertex 925
property float x
property float y
property float z
end_header
20.429603576660156 15.351850509643555 6.847384929656982
14.91002368927002 15.522988319396973 5.767269134521484
12.692975997924805 15.546088218688965 5.377654075622559
8.997416496276855 15.583993911743164 4.821701526641846
7.401906490325928 15.599223136901855 4.62647819519043
5.921950340270996 15.614887237548828 4.474783897399902
24.234310150146484 15.324872970581055 7.3434038162231445
12.692971229553223 15.546088218688965 5.139982223510742
7.408234596252441 15.612553596496582 4.425786018371582
5.921620845794678 15.614032745361328 4.276779651641846
4.428278923034668 15.288212776184082 4.076356887817383
4.057612419128418 19.875492095947266 5.195239067077637
24.234310150146484 15.324872970581055 7.005765438079834
20.446189880371094 15.3643159866333 6.248908996582031
14.9100341796875 15.522988319396973 5.258927345275879
12.692971229553223 15.546088218688965 4.903654098510742
10.420995712280273 15.097412109375 4.482191562652588
8.99694538116455 15.583168983459473 4.3964715003967285
7.437995433807373 15.675272941589355 4.239258289337158
4.0576171875 19.875471115112305 4.956366062164307
17.491479873657227 15.496112823486328 5.435944080352783
14.910029411315918 15.522988319396973 5.006845474243164
10.509235382080078 15.225248336791992 4.30348014831543
7.476789474487305 15.757025718688965 4.057104587554932
4.428288459777832 15.288212776184082 3.702521324157715
23.952280044555664 15.146528244018555 6.262134075164795
17.491479873657227 15.496112823486328 5.163668632507324
14.909624099731445 15.522567749023438 4.755934715270996
12.69946002960205 15.554027557373047 4.437027454376221
8.996542930603027 15.582480430603027 3.975903272628784
7.507453441619873 15.821640014648438 3.8696959018707275
5.983769416809082 15.7778902053833 3.728717565536499
4.428288459777832 15.288212776184082 3.5170695781707764
4.05621337890625 19.868602752685547 4.480885982513428
3.415959358215332 28.132902145385742 6.262135028839111
24.39146614074707 15.424247741699219 6.042337894439697
20.578771591186523 15.463945388793945 5.38956880569458
17.49147605895996 15.496112823486328 4.8927178382873535
12.757853507995605 15.625555992126465 4.22353982925415
10.509235382080078 15.225248336791992 3.8734264373779297
7.596662521362305 16.009653091430664 3.710217237472534
24.391462326049805 15.424247741699219 5.709279537200928
20.578777313232422 15.463945388793945 5.092486381530762
17.49053382873535 15.495283126831055 4.622776985168457
12.850871086120605 15.739472389221191 4.019828796386719
10.509235382080078 15.225248336791992 3.6599156856536865
10.250676155090332 21.602869033813477 4.73047399520874
4.428288459777832 15.288212776184082 3.1488280296325684
4.078783988952637 19.979196548461914 4.034064292907715
17.489469528198242 15.494335174560547 4.354015827178955
13.00558853149414 15.928969383239746 3.8319358825683594
8.971933364868164 15.539848327636719 3.343698740005493
10.281068801879883 21.66693878173828 4.468935966491699
10.262219429016113 27.059267044067383 5.392719745635986
4.428288459777832 15.288212776184082 2.9659385681152344
24.39146614074707 15.424247741699219 5.047441482543945
20.577308654785156 15.462846755981445 4.501826286315918
17.422794342041016 15.43526840209961 4.071063041687012
13.115053176879883 16.06303596496582 3.6268908977508545
10.374621391296387 15.030234336853027 3.1942009925842285
4.428288459777832 15.288212776184082 2.7838053703308105
4.122841835021973 20.194984436035156 3.604936361312866
17.580400466918945 15.574896812438965 3.840165376663208
10.50924015045166 15.225248336791992 3.0247673988342285
9.011415481567383 15.608237266540527 2.9467387199401855
10.33532428741455 21.78126335144043 3.9418210983276367
4.428288459777832 15.288212776184082 2.6023733615875244
20.5760440826416 15.461894035339355 3.9158458709716797
17.745487213134766 15.721141815185547 3.606959819793701
13.1150484085083 16.063032150268555 3.15499210357666
10.509235382080078 15.225248336791992 2.8146605491638184
9.018957138061523 15.621298789978027 2.7443394660949707
4.42828369140625 15.288212776184082 2.4215996265411377
4.142204284667969 20.289831161499023 3.1506261825561523
24.61143684387207 15.5633544921875 4.1006975173950195
20.539506912231445 15.434443473815918 3.6180737018585205
14.947614669799805 15.562113761901855 3.0386900901794434
10.33532428741455 21.78126335144043 3.3951127529144287
5.84227991104126 15.404852867126465 2.3201348781585693
4.42828369140625 15.288212776184082 2.2414345741271973
4.153678894042969 20.34600257873535 2.92429256439209
24.923540115356445 15.760712623596191 3.8199450969696045
14.961252212524414 15.576313018798828 2.797750234603882
10.509235382080078 15.225248336791992 2.396484851837158
10.335314750671387 21.78126335144043 3.123072385787964
5.862614631652832 15.4584321975708 2.1416475772857666
21.786907196044922 13.777216911315918 3.0491650104522705
8.914467811584473 15.4403076171875 2.1089415550231934
10.335319519042969 21.78126335144043 2.851787567138672
5.86260986328125 15.4584321975708 1.9556258916854858
21.786832809448242 13.777167320251465 2.7598674297332764
20.658016204833984 15.523490905761719 2.7666211128234863
14.718002319335938 15.323065757751465 2.2747671604156494
5.894533634185791 15.54259204864502 1.7797253131866455
4.033493518829346 19.757308959960938 2.158951997756958
13.350404739379883 7.006825923919678 1.445469617843628
20.661161422729492 15.525849342346191 2.477695941925049
14.769186973571777 15.376352310180664 2.0439810752868652
10.509235382080078 15.225248336791992 1.7735979557037354
10.335314750671387 21.78126335144043 2.3113198280334473
5.894326210021973 15.542040824890137 1.5935643911361694
4.033488750457764 19.757308959960938 1.933193564414978
17.320995330810547 15.345077514648438 1.9599562883377075
14.85128116607666 15.461831092834473 1.8158303499221802
10.509235382080078 15.225248336791992 1.5669234991073608
8.963022232055664 15.524409294128418 1.5182946920394897
5.894106388092041 15.541479110717773 1.4078127145767212
-23.646053314208984 5.82824182510376 2.0627052783966064
21.784881591796875 13.7759370803833 1.8956750631332397
10.35415267944336 15.000571250915527 1.3405407667160034
8.96267318725586 15.5238037109375 1.3183513879776
5.893901348114014 15.540922164916992 1.222422480583191
4.051276683807373 19.84441566467285 1.4895952939987183
21.785991668701172 13.776639938354492 1.6088110208511353
18.40451431274414 22.54145622253418 1.8162822723388672
8.962324142456055 15.523202896118164 1.1187487840652466
10.335319519042969 21.78126335144043 1.504738688468933
5.893683910369873 15.540366172790527 1.0373470783233643
4.428288459777832 15.288212776184082 0.9934200644493103
21.76309585571289 13.762163162231445 1.32085382938385
14.849199295043945 15.459662437438965 1.0995910167694092
10.509235382080078 15.225248336791992 0.9489749073982239
8.961977005004883 15.522597312927246 0.9194375276565552
5.893478870391846 15.539809226989746 0.8525405526161194
4.428293228149414 15.288212776184082 0.8164690732955933
20.492778778076172 15.399320602416992 1.0302703380584717
10.509235382080078 15.225248336791992 0.7435629367828369
8.961627960205078 15.52199649810791 0.7203683257102966
10.335319519042969 21.78126335144043 0.9689931869506836
5.893263816833496 15.539257049560547 0.6679571270942688
4.051523208618164 19.845643997192383 0.8140856623649597
20.49163055419922 15.398456573486328 0.7458242774009705
18.612585067749023 22.796308517456055 0.856311023235321
10.509230613708496 15.225248336791992 0.538305938243866
8.961286544799805 15.521395683288574 0.5214923024177551
10.335309982299805 21.78126335144043 0.7014977931976318
5.89306116104126 15.538701057434082 0.48355162143707275
4.051606178283691 19.846054077148438 0.5893713235855103
12.980647087097168 6.812768459320068 0.2640124559402466
17.40911293029785 15.423149108886719 0.4188656508922577
14.847121238708496 15.457494735717773 0.38599058985710144
18.612590789794922 22.796308517456055 0.5300039649009705
10.509230613708496 15.225248336791992 0.33316129446029663
10.335319519042969 21.78126335144043 0.43419158458709717
5.892841815948486 15.538148880004883 0.2992779612541199
4.42828369140625 15.288212776184082 0.2866460978984833
20.48932647705078 15.396728515625 0.1775079369544983
17.40826416015625 15.422391891479492 0.16107848286628723
14.846435546875 15.45677661895752 0.1484362781047821
8.960590362548828 15.520195007324219 0.12412109225988388
10.335319519042969 21.78126335144043 0.1669863909482956
5.892629146575928 15.537592887878418 0.11509093642234802
4.428288459777832 15.288212776184082 0.11023712158203125
12.970417022705078 6.807392597198486 -0.06087295338511467
17.407407760620117 15.421630859375 -0.0966409295797348
14.845742225646973 15.4560546875 -0.0890597477555275
8.960246086120605 15.519598960876465 -0.07447158545255661
10.335314750671387 21.78126335144043 -0.10018707066774368
5.892428874969482 15.537040710449219 -0.06905410438776016
4.42828369140625 15.288212776184082 -0.0661439523100853
12.965307235717773 6.804711818695068 -0.22312423586845398
17.406545639038086 15.420873641967773 -0.35436752438545227
14.845046043395996 15.455331802368164 -0.32655563950538635
18.612590789794922 22.796308517456055 -0.44845473766326904
8.959892272949219 15.518999099731445 -0.27306458353996277
4.428293228149414 15.288212776184082 -0.2425401210784912
4.051945686340332 19.847686767578125 -0.3086773753166199
20.485841751098633 15.394105911254883 -0.6745695471763611
17.40569305419922 15.420116424560547 -0.6121410727500916
14.844345092773438 15.454604148864746 -0.5641038417816162
18.612594604492188 22.796308517456055 -0.774716317653656
10.509235382080078 15.225248336791992 -0.48700177669525146
8.959555625915527 15.51839828491211 -0.47170913219451904
10.33532428741455 21.78126335144043 -0.6346638202667236
5.892006874084473 15.535932540893555 -0.43739789724349976
4.428293228149414 15.288212776184082 -0.4189973473548889
17.404834747314453 15.419360160827637 -0.87005215883255
14.843639373779297 15.453871726989746 -0.8017793297767639
18.612590789794922 22.796308517456055 -1.1011747121810913
10.509235382080078 15.225248336791992 -0.6922340393066406
10.335319519042969 21.78126335144043 -0.9020947217941284
4.052111625671387 19.84850311279297 -0.7579951286315918
-5.851723670959473 28.66358184814453 -1.0946366786956787
12.949982643127441 6.796674728393555 -0.7096055150032043
20.483510971069336 15.39235782623291 -1.243186116218567
17.403982162475586 15.41860294342041 -1.1281530857086182
14.842939376831055 15.453144073486328 -1.0396144390106201
8.958854675292969 15.517187118530273 -0.8693557381629944
4.42828369140625 15.288212776184082 -0.772264838218689
-7.508041858673096 19.797103881835938 -1.0272997617721558
12.944872856140137 6.793989181518555 -0.8718060255050659
20.48234748840332 15.3914794921875 -1.527856469154358
17.40312957763672 15.417841911315918 -1.3865008354187012
14.842243194580078 15.452411651611328 -1.2776973247528076
18.612594604492188 22.796308517456055 -1.754984974861145
8.958500862121582 15.516581535339355 -1.068450927734375
10.335314750671387 21.78126335144043 -1.4376972913742065
5.891364574432373 15.534276962280273 -0.9907428026199341
4.05227518081665 19.849321365356445 -1.208099126815796
-5.4952392578125 26.917436599731445 -1.638285517692566
-7.315663814544678 19.28985023498535 -1.2302651405334473
12.939763069152832 6.791313171386719 -1.0340925455093384
20.404380798339844 15.332890510559082 -1.8060771226882935
17.34075927734375 15.362592697143555 -1.639345645904541
14.841537475585938 15.45168399810791 -1.5160696506500244
8.958147048950195 15.515966415405273 -1.267793893814087
10.335319519042969 21.78126335144043 -1.7059781551361084
-5.463730335235596 26.763084411621094 -1.9328725337982178
-7.165336608886719 18.89348030090332 -1.4298580884933472
28.290170669555664 4.597621917724609 -2.347599983215332
27.82848358154297 6.859111309051514 -2.347599983215332
26.36783218383789 11.23428726196289 -2.347599983215332
20.403228759765625 15.332036018371582 -2.090449094772339
8.957799911499023 15.515360832214355 -1.4674354791641235
4.428288459777832 15.288212776184082 -1.3037035465240479
3.4547338485717773 28.452354431152344 -2.347599983215332
1.1540673971176147 28.638090133666992 -2.347599983215332
-1.1540746688842773 28.638084411621094 -2.347599983215332
-5.460244178771973 26.746009826660156 -2.235905885696411
-6.911728382110596 18.224761962890625 -1.596505045890808
-8.632280349731445 18.19215202331543 -1.6493303775787354
-24.22427749633789 15.318500518798828 -2.347599983215332
-27.186317443847656 9.076112747192383 -2.347599983215332
-28.29020881652832 4.597641468048096 -2.347599983215332
24.48982810974121 6.036211013793945 -2.347599983215332
12.929526329040527 6.785937309265137 -1.3590863943099976
21.318021774291992 13.480722427368164 -2.347599983215332
20.164152145385742 15.152377128601074 -2.347599983215332
17.339048385620117 15.361079216003418 -2.1560513973236084
14.784577369689941 15.392373085021973 -1.9864596128463745
10.335314750671387 21.78126335144043 -2.243927240371704
5.89074182510376 15.532607078552246 -1.5461678504943848
3.0402586460113525 25.038864135742188 -2.347599983215332
1.0156054496765137 25.202308654785156 -2.347599983215332
-1.0156127214431763 25.202306747436523 -2.347599983215332
-3.2376489639282227 26.664316177368164 -2.5
-7.472973346710205 25.799665451049805 -2.5
-6.857343673706055 18.081344604492188 -1.7998780012130737
-8.518667221069336 17.95272445678711 -1.8495131731033325
-15.258315086364746 22.1054630279541 -2.5
-16.987573623657227 20.806020736694336 -2.5
-20.105112075805664 17.811582565307617 -2.5
-21.318017959594727 13.480692863464355 -2.347599983215332
-22.333662033081055 11.721586227416992 -2.347599983215332
-26.773056030273438 2.1613378524780273 -2.5
23.977567672729492 4.882812390860636e-06 -2.5
23.89981460571289 1.9294042587280273 -2.5
23.652002334594727 3.8438377380371094 -2.4984092712402344
12.92440128326416 6.783242225646973 -1.5218724012374878
18.000171661376953 13.526249885559082 -2.347599983215332
14.783876419067383 15.391650199890137 -2.2251687049865723
9.652379989624023 20.34200096130371 -2.347599983215332
4.428288459777832 15.288212776184082 -1.6595335006713867
-0.9066283702850342 22.49763298034668 -2.347599983215332
-2.890185594558716 23.80274200439453 -2.5
-4.796144962310791 23.49302101135254 -2.5
-6.670986175537109 23.030885696411133 -2.5
-17.947465896606445 15.900068283081055 -2.5
-20.265443801879883 12.815102577209473 -2.4999806880950928
-20.8045654296875 10.919057846069336 -2.4497756958007812
-21.28975486755371 9.07071304321289 -2.4128336906433105
-23.262733459472656 5.733754634857178 -2.4980554580688477
21.578693389892578 1.7420165538787842 -2.5
19.738445281982422 4.865092754364014 -2.347599983215332
19.28296661376953 6.437612056732178 -2.347599983215332
12.919264793395996 6.78054666519165 -1.6849035024642944
17.18201446533203 10.865262985229492 -2.347599983215332
16.25201416015625 12.212592124938965 -2.347599983215332
8.92313003540039 15.45531177520752 -2.0608737468719482
4.428288459777832 15.288212776184082 -1.8380422592163086
2.4504077434539795 20.180953979492188 -2.347599983215332
-0.8185741901397705 20.312685012817383 -2.347599983215332
-4.330346584320068 21.211381912231445 -2.5
-6.023115158081055 20.794153213500977 -2.5
-6.922328948974609 18.252704620361328 -2.254303455352783
-12.297968864440918 17.816680908203125 -2.5
-13.69173812866211 16.769350051879883 -2.5
-19.16914939880371 10.0607271194458 -2.5
-20.53475570678711 6.855507850646973 -2.5
-21.019813537597656 5.180927753448486 -2.5
19.727983474731445 -4.882812390860636e-06 -2.5
19.664011001586914 1.5874511003494263 -2.5
17.57198143005371 5.866391658782959 -2.347599983215332
14.809972763061523 11.128959655761719 -2.347599983215332
12.832963943481445 13.360541343688965 -2.347599983215332
11.71627426147461 14.349848747253418 -2.347599983215332
10.509235382080078 15.225248336791992 -2.3443939685821533
8.922775268554688 15.454707145690918 -2.2614521980285645
5.869340896606445 15.476171493530273 -2.0974996089935303
4.428278923034668 15.288212776184082 -2.017011880874634
3.7055492401123047 18.15097427368164 -2.347599983215332
2.232983350753784 18.390295028686523 -2.347599983215332
-2.3779492378234863 19.584148406982422 -2.5
-3.946115732192993 19.32929229736328 -2.5
-6.995615005493164 18.446008682250977 -2.5
-8.45724105834961 17.82325553894043 -2.5
-9.863998413085938 17.08493423461914 -2.5
-11.206782341003418 16.235815048217773 -2.5
-15.771390914916992 11.851435661315918 -2.5
-16.673900604248047 10.543935775756836 -2.5
-18.712705612182617 6.247216701507568 -2.5
-19.66400909423828 1.58743155002594 -2.5
18.057310104370117 1.457739233970642 -2.5
17.086315155029297 4.211406230926514 -2.4284636974334717
16.136213302612305 5.387065410614014 -2.347599983215332
12.13976001739502 6.371416091918945 -1.8919936418533325
12.09182071685791 7.646410942077637 -1.974303960800171
12.73343276977539 11.280854225158691 -2.347599983215332
11.784408569335938 12.268881797790527 -2.347599983215332
7.292778015136719 15.369233131408691 -2.347599983215332
5.869121074676514 15.475614547729492 -2.2840473651885986
3.402775764465332 16.667905807495117 -2.347599983215332
2.050537109375 16.887664794921875 -2.347599983215332
0.6849877834320068 16.997905731201172 -2.347599983215332
-5.040214538574219 17.400798797607422 -2.5
-6.424037933349609 16.93881607055664 -2.5
-7.766215801239014 16.366962432861328 -2.5
-9.058027267456055 15.68896484375 -2.5
-11.457416534423828 14.032793045043945 -2.5
-14.48275375366211 10.883085250854492 -2.5
-15.311508178710938 9.682416915893555 -2.5
-16.040996551513672 8.418920516967773 -2.5
-16.666406631469727 7.100883483886719 -2.5
-17.183734893798828 5.736772537231445 -2.5
16.743755340576172 4.882812390860636e-06 -2.5
16.68946075439453 1.347314476966858 -2.5
16.52692985534668 2.6858935356140137 -2.5
12.158881187438965 6.3814697265625 -2.0502822399139404
12.569686889648438 9.445502281188965 -2.347599983215332
11.768874168395996 10.426332473754883 -2.347599983215332
7.861523151397705 13.616572380065918 -2.347599983215332
5.575473308563232 14.701313018798828 -2.347599983215332
3.14501690864563 15.40529727935791 -2.347599983215332
1.89520263671875 15.60842227935791 -2.347599983215332
-0.6331079006195068 15.710302352905273 -2.347599983215332
-4.6584153175354 16.082679748535156 -2.5
-5.937417030334473 15.655683517456055 -2.5
-7.177929401397705 15.127158164978027 -2.5
-9.511548042297363 13.7798433303833 -2.5
-10.58951187133789 12.969799041748047 -2.5
-12.532876014709473 11.103168487548828 -2.5
-14.825868606567383 7.781205654144287 -2.5
-15.403910636901855 6.562993049621582 -2.5
-15.882060050964355 5.302216529846191 -2.5
-16.257211685180664 4.007045745849609 -2.5
-16.52692413330078 2.6858983039855957 -2.5
15.561088562011719 9.765624781721272e-06 -2.5
12.0715913772583 6.335644245147705 -2.190269947052002
11.681845664978027 8.778339385986328 -2.347599983215332
10.937597274780273 9.689872741699219 -2.347599983215332
10.122424125671387 10.538558959960938 -2.347599983215332
8.300837516784668 12.025839805603027 -2.347599983215332
6.264252662658691 13.201664924621582 -2.347599983215332
5.181654930114746 13.662909507751465 -2.347599983215332
4.065446853637695 14.035551071166992 -2.347599983215332
2.92291259765625 14.31717300415039 -2.347599983215332
1.7613329887390137 14.505942344665527 -2.347599983215332
-0.5883154273033142 14.600634574890137 -2.347599983215332
-5.518036842346191 14.549877166748047 -2.5
-6.670922756195068 14.058666229248047 -2.5
-13.152070045471191 8.316879272460938 -2.5
-14.760258674621582 4.927700042724609 -2.5
-15.108915328979492 3.7240233421325684 -2.5
-15.359569549560547 2.4961864948272705 -2.5
-15.510624885559082 1.2521435022354126 -2.5
14.531049728393555 4.882812390860636e-06 -2.5
14.48393726348877 1.1692675352096558 -2.5
14.342880249023438 2.3309521675109863 -2.5
14.108803749084473 3.4775145053863525 -2.5
12.5533447265625 5.348476409912109 -2.347599983215332
12.06328296661377 6.331298828125 -2.3439135551452637
10.908591270446777 8.197270393371582 -2.347599983215332
9.45238971710205 9.840986251831055 -2.347599983215332
7.751379013061523 11.229814529418945 -2.347599983215332
6.822612285614014 11.81712818145752 -2.347599983215332
4.838666915893555 12.758520126342773 -2.347599983215332
3.79632306098938 13.1065034866333 -2.347599983215332
2.7294042110443115 13.369477272033691 -2.347599983215332
1.6447484493255615 13.545751571655273 -2.347599983215332
-0.5494409203529358 13.634174346923828 -2.347599983215332
-1.6447631120681763 13.545746803283691 -2.347599983215332
-4.042800426483154 13.957343101501465 -2.5
-8.254590034484863 11.958823204040527 -2.5
-9.19009780883789 11.25582504272461 -2.5
-10.066015243530273 10.479833602905273 -2.5
-10.876649856567383 9.635873794555664 -2.5
-11.616747856140137 8.729418754577637 -2.5
-12.281503677368164 7.76635217666626 -2.5
-13.783231735229492 4.601523399353027 -2.5
-14.108803749084473 3.4775145053863525 -2.5
-14.342875480651855 2.3309521675109863 -2.5
-14.483930587768555 1.1692626476287842 -2.5
13.625676155090332 4.882812390860636e-06 -2.5
13.581488609313965 1.096411108970642 -2.5
13.22973346710205 3.2608447074890137 -2.5
10.814248085021973 6.838534832000732 -2.347599983215332
10.228910446166992 7.686528205871582 -2.347599983215332
8.092167854309082 9.911123275756836 -2.347599983215332
7.268417835235596 10.530126571655273 -2.347599983215332
5.485131740570068 11.559706687927246 -2.347599983215332
3.5598020553588867 12.289877891540527 -2.347599983215332
2.5593457221984863 12.536469459533691 -2.347599983215332
1.5422558784484863 12.701757431030273 -2.347599983215332
0.5152001976966858 12.784672737121582 -2.347599983215332
-0.5152050852775574 12.784672737121582 -2.347599983215332
-5.841235160827637 12.310121536254883 -2.5
-7.740278244018555 11.213701248168945 -2.5
-8.6174898147583 10.554516792297363 -2.5
-9.438833236694336 9.826874732971191 -2.5
-11.516283988952637 7.282455921173096 -2.5
-12.535331726074219 5.340805530548096 -2.5
-13.449223518371582 2.185717821121216 -2.5
-13.581483840942383 1.0964062213897705 -2.5
12.450818061828613 3.068862199783325 -2.5
12.138562202453613 4.052451133728027 -2.494873523712158
11.078144073486328 4.719951152801514 -2.347599983215332
10.662424087524414 5.5960693359375 -2.347599983215332
10.17755126953125 6.435903072357178 -2.347599983215332
9.013361930847168 7.985146522521973 -2.347599983215332
8.341596603393555 8.684526443481445 -2.347599983215332
7.615729808807373 9.327588081359863 -2.347599983215332
6.840485572814941 9.910151481628418 -2.347599983215332
6.020864009857178 10.428442001342773 -2.347599983215332
5.162189960479736 10.879111289978027 -2.347599983215332
3.350222110748291 11.566303253173828 -2.347599983215332
2.4086596965789795 11.79837417602539 -2.347599983215332
-0.4848559498786926 12.031962394714355 -2.347599983215332
-2.5650291442871094 12.564287185668945 -2.5
-3.5677123069763184 12.317148208618164 -2.5
-4.547255992889404 11.990131378173828 -2.5
-5.497314453125 11.585346221923828 -2.5
-6.411718368530273 11.105429649353027 -2.5
-8.110126495361328 9.93310546875 -2.5
-9.598485946655273 8.503520011901855 -2.5
-10.251615524291992 7.703583717346191 -2.5
-11.797304153442383 5.026357173919678 -2.5
-12.163500785827637 4.060776233673096 -2.5
-12.450819969177246 3.068857431411743 -2.5
-12.781865119934082 1.0318603515625 -2.5
12.107511520385742 0.0 -2.5
12.068251609802246 0.9742528796195984 -2.5
11.755685806274414 2.897514581680298 -2.5
11.478034019470215 3.8319385051727295 -2.4986109733581543
10.067138671875 5.283647537231445 -2.347599983215332
9.609333038330078 6.076581954956055 -2.347599983215332
9.089216232299805 6.83010721206665 -2.347599983215332
8.510144233703613 7.539340496063232 -2.347599983215332
7.875885963439941 8.199667930603027 -2.347599983215332
7.190549373626709 8.806830406188965 -2.347599983215332
6.458581447601318 9.356864929199219 -2.347599983215332
5.684719085693359 9.846230506896973 -2.347599983215332
2.274174690246582 11.139667510986328 -2.347599983215332
-1.3704345226287842 11.286538124084473 -2.347599983215332
-5.190395355224609 10.9385347366333 -2.5
-6.053754806518555 10.485414505004883 -2.5
-7.657338619232178 9.3785400390625 -2.5
-8.387167930603027 8.73196792602539 -2.5
-10.233139038085938 6.471054553985596 -2.5
-11.13866138458252 4.745737075805664 -2.5
-11.755682945251465 2.89751935005188 -2.5
-11.950722694396973 1.9421923160552979 -2.5
11.464518547058105 4.882812390860636e-06 -2.5
11.427343368530273 0.9225146174430847 -2.5
10.874513626098633 3.630449056625366 -2.5
9.532499313354492 5.003046989440918 -2.347599983215332
9.099008560180664 5.753876686096191 -2.347599983215332
8.606513023376465 6.467377662658691 -2.347599983215332
7.457616806030273 7.764194011688232 -2.347599983215332
6.808679103851318 8.339150428771973 -2.347599983215332
6.115583419799805 8.85995101928711 -2.347599983215332
2.995190382003784 10.340590476989746 -2.347599983215332
2.1534106731414795 10.548070907592773 -2.347599983215332
1.2976391315460205 10.687143325805664 -2.347599983215332
-0.4334985315799713 10.756903648376465 -2.347599983215332
-1.2976586818695068 10.687143325805664 -2.347599983215332
-2.293200731277466 11.23282241821289 -2.5
-4.065366268157959 10.719511032104492 -2.5
-5.732260704040527 9.928564071655273 -2.5
-7.250673770904541 8.880473136901855 -2.5
-7.941742897033691 8.268237113952637 -2.5
-8.581313133239746 7.602377891540527 -2.5
-9.165224075317383 6.887221336364746 -2.5
-9.689692497253418 6.127397537231445 -2.5
-10.151323318481445 5.327822208404541 -2.5
-11.316049575805664 1.8390477895736694 -2.5
-11.427338600158691 0.9225097298622131 -2.5
10.848407745361328 0.875781238079071 -2.5
10.742758750915527 1.7458739280700684 -2.5
10.567439079284668 2.6046483516693115 -2.5
10.323586463928223 3.4465184211730957 -2.5
9.049565315246582 4.749575138092041 -2.347599983215332
7.0798020362854 7.370869159698486 -2.347599983215332
6.463730335235596 7.916650295257568 -2.347599983215332
4.381337642669678 9.233481407165527 -2.347599983215332
2.0443115234375 10.013681411743164 -2.347599983215332
1.2319238185882568 10.14571762084961 -2.347599983215332
-0.4115234315395355 10.211942672729492 -2.347599983215332
-1.2319262027740479 10.145708084106445 -2.347599983215332
-5.441850662231445 9.42556095123291 -2.5
-6.182656288146973 8.957109451293945 -2.5
-8.700888633728027 6.538305282592773 -2.5
-9.637036323547363 5.057905197143555 -2.5
-10.01278305053711 4.266039848327637 -2.5
-10.567445755004883 2.6046483516693115 -2.5
-10.848407745361328 0.8757665753364563 -2.5
10.322772979736328 0.8333495855331421 -2.5
10.222243309020996 1.66128408908844 -2.5
10.055415153503418 2.478447198867798 -2.5
9.823378562927246 3.2795262336730957 -2.5
9.508185386657715 4.051064491271973 -2.4948971271514893
8.611085891723633 4.519453048706055 -2.347599983215332
8.219496726989746 5.197704792022705 -2.347599983215332
7.774606704711914 5.842241287231445 -2.347599983215332
7.279286861419678 6.448896408081055 -2.347599983215332
6.736764907836914 7.013705730438232 -2.347599983215332
6.150544166564941 7.533061504364014 -2.347599983215332
3.448542356491089 9.093056678771973 -2.347599983215332
1.945253849029541 9.528491020202637 -2.347599983215332
1.1722240447998047 9.654120445251465 -2.347599983215332
0.39158445596694946 9.717147827148438 -2.347599983215332
-4.439694881439209 9.356450080871582 -2.5
-5.883090496063232 8.523110389709473 -2.5
-6.549818992614746 8.0220947265625 -2.5
-7.174096584320068 7.469038009643555 -2.5
-8.279311180114746 6.221503734588623 -2.5
-8.753090858459473 5.535117149353027 -2.5
-9.527636528015137 4.059345722198486 -2.5
-9.823373794555664 3.2795262336730957 -2.5
9.8753023147583 9.765624781721272e-06 -2.5
9.843280792236328 0.7946337461471558 -2.5
9.747419357299805 1.5841211080551147 -2.5
9.58834457397461 2.3633203506469727 -2.5
8.211103439331055 4.309521198272705 -2.347599983215332
7.413474082946777 5.570849418640137 -2.347599983215332
3.9753880500793457 8.377968788146973 -2.347599983215332
3.2883567810058594 8.670683860778809 -2.347599983215332
2.5799975395202637 8.907172203063965 -2.347599983215332
1.8549071550369263 9.085898399353027 -2.347599983215332
-0.37340086698532104 9.26578140258789 -2.347599983215332
-1.1186425685882568 9.212841987609863 -2.3494224548339844
-1.975319743156433 9.675722122192383 -2.5
-2.747487783432007 9.485400199890137 -2.5
-3.501826047897339 9.233573913574219 -2.5
-4.233464241027832 8.921845436096191 -2.5
-5.609814167022705 8.127211570739746 -2.5
-6.840859413146973 7.122094631195068 -2.5
-7.391767501831055 6.548540115356445 -2.5
-8.346508979797363 5.278012752532959 -2.5
-8.744150161743164 4.589282035827637 -2.5
-9.367079734802246 3.127192258834839 -2.5
-9.843280792236328 0.7946337461471558 -2.5
9.434601783752441 9.765624781721272e-06 -2.5
9.160446166992188 2.2578516006469727 -2.5
8.94905948638916 2.9876415729522705 -2.5
8.679638862609863 3.698051691055298 -2.5
7.487926959991455 4.735073089599609 -2.347599983215332
6.631401062011719 5.874926567077637 -2.347599983215332
6.137167930603027 6.389482498168945 -2.347599983215332
5.603122234344482 6.862587928771973 -2.347599983215332
5.032751560211182 7.291201114654541 -2.347599983215332
4.429733753204346 7.672524452209473 -2.347599983215332
3.797980785369873 8.0040864944458 -2.347599983215332
2.464855909347534 8.509673118591309 -2.347599983215332
1.0678930282592773 8.794873237609863 -2.347599983215332
-1.1089965105056763 9.133378982543945 -2.4379584789276123
-1.8871703147888184 9.24393081665039 -2.5
-2.624872922897339 9.062104225158691 -2.5
-4.044543266296387 8.523700714111328 -2.5
-4.717299461364746 8.170605659484863 -2.5
-6.535581111907959 6.804262638092041 -2.5
-7.97402811050415 5.042470455169678 -2.5
-8.679633140563965 3.6980466842651367 -2.5
-9.160453796386719 2.2578418254852295 -2.5
-9.312426567077637 1.513427734375 -2.5
9.029274940490723 4.882812390860636e-06 -2.5
8.912353515625 1.4484081268310547 -2.5
8.766899108886719 2.1608543395996094 -2.5
8.56459903717041 2.8592870235443115 -2.5
6.346508502960205 5.622529029846191 -2.347599983215332
5.873505592346191 6.114970684051514 -2.347599983215332
5.362409591674805 6.567768573760986 -2.347599983215332
4.816537857055664 6.977953910827637 -2.347599983215332
3.6348142623901367 7.660219669342041 -2.347599983215332
3.006640672683716 7.9278564453125 -2.347599983215332
2.358962297439575 8.144086837768555 -2.347599983215332
1.6959911584854126 8.3074951171875 -2.347599983215332
1.022011637687683 8.417031288146973 -2.347599983215332
-1.80609130859375 8.8468017578125 -2.5
-2.5121068954467773 8.672782897949219 -2.5
-3.2018237113952637 8.442523956298828 -2.5
-4.514638423919678 7.819580078125 -2.5
-5.129213809967041 7.430947303771973 -2.5
-5.710522174835205 6.994125843048096 -2.5
-6.254794597625732 6.511938095092773 -2.5
-6.758505821228027 5.987519264221191 -2.5
-7.218388557434082 5.424262523651123 -2.5
-7.631459712982178 4.825839519500732 -2.5
-7.995034217834473 4.196103572845459 -2.5
-8.306753158569336 3.539174795150757 -2.5
-8.564594268798828 2.8592822551727295 -2.5
-8.766894340515137 2.1608495712280273 -2.5
8.655153274536133 4.882812390860636e-06 -2.5
8.627087593078613 0.6964501738548279 -2.5
8.543073654174805 1.3883886337280273 -2.5
8.209723472595215 2.7408154010772705 -2.5
7.649985313415527 4.015024185180664 -2.4955077171325684
6.497499942779541 4.882558345794678 -2.347599983215332
6.083542346954346 5.389565467834473 -2.347599983215332
5.140217304229736 6.295629978179932 -2.347599983215332
4.616967678070068 6.688823223114014 -2.347599983215332
2.8820652961730957 7.599374771118164 -2.347599983215332
1.625710368156433 7.963276386260986 -2.347599983215332
0.32726073265075684 8.120932579040527 -2.347599983215332
-2.408015012741089 8.313432693481445 -2.5
-3.069159984588623 8.092704772949219 -2.5
-3.710400342941284 7.819501876831055 -2.5
-4.327578067779541 7.495585918426514 -2.5
-4.916689395904541 7.123046875 -2.5
-5.473901271820068 6.704326152801514 -2.5
-5.995639324188232 6.242114067077637 -2.5
-8.627079963684082 0.6964501738548279 -2.5
8.308676719665527 4.882812390860636e-06 -2.5
8.20108413696289 1.3328075408935547 -2.5
8.067238807678223 1.9883984327316284 -2.5
7.881083965301514 2.631093740463257 -2.5
6.675090312957764 4.221078872680664 -2.376352071762085
6.2373948097229 4.687104225158691 -2.347599983215332
5.840016841888428 5.173803806304932 -2.347599983215332
5.404757976531982 5.62694787979126 -2.347599983215332
4.934450626373291 6.043612957000732 -2.347599983215332
3.9010887145996094 6.756884574890137 -2.347599983215332
3.344731330871582 7.048886775970459 -2.347599983215332
2.7666919231414795 7.295156002044678 -2.347599983215332
2.170710325241089 7.49413537979126 -2.347599983215332
1.56063711643219 7.644496917724609 -2.347599983215332
0.9404491782188416 7.745292663574219 -2.347599983215332
0.31416258215904236 7.795849323272705 -2.347599983215332
-0.31416013836860657 7.795849323272705 -2.347599983215332
-1.0004198551177979 8.2391939163208 -2.497302293777466
-1.661953091621399 8.140766143798828 -2.5
-2.3116235733032227 7.980634689331055 -2.5
-2.946291446685791 7.768754482269287 -2.5
-4.719868183135986 6.837904930114746 -2.5
-5.254785060882568 6.435946941375732 -2.5
-5.755615234375 5.992240905761719 -2.5
-6.219130516052246 5.509667873382568 -2.5
-7.022407054901123 4.44070291519165 -2.5
-7.643813133239746 3.256718635559082 -2.5
-7.881078720092773 2.6310887336730957 -2.5
-8.281733512878418 0.6685693264007568 -2.5
7.960915565490723 0.6426757574081421 -2.5
7.575786113739014 2.529169797897339 -2.5
7.347707271575928 3.130561351776123 -2.5
7.071969985961914 3.711669921875 -2.5
6.649797439575195 4.205087661743164 -2.462751865386963
5.995771408081055 4.505532264709473 -2.347599983215332
5.613781452178955 4.973378658294678 -2.347599983215332
4.260451793670654 6.172328948974609 -2.347599983215332
2.6595141887664795 7.01256799697876 -2.347599983215332
0.30198729038238525 7.493847370147705 -2.347599983215332
-0.31123045086860657 7.72317361831665 -2.4194393157958984
-1.5975682735443115 7.825405120849609 -2.5
-2.832155704498291 7.46780252456665 -2.5
-3.423881769180298 7.215688228607178 -2.5
-4.537028789520264 6.573012351989746 -2.5
-5.051220417022705 6.186630725860596 -2.5
-5.532651424407959 5.760107517242432 -2.5
-5.978217601776123 5.296240329742432 -2.5
-7.071977615356445 3.7116503715515137 -2.5
-7.347704887390137 3.130566358566284 -2.5
-7.575780868530273 2.529169797897339 -2.5
-7.960907936096191 0.6426806449890137 -2.5
7.662038326263428 0.6185497641563416 -2.5
7.463593482971191 1.8396142721176147 -2.5
7.291367053985596 2.434218645095825 -2.5
7.071850299835205 3.0130321979522705 -2.5
6.481581687927246 4.098711013793945 -2.4940900802612305
5.770671367645264 4.336376667022705 -2.347599983215332
5.000336647033691 5.205908298492432 -2.347599983215332
4.565219402313232 5.591376781463623 -2.347599983215332
4.100500583648682 5.940590858459473 -2.347599983215332
3.609182119369507 6.251288890838623 -2.347599983215332
3.0944507122039795 6.521435260772705 -2.347599983215332
1.342370629310608 6.575351238250732 -2.182582378387451
0.8233447074890137 6.780815124511719 -2.221494436264038
0.2911621034145355 7.225151062011719 -2.351712703704834
-1.5375927686691284 7.5316162109375 -2.5
-3.8434836864471436 6.65709924697876 -2.5
-4.861579418182373 5.954360008239746 -2.5
-5.753769397735596 5.097402095794678 -2.5
-6.806469440460205 3.5723047256469727 -2.5
-7.463593482971191 1.8396142721176147 -2.5
-7.587421894073486 1.2330760955810547 -2.5
-7.662035942077637 0.6185449361801147 -2.5
7.191642761230469 1.7725878953933716 -2.5
6.814174652099609 2.903251886367798 -2.5
4.818139553070068 5.016215801239014 -2.347599983215332
4.398879528045654 5.387646198272705 -2.347599983215332
3.9510886669158936 5.724140644073486 -2.347599983215332
3.477675676345825 6.023510456085205 -2.347599983215332
2.4664061069488525 6.503368854522705 -2.347599983215332
1.935097575187683 6.680732250213623 -2.347599983215332
1.3384838104248047 6.556308269500732 -2.258556365966797
-0.2976928651332855 7.387270450592041 -2.4954068660736084
-0.8928002715110779 7.352870941162109 -2.5
-3.1752710342407227 6.691742897033691 -2.5
-3.703439950942993 6.414540767669678 -2.5
-4.684443473815918 5.737407207489014 -2.5
-5.130922794342041 5.341855525970459 -2.5
-5.544120788574219 4.911669731140137 -2.5
-5.921371936798096 4.449618816375732 -2.5
-6.814174652099609 2.903247117996216 -2.5
-7.310956954956055 1.1881542205810547 -2.5
-7.382856369018555 0.5960058569908142 -2.5
7.121423244476318 0.574902355670929 -2.5
7.052070140838623 1.146083950996399 -2.5
6.936977386474609 1.7098193168640137 -2.5
6.326215744018555 3.320258617401123 -2.5
6.036459922790527 3.8172361850738525 -2.499140501022339
5.652670860290527 4.24770975112915 -2.4741666316986084
5.021794319152832 4.448935508728027 -2.347599983215332
4.647524356842041 4.838579177856445 -2.347599983215332
3.8111791610717773 5.521440505981445 -2.347599983215332
3.3545262813568115 5.81020975112915 -2.347599983215332
2.8761205673217773 6.061298847198486 -2.347599983215332
2.3790624141693115 6.2730712890625 -2.347599983215332
1.3384838104248047 6.556308269500732 -2.3414714336395264
0.8100000023841858 6.670971393585205 -2.351417064666748
-1.42910635471344 7.000200271606445 -2.5
-1.9877538681030273 6.862509727478027 -2.5
-2.533505916595459 6.680302619934082 -2.5
-3.0628318786621094 6.454780101776123 -2.5
-5.711684226989746 4.292055606842041 -2.5
-6.038535118103027 3.818535089492798 -2.5
-6.5728759765625 2.8004393577575684 -2.5
-6.776899337768555 2.262465715408325 -2.5
-6.936982154846191 1.709814429283142 -2.5
-7.121420860290527 0.574902355670929 -2.5
6.898410320281982 4.882812390860636e-06 -2.5
6.876042366027832 0.5551464557647705 -2.5
6.80907678604126 1.1065869331359863 -2.5
6.697951316833496 1.6509032249450684 -2.5
6.346396446228027 2.7039451599121094 -2.5
4.930761814117432 4.368281364440918 -2.387300491333008
4.096906661987305 5.017797946929932 -2.347599983215332
3.6798558235168457 5.331186294555664 -2.347599983215332
2.7770140171051025 5.85244607925415 -2.347599983215332
1.2957446575164795 6.346962928771973 -2.347599983215332
0.7865527272224426 6.477851390838623 -2.3648288249969482
0.2770434617996216 6.874804496765137 -2.4934680461883545
-0.8315136432647705 6.848119735717773 -2.5
-1.379860758781433 6.758998870849609 -2.5
-1.9192602634429932 6.626044750213623 -2.5
-2.4462034702301025 6.450131893157959 -2.5
-2.9572997093200684 6.232372760772705 -2.5
-3.4492039680480957 5.974199295043945 -2.5
-5.514882564544678 4.1441650390625 -2.5
-5.830468654632568 3.686962842941284 -2.5
-6.80907678604126 1.1065869331359863 -2.5
-6.876039981842041 0.5550878643989563 -2.5
6.666840553283691 4.882812390860636e-06 -2.5
6.645222187042236 0.5364599227905273 -2.5
6.580507755279541 1.0694433450698853 -2.5
6.473117351531982 1.595483422279358 -2.5
5.903195858001709 3.0982372760772705 -2.5
5.634746074676514 3.5632030963897705 -2.5
4.917458534240723 4.356498718261719 -2.463557720184326
3.9593772888183594 4.849360466003418 -2.347599983215332
3.556330442428589 5.152231216430664 -2.347599983215332
2.6837964057922363 5.655991077423096 -2.347599983215332
2.219985246658325 5.853603363037109 -2.347599983215332
1.2522460222244263 6.13390588760376 -2.347599983215332
0.7844702005386353 6.460707664489746 -2.4404988288879395
0.26802489161491394 6.65099573135376 -2.4960825443267822
-1.3335424661636353 6.5321044921875 -2.5
-1.854833960533142 6.403617858886719 -2.5
-3.3334202766418457 5.773652076721191 -2.5
-4.216411113739014 5.164174556732178 -2.5
-4.618281364440918 4.808144569396973 -2.5
-4.990200042724609 4.420937538146973 -2.5
-5.329755783081055 4.005058288574219 -2.5
-5.634746074676514 3.5632030963897705 -2.5
-6.473114967346191 1.595483422279358 -2.5
-6.645219802856445 0.5364599227905273 -2.5
6.448564529418945 0.0 -2.5
6.427653789520264 0.5188964605331421 -2.5
6.365058422088623 1.0344287157058716 -2.5
6.116696834564209 2.042055606842041 -2.5
5.932546138763428 2.5276219844818115 -2.5
5.709917068481445 2.9968016147613525 -2.5
4.815471172332764 4.26614236831665 -2.4941246509552
3.439892530441284 4.983540058135986 -2.347599983215332
3.0277295112609863 5.244179725646973 -2.347599983215332
1.6847338676452637 5.816376686096191 -2.347599983215332
1.2394628524780273 6.071274280548096 -2.4022815227508545
0.775195300579071 6.384330749511719 -2.4932756423950195
0.2595141530036926 6.439833641052246 -2.4986414909362793
-0.7772900462150574 6.401542663574219 -2.5
-1.794106364250183 6.193959712982178 -2.5
-4.078359127044678 4.995087623596191 -2.5
-4.467074871063232 4.650722503662109 -2.5
-5.450258731842041 3.446537971496582 -2.5
-5.709917068481445 2.9967870712280273 -2.5
-6.261176586151123 1.543237328529358 -2.5
-6.365058422088623 1.0344287157058716 -2.5
6.242424011230469 4.882812390860636e-06 -2.5
6.161584377288818 1.0013574361801147 -2.5
5.742897987365723 2.4468212127685547 -2.5
5.527390003204346 2.9010009765625 -2.5
5.27603006362915 3.336367130279541 -2.5
4.990458965301514 3.7500877380371094 -2.5
4.666543006896973 4.134199142456055 -2.4968042373657227
3.3400609493255615 4.838915824890137 -2.354743003845215
2.9309399127960205 5.0765380859375 -2.347599983215332
2.512941837310791 5.295922756195068 -2.347599983215332
2.0812034606933594 5.487680435180664 -2.3504815101623535
1.6653319597244263 5.749379634857178 -2.3971896171569824
0.7512377500534058 6.18701171875 -2.4960100650787354
-1.2486498355865479 6.116264343261719 -2.5
-2.676076650619507 5.639716625213623 -2.5
-3.5461034774780273 5.137407302856445 -2.5
-3.9479856491088867 4.835410118103027 -2.5
-4.672519207000732 4.139492034912109 -2.5
-5.27603006362915 3.33636212348938 -2.5
-5.527387619018555 2.900995969772339 -2.5
-6.161581993103027 1.0013574361801147 -2.5
6.027763366699219 0.48661619424819946 -2.5
5.969062328338623 0.9700732231140137 -2.5
5.736154556274414 1.915014624595642 -2.5
5.563461780548096 2.370375871658325 -2.5
5.354682445526123 2.810356378555298 -2.5
4.525336742401123 4.009101390838623 -2.499344825744629
3.794733762741089 4.647709846496582 -2.4804556369781494
3.332204580307007 4.827528953552246 -2.4249727725982666
2.902697801589966 5.027621746063232 -2.3999664783477783
2.485183000564575 5.237416744232178 -2.396549701690674
2.075192928314209 5.471850395202637 -2.4192895889282227
1.206994652748108 5.912221431732178 -2.494539976119995
0.2435034066438675 6.042470455169678 -2.5
-0.7289330959320068 6.003271579742432 -2.5
-1.2096362113952637 5.92516565322876 -2.5
-1.6824877262115479 5.808613300323486 -2.5
-3.023686408996582 5.237177848815918 -2.5
-3.8246335983276367 4.684326171875 -2.5
-4.83453369140625 3.6329100131988525 -2.5
-5.354682445526123 2.810351610183716 -2.5
-5.871654987335205 1.4472265243530273 -2.5
5.843513011932373 0.471748024225235 -2.5
5.786603927612305 0.9404247999191284 -2.5
5.692165374755859 1.4029979705810547 -2.5
5.560812950134277 1.85647451877594 -2.5
4.954941272735596 3.1333203315734863 -2.5
3.6999266147613525 4.531586647033691 -2.4947445392608643
3.320314884185791 4.810307502746582 -2.4925119876861572
2.896183967590332 5.016337871551514 -2.4700865745544434
2.0704662799835205 5.459374904632568 -2.48988676071167
1.6273144483566284 5.618134498596191 -2.49426531791687
0.2360546886920929 5.857763767242432 -2.5
-0.23605956137180328 5.857763767242432 -2.5
-1.1726586818695068 5.744038105010986 -2.5
-1.6310595273971558 5.631054401397705 -2.5
-2.5132129192352295 5.296498775482178 -2.5
-4.061110973358154 4.228061199188232 -2.5
-4.388159275054932 3.887568235397339 -2.5
-5.191005706787109 2.724443197250366 -2.5
-5.560810565948486 1.85647451877594 -2.5
-5.69216775894165 1.4029979705810547 -2.5
5.687028884887695 1.4648437172581907e-05 -2.5
5.668581485748291 0.4576171636581421 -2.5
5.521770000457764 1.3609960079193115 -2.5
5.394345760345459 1.8009033203125 -2.5
5.231943130493164 2.2291259765625 -2.5
5.035607814788818 2.642895460128784 -2.5
4.806611061096191 3.0395262241363525 -2.5
4.546445369720459 3.4164257049560547 -2.5
4.256796836853027 3.771196126937866 -2.5
3.5930614471435547 4.400702953338623 -2.4974522590637207
2.8370361328125 4.913891315460205 -2.4943087100982666
2.4322900772094727 5.125957012176514 -2.494166851043701
0.6854931712150574 5.645556449890137 -2.5
-0.6854956150054932 5.645556449890137 -2.5
-3.5967283248901367 4.405195236206055 -2.5
-3.9395384788513184 4.101499080657959 -2.5
-4.54644775390625 3.416435480117798 -2.5
-5.231947898864746 2.229120969772339 -2.5
-5.613373756408691 0.9122704863548279 -2.5
-5.6685791015625 0.4576123058795929 -2.5
5.520163536071777 4.882812390860636e-06 -2.5
5.448676586151123 0.8855029344558716 -2.5
5.359750747680664 1.3210595846176147 -2.5
5.236066818237305 1.7480615377426147 -2.5
5.078432559967041 2.1637206077575684 -2.5
3.133249521255493 4.539291858673096 -2.4979586601257324
2.756789445877075 4.77490234375 -2.497020959854126
2.3634984493255615 4.980971336364746 -2.496882200241089
1.1041747331619263 5.40859842300415 -2.5
0.6653808355331421 5.479911804199219 -2.5
-0.22227539122104645 5.515678405761719 -2.5
-1.1041747331619263 5.40859842300415 -2.5
-1.9574731588363647 5.161445140838623 -2.5
-2.760077953338623 4.780595779418945 -2.5
-3.4911961555480957 4.275947093963623 -2.5
-3.8239476680755615 3.981147289276123 -2.5
-4.665583610534668 2.950331926345825 -2.5
-4.887856483459473 2.5653417110443115 -2.5
-5.236073970794678 1.7480566501617432 -2.5
-5.502255916595459 0.4441796839237213 -2.5
5.361271858215332 4.882812390860636e-06 -2.5
5.291842937469482 0.8600195050239563 -2.5
5.085358619689941 1.6977490186691284 -2.5
4.932253360748291 2.1014404296875 -2.5
4.747165203094482 2.4914989471435547 -2.5
4.531289100646973 2.865419864654541 -2.5
4.286027908325195 3.2207372188568115 -2.5
2.6802172660827637 4.642265319824219 -2.4996092319488525
2.297846555709839 4.842621803283691 -2.4994735717773438
0.21587646007537842 5.356918811798096 -2.5
-0.21587646007537842 5.356918811798096 -2.5
-0.6462304592132568 5.322177410125732 -2.5
-1.0723925828933716 5.252924919128418 -2.5
-1.4915990829467773 5.149594783782959 -2.5
-2.6806347370147705 4.642992973327637 -2.5
-4.286025524139404 3.2207422256469727 -2.5
-4.932260513305664 2.101435422897339 -2.5
-5.343876838684082 0.4314013719558716 -2.5
