ply
format ascii 1.0
element vertex 745
property float x
property float y
property float z
end_header
2.065183162689209 -17.00819206237793 4.590800762176514
2.0636401176452637 -16.995487213134766 4.384626388549805
19.043241500854492 -12.042231559753418 5.241228103637695
2.059077024459839 -16.95789909362793 3.7746763229370117
19.195703506469727 -14.424633026123047 5.027344703674316
2.056083917617798 -16.93324089050293 3.374552011489868
19.203807830810547 -14.430727005004883 4.752233982086182
2.0545995235443115 -16.9210205078125 3.1762585639953613
2.0531249046325684 -16.908876419067383 2.979065418243408
2.0516576766967773 -16.896787643432617 2.782918691635132
2.0501976013183594 -16.8847599029541 2.587761163711548
2.047299861907959 -16.860877990722656 2.200187921524048
2.0429906845092773 -16.825424194335938 1.6248940229415894
-7.238176345825195 -15.254150390625 1.4300625324249268
2.040148973464966 -16.802005767822266 1.2448086738586426
-6.3946213722229 -16.861244201660156 1.1255176067352295
2.0387327671051025 -16.79035186767578 1.0556493997573853
-6.346696853637695 -16.73486328125 0.9181033372879028
-6.346695423126221 -16.73486328125 0.7193505764007568
-9.29464054107666 -16.09876823425293 0.5408905148506165
-7.663758277893066 -16.151029586791992 0.5201678276062012
-6.603906154632568 -17.413066864013672 0.5418804883956909
-7.663755893707275 -16.15103530883789 0.3219521939754486
-6.601635456085205 -17.4070987701416 0.1289392113685608
2.0317089557647705 -16.732494354248047 0.11673949658870697
-7.653134822845459 -16.1286563873291 -0.074188232421875
-6.601635456085205 -17.407094955444336 -0.07736541330814362
-7.653133392333984 -16.1286563873291 -0.2720356583595276
2.0289158821105957 -16.709497451782227 -0.25649169087409973
-7.653134822845459 -16.1286563873291 -0.46995025873184204
-7.653134822845459 -16.1286563873291 -0.6679844260215759
2.026130437850952 -16.686548233032227 -0.6289515495300293
-12.49345874786377 -13.007080078125 -0.8750590085983276
-7.653134822845459 -16.1286563873291 -0.8661811351776123
2.0247387886047363 -16.67508316040039 -0.8150063753128052
-11.144119262695312 -13.64908218383789 -1.0507806539535522
2.0233447551727295 -16.663618087768555 -1.0010054111480713
19.808393478393555 -20.62273406982422 -1.705210566520691
-12.30240249633789 -12.808168411254883 -1.2566949129104614
8.071171760559082 -21.281963348388672 -1.6106172800064087
14.22226333618164 -20.6044864654541 -1.7716211080551147
-14.20444393157959 -12.5840425491333 -1.5543686151504517
-12.170232772827148 -12.670551300048828 -1.4390172958374023
-10.829205513000488 -13.263373374938965 -1.4024953842163086
-11.924396514892578 -20.653667449951172 -1.953413963317871
-7.652235984802246 -16.12676239013672 -1.4620776176452637
-6.593981742858887 -17.38689422607422 -1.5231077671051025
-8.061602592468262 -27.83184051513672 -2.3733632564544678
-5.801213264465332 -28.41620635986328 -2.3755290508270264
-3.4979796409606934 -28.808422088623047 -2.376978635787964
-1.1688768863677979 -29.005287170410156 -2.377701759338379
5.801164627075195 -28.41598129272461 -2.3755109310150146
8.061537742614746 -27.831634521484375 -2.373345375061035
19.854394912719727 -20.670629501342773 -2.347599983215332
-26.86016082763672 4.882812390860636e-06 -2.5
-26.773056030273438 -2.1613426208496094 -2.5
-24.710792541503906 -10.528290748596191 -2.5
-22.696063995361328 -14.35213851928711 -2.4993536472320557
-20.164154052734375 -15.152377128601074 -2.347599983215332
-12.081929206848145 -12.578632354736328 -1.6233323812484741
-10.775388717651367 -13.197460174560547 -1.58577299118042
-14.328164100646973 -20.757925033569336 -2.347599983215332
-7.652235984802246 -16.12676239013672 -1.6613998413085938
-6.593977928161621 -17.38689422607422 -1.7307497262954712
-7.055936336517334 -24.35991668701172 -2.360487222671509
-3.061039924621582 -25.20988655090332 -2.363636016845703
-1.022829532623291 -25.3812255859375 -2.364267587661743
0.8969945907592773 -22.258588790893555 -2.073391914367676
2.019167423248291 -16.629222869873047 -1.5591272115707397
5.07693338394165 -24.86844253540039 -2.362363338470459
8.983678817749023 -23.68802261352539 -2.3579862117767334
15.952006340026855 -19.53767967224121 -2.347599983215332
16.87013816833496 -12.67708969116211 -1.9640963077545166
22.687074661254883 -14.34645938873291 -2.4983646869659424
25.47783660888672 -8.505751609802246 -2.5
26.512319564819336 -4.308676719665527 -2.5
-23.977596282958984 9.765624781721272e-06 -2.5
-23.89984130859375 -1.9293944835662842 -2.5
-22.74359893798828 -7.592939376831055 -2.5
-14.240622520446777 -12.616093635559082 -1.9836537837982178
-10.785755157470703 -13.210155487060547 -1.778125524520874
-4.512434005737305 -22.10334014892578 -2.3521173000335693
-2.720512628555298 -22.405405044555664 -2.3532373905181885
-0.9090185165405273 -22.557031631469727 -2.3537981510162354
0.9090209603309631 -22.557035446166992 -2.3537981510162354
4.512426853179932 -22.103296279907227 -2.3521151542663574
7.986435413360596 -21.058496475219727 -2.348242998123169
9.652400016784668 -20.342021942138672 -2.347599983215332
14.240062713623047 -17.440927505493164 -2.347599983215332
15.597304344177246 -16.238529205322266 -2.347599983215332
16.87458610534668 -12.680429458618164 -2.2008001804351807
22.058866500854492 -9.398388862609863 -2.5
22.743593215942383 -7.592934608459473 -2.5
23.66706085205078 -3.8462743759155273 -2.5
23.899818420410156 -1.9293944835662842 -2.5
-21.578693389892578 -1.7420116662979126 -2.5
-21.36854362487793 -3.4727537631988525 -2.5
-19.91653823852539 -8.485649108886719 -2.5
-19.169147491455078 -10.060751914978027 -2.5
-14.20522403717041 -12.584745407104492 -2.191565990447998
-11.54829216003418 -16.730581283569336 -2.347599983215332
-7.655508995056152 -16.133657455444336 -2.062208414077759
-4.066360950469971 -19.918338775634766 -2.347599983215332
0.8185717463493347 -20.31269073486328 -2.347599983215332
1.9350634813308716 -15.93663501739502 -1.853869915008545
5.655934810638428 -19.52654266357422 -2.347599983215332
7.208825588226318 -19.008113861083984 -2.347599983215332
10.164589881896973 -17.605581283569336 -2.347599983215332
14.14306640625 -14.724506378173828 -2.3576951026916504
17.307044982910156 -13.00540542602539 -2.5
18.297422409057617 -11.570605278015137 -2.5
19.169145584106445 -10.060731887817383 -2.5
19.91653823852539 -8.485639572143555 -2.5
21.36854362487793 -3.472734212875366 -2.5
-19.72798728942871 4.882812390860636e-06 -2.5
-19.664012908935547 -1.587441325187683 -2.5
-19.472515106201172 -3.1645946502685547 -2.5
-19.154720306396484 -4.721235275268555 -2.5
-18.71270751953125 -6.247226238250732 -2.5
-18.14933967590332 -7.732709884643555 -2.5
-17.46826171875 -9.16805648803711 -2.5
-16.673891067504883 -10.543940544128418 -2.5
-15.771393775939941 -11.8514404296875 -2.5
-14.1819429397583 -12.56412124633789 -2.4010167121887207
-12.077043533325195 -12.5735445022583 -2.209315299987793
-10.523611068725586 -15.246068954467773 -2.347599983215332
-7.941681861877441 -16.736753463745117 -2.347599983215332
-4.906620979309082 -12.937705039978027 -1.7534575462341309
-2.2329907417297363 -18.39030647277832 -2.347599983215332
-0.6271215677261353 -15.56191349029541 -1.973660945892334
0.7459374666213989 -18.51033592224121 -2.347599983215332
6.5691819190979 -17.321517944335938 -2.347599983215332
7.941677093505859 -16.73674774169922 -2.347599983215332
10.523608207702637 -15.246068954467773 -2.347599983215332
12.014665603637695 -14.715302467346191 -2.4073879718780518
13.66604995727539 -14.227875709533691 -2.5
14.766603469848633 -13.082070350646973 -2.5
15.771393775939941 -11.851435661315918 -2.5
16.673891067504883 -10.5439453125 -2.5
17.46826171875 -9.168051719665527 -2.5
18.14933967590332 -7.732705116271973 -2.5
19.15471649169922 -4.72122049331665 -2.5
19.47249984741211 -3.1645946502685547 -2.5
-18.116056442260742 4.882812390860636e-06 -2.5
-15.311508178710938 -9.682421684265137 -2.5
-13.560059547424316 -12.013168334960938 -2.5
-12.549434661865234 -13.065336227416992 -2.5
-11.457412719726562 -14.032787322998047 -2.5
-10.14980411529541 -14.704521179199219 -2.4656763076782227
-7.292786598205566 -15.369233131408691 -2.347599983215332
-4.89548921585083 -12.908344268798828 -1.9051439762115479
-4.732960224151611 -16.34004783630371 -2.347599983215332
-3.402785539627075 -16.667905807495117 -2.347599983215332
-2.050537109375 -16.88766098022461 -2.347599983215332
0.6849877834320068 -16.997905731201172 -2.347599983215332
1.926918864250183 -15.869560241699219 -2.2060704231262207
3.402778148651123 -16.667905807495117 -2.347599983215332
4.732954025268555 -16.34004783630371 -2.347599983215332
7.29278039932251 -15.36922836303711 -2.347599983215332
8.505849838256836 -14.732558250427246 -2.347599983215332
12.549426078796387 -13.06534194946289 -2.5
13.560053825378418 -12.013168334960938 -2.5
15.311508178710938 -9.682421684265137 -2.5
16.040971755981445 -8.418950080871582 -2.5
16.666399002075195 -7.100883483886719 -2.5
17.183734893798828 -5.736772537231445 -2.5
17.58963394165039 -4.335464000701904 -2.5
18.057310104370117 -1.4577343463897705 -2.5
-16.743759155273438 4.882812390860636e-06 -2.5
-16.25720977783203 -4.007060527801514 -2.5
-12.532879829406738 -11.103168487548828 -2.5
-11.598807334899902 -12.075639724731445 -2.5
-6.980406284332275 -14.71090316772461 -2.4312076568603516
-4.900382041931152 -12.92125415802002 -2.063344717025757
-4.374433517456055 -15.10228443145752 -2.347599983215332
-0.6165771484375 -15.30016040802002 -2.2863121032714844
3.14501690864563 -15.405312538146973 -2.347599983215332
4.374431133270264 -15.102279663085938 -2.347599983215332
6.980397701263428 -14.710887908935547 -2.4312055110931396
8.358932495117188 -14.478095054626465 -2.49613356590271
9.511537551879883 -13.7798433303833 -2.5
10.589509010314941 -12.969804763793945 -2.5
11.59880542755127 -12.075644493103027 -2.5
12.532876014709473 -11.103163719177246 -2.5
14.151655197143555 -8.948974609375 -2.5
14.825861930847168 -7.781205654144287 -2.5
15.403913497924805 -6.56298828125 -2.5
16.526926040649414 -2.6858983039855957 -2.5
16.689462661743164 -1.347314476966858 -2.5
-14.315882682800293 -6.099428653717041 -2.5
-12.44019889831543 -9.348197937011719 -2.5
-11.647637367248535 -10.318915367126465 -2.5
-8.839709281921387 -12.806523323059082 -2.5
-7.780548095703125 -13.476293563842773 -2.5
-6.670918941497803 -14.058666229248047 -2.5
-4.903040885925293 -12.928271293640137 -2.22137188911438
-4.259537220001221 -14.7056245803833 -2.459676504135132
-3.003957509994507 -14.714316368103027 -2.4127206802368164
0.5933080911636353 -14.722748756408691 -2.3672337532043457
4.259538650512695 -14.705629348754883 -2.4596760272979736
6.670915603637695 -14.05868148803711 -2.5
7.780541896820068 -13.476298332214355 -2.5
8.839709281921387 -12.806523323059082 -2.5
9.841537475585938 -12.05370044708252 -2.5
13.152070045471191 -8.316864967346191 -2.5
13.778661727905273 -7.231591701507568 -2.5
14.31588077545166 -6.099423885345459 -2.5
14.760260581970215 -4.927700042724609 -2.5
15.108918190002441 -3.724013566970825 -2.5
15.35958194732666 -2.4961767196655273 -2.5
15.510626792907715 -1.2521435022354126 -2.5
-14.342880249023438 -2.3309521675109863 -2.5
-14.108804702758789 -3.477529287338257 -2.5
-13.78323745727539 -4.601518630981445 -2.5
-13.36827564239502 -5.695683479309082 -2.5
-12.866609573364258 -6.752914905548096 -2.5
-12.281498908996582 -7.76635217666626 -2.5
-10.876646041870117 -9.635873794555664 -2.5
-8.254583358764648 -11.958818435668945 -2.5
-6.229349136352539 -13.128090858459473 -2.5
-2.9065868854522705 -14.23739242553711 -2.5
-0.5841332674026489 -14.495136260986328 -2.495845079421997
1.7496289014816284 -14.409506797790527 -2.4972963333129883
2.9065868854522705 -14.237387657165527 -2.5
6.229348182678223 -13.128100395202637 -2.5
7.265527248382568 -12.584257125854492 -2.5
12.281498908996582 -7.76635217666626 -2.5
13.368270874023438 -5.695683479309082 -2.5
13.783234596252441 -4.601513385772705 -2.5
14.342878341674805 -2.3309521675109863 -2.5
-13.625675201416016 0.0 -2.5
-13.449225425720215 -2.185732364654541 -2.5
-13.229734420776367 -3.2608447074890137 -2.5
-12.924447059631348 -4.314814567565918 -2.5
-12.064934730529785 -6.332162857055664 -2.5
-10.198959350585938 -9.035497665405273 -2.5
-8.617491722106934 -10.554506301879883 -2.5
-4.831728458404541 -12.74022388458252 -2.5
-3.790905714035034 -13.0877046585083 -2.5
-1.64239501953125 -13.526323318481445 -2.5
-0.5486474633216858 -13.6146240234375 -2.5
2.7254881858825684 -13.350312232971191 -2.5
5.841220378875732 -12.310126304626465 -2.5
6.812836647033691 -11.800180435180664 -2.5
8.617494583129883 -10.554511070251465 -2.5
9.438827514648438 -9.82686996459961 -2.5
10.892939567565918 -8.18551254272461 -2.5
11.516279220581055 -7.282460689544678 -2.5
12.064936637878418 -6.332167625427246 -2.5
12.53533935546875 -5.340810298919678 -2.5
12.924445152282715 -4.314814567565918 -2.5
13.229738235473633 -3.2608447074890137 -2.5
13.581488609313965 -1.0964062213897705 -2.5
-12.823451042175293 9.765624781721272e-06 -2.5
-12.163508415222168 -4.060771465301514 -2.5
-11.797308921813965 -5.026362419128418 -2.5
-9.59848690032959 -8.503520011901855 -2.5
-8.88311767578125 -9.248300552368164 -2.5
-8.110129356384277 -9.93312931060791 -2.5
-6.411728382110596 -11.10543441772461 -2.5
-4.547256946563721 -11.990126609802246 -2.5
-2.5650243759155273 -12.564291954040527 -2.5
-1.5457006692886353 -12.729950904846191 -2.5
-0.5163500905036926 -12.813051223754883 -2.5
0.516345202922821 -12.813051223754883 -2.5
2.5650219917297363 -12.56429672241211 -2.5
4.547258377075195 -11.990131378173828 -2.5
5.497309684753418 -11.585355758666992 -2.5
6.411725997924805 -11.10543441772461 -2.5
7.284550666809082 -10.55349063873291 -2.5
8.110124588012695 -9.933110237121582 -2.5
10.25161075592041 -7.703583717346191 -2.5
10.838244438171387 -6.853696346282959 -2.5
11.354598999023438 -5.95934534072876 -2.5
11.797311782836914 -5.026357173919678 -2.5
12.163508415222168 -4.060771465301514 -2.5
12.450822830200195 -3.068857431411743 -2.5
12.657387733459473 -2.0570311546325684 -2.5
12.781867027282715 -1.0318554639816284 -2.5
-12.107515335083008 4.882812390860636e-06 -2.5
-12.068254470825195 -0.9742480516433716 -2.5
-11.950723648071289 -1.942177653312683 -2.5
-11.755688667297363 -2.897529125213623 -2.5
-11.138664245605469 -4.745732307434082 -2.5
-10.233149528503418 -6.471054553985596 -2.5
-8.387163162231445 -8.731972694396973 -2.5
-6.877853870391846 -9.964286804199219 -2.5
-6.053761005401611 -10.4854097366333 -2.5
-5.1903977394104 -10.9385347366333 -2.5
-3.36852765083313 -11.629491806030273 -2.5
-1.4594018459320068 -12.019238471984863 -2.5
1.4594018459320068 -12.019232749938965 -2.5
3.368522882461548 -11.629487037658691 -2.5
4.293381214141846 -11.320717811584473 -2.5
5.190395355224609 -10.938544273376465 -2.5
6.053759574890137 -10.485414505004883 -2.5
6.877853870391846 -9.964282035827637 -2.5
9.679262161254883 -7.273490905761719 -2.5
10.233146667480469 -6.471059322357178 -2.5
11.138664245605469 -4.745732307434082 -2.5
11.950722694396973 -1.9421825408935547 -2.5
-11.464517593383789 9.765624781721272e-06 -2.5
-11.42734146118164 -0.9225097298622131 -2.5
-11.31605339050293 -1.8390380144119263 -2.5
-11.131376266479492 -2.74365234375 -2.5
-10.874512672424316 -3.630439281463623 -2.5
-10.547121047973633 -4.493710994720459 -2.5
-9.68969440460205 -6.127397537231445 -2.5
-9.165223121643066 -6.887221336364746 -2.5
-8.581305503845215 -7.602377891540527 -2.5
-6.512590408325195 -9.435111999511719 -2.5
-4.914749622344971 -10.357626914978027 -2.5
-4.065371990203857 -10.719511032104492 -2.5
-3.189631223678589 -11.011869430541992 -2.5
1.3818944692611694 -11.380927085876465 -2.5
2.293200731277466 -11.232827186584473 -2.5
3.18963360786438 -11.01187515258789 -2.5
4.914745807647705 -10.35763168334961 -2.5
5.732260704040527 -9.928617477416992 -2.5
6.512585163116455 -9.435107231140137 -2.5
7.250673770904541 -8.880468368530273 -2.5
9.689684867858887 -6.127387523651123 -2.5
10.151320457458496 -5.327822208404541 -2.5
10.547114372253418 -4.493700981140137 -2.5
10.87450885772705 -3.630444288253784 -2.5
11.427338600158691 -0.9225097298622131 -2.5
-10.883710861206055 -5.3710937208961695e-05 -2.5
-10.848410606384277 -0.8757714629173279 -2.5
-10.74276065826416 -1.7458691596984863 -2.5
-10.567439079284668 -2.6046435832977295 -2.5
-10.323588371276855 -3.4465184211730957 -2.5
-9.198796272277832 -5.816972732543945 -2.5
-7.539401531219482 -7.849350452423096 -2.5
-6.883345603942871 -8.43056583404541 -2.5
-6.182650089263916 -8.957104682922363 -2.5
-5.441854000091553 -9.42556095123291 -2.5
-3.859412670135498 -10.176435470581055 -2.5
-0.43824461102485657 -10.874873161315918 -2.5
0.438239723443985 -10.8748779296875 -2.5
1.3118871450424194 -10.804349899291992 -2.5
2.1770238876342773 -10.663749694824219 -2.5
3.0280370712280273 -10.453993797302246 -2.5
4.665756702423096 -9.832890510559082 -2.5
8.146564483642578 -7.217231273651123 -2.5
9.19879150390625 -5.816967487335205 -2.5
10.01278018951416 -4.266039848327637 -2.5
10.323586463928223 -3.4465184211730957 -2.5
10.848405838012695 -0.8757714629173279 -2.5
-10.35635757446289 4.882812390860636e-06 -2.5
-9.527639389038086 -4.059340953826904 -2.5
-9.170096397399902 -4.812831878662109 -2.5
-8.279312133789062 -6.221503734588623 -2.5
-7.751842021942139 -6.867534160614014 -2.5
-7.17410135269165 -7.46902322769165 -2.5
-5.883083343505859 -8.523110389709473 -2.5
-3.672414541244507 -9.683359146118164 -2.5
-2.8813230991363525 -9.947470664978027 -2.5
-2.071540594100952 -10.147065162658691 -2.5
-0.41700926423072815 -10.347953796386719 -2.5
2.071540594100952 -10.14706039428711 -2.5
2.8813207149505615 -9.947470664978027 -2.5
3.6724119186401367 -9.683368682861328 -2.5
4.439687252044678 -9.356454849243164 -2.5
5.178171157836914 -8.968867301940918 -2.5
7.174096584320068 -7.469027996063232 -2.5
7.751838207244873 -6.867538928985596 -2.5
8.753083229064941 -5.535121917724609 -2.5
10.222241401672363 -1.6612792015075684 -2.5
10.322772979736328 -0.8333349227905273 -2.5
-9.843280792236328 -0.794628918170929 -2.5
-9.747419357299805 -1.5841113328933716 -2.5
-9.367083549499512 -3.127197265625 -2.5
-9.085078239440918 -3.87078595161438 -2.5
-8.744147300720215 -4.589282035827637 -2.5
-8.346510887145996 -5.278017520904541 -2.5
-7.894738674163818 -5.932514667510986 -2.5
-6.245585918426514 -7.649462699890137 -2.5
-3.50182843208313 -9.233569145202637 -2.5
-1.975317358970642 -9.675732612609863 -2.5
-0.3976391553878784 -9.867300033569336 -2.5
3.5018310546875 -9.233569145202637 -2.5
5.609809398651123 -8.127211570739746 -2.5
6.245583534240723 -7.649457931518555 -2.5
7.894738674163818 -5.932504653930664 -2.5
9.58834171295166 -2.3633153438568115 -2.5
9.843278884887695 -0.7946240305900574 -2.5
-9.434605598449707 4.882812390860636e-06 -2.5
-9.404010772705078 -0.7591650485992432 -2.5
-9.31242561340332 -1.5134130716323853 -2.5
-9.160446166992188 -2.2578563690185547 -2.5
-8.679641723632812 -3.6980419158935547 -2.5
-8.35392951965332 -4.384477615356445 -2.5
-7.974029541015625 -5.042470455169678 -2.5
-7.542424201965332 -5.667763710021973 -2.5
-7.061899185180664 -6.256293773651123 -2.5
-5.359466552734375 -7.7645263671875 -2.5
-4.71729850769043 -8.170605659484863 -2.5
-4.044543266296387 -8.523686408996582 -2.5
-2.624875545501709 -9.062104225158691 -2.5
-1.8871654272079468 -9.24393081665039 -2.5
-1.1372168064117432 -9.365815162658691 -2.5
-0.3798852562904358 -9.4269380569458 -2.5
0.3798925578594208 -9.426953315734863 -2.5
3.3455541133880615 -8.821508407592773 -2.5
6.535573482513428 -6.804262638092041 -2.5
7.061894416809082 -6.256298542022705 -2.5
7.542421817779541 -5.667758464813232 -2.5
7.97402811050415 -5.042470455169678 -2.5
8.679633140563965 -3.6980419158935547 -2.5
9.160449028015137 -2.2578563690185547 -2.5
9.312423706054688 -1.5134130716323853 -2.5
-9.029287338256836 4.882812390860636e-06 -2.5
-8.306750297546387 -3.5391697883605957 -2.5
-7.995028972625732 -4.196113109588623 -2.5
-7.631454944610596 -4.825844764709473 -2.5
-5.71052360534668 -6.994121074676514 -2.5
-3.2018308639526367 -8.442523956298828 -2.5
-1.80609130859375 -8.8468017578125 -2.5
-0.36357665061950684 -9.021957397460938 -2.5
0.36357176303863525 -9.021957397460938 -2.5
1.0883593559265137 -8.963446617126465 -2.5
3.2018213272094727 -8.442523956298828 -2.5
4.514636039733887 -7.819584846496582 -2.5
6.254794597625732 -6.511938095092773 -2.5
8.306745529174805 -3.5391697883605957 -2.5
8.564592361450195 -2.8592822551727295 -2.5
8.766897201538086 -2.1608543395996094 -2.5
8.912348747253418 -1.4483983516693115 -2.5
9.0 -0.7265527248382568 -2.5
-8.62708854675293 -0.6964452862739563 -2.5
-2.408017635345459 -8.313427925109863 -2.5
-1.7312597036361694 -8.480238914489746 -2.5
-1.0432665348052979 -8.592050552368164 -2.5
1.0432616472244263 -8.592050552368164 -2.5
1.7312524318695068 -8.480238914489746 -2.5
2.408017635345459 -8.313437461853027 -2.5
3.710392951965332 -7.819501876831055 -2.5
6.919299125671387 -5.199516296386719 -2.5
8.403647422790527 -2.0713086128234863 -2.5
8.543070793151855 -1.3883788585662842 -2.5
-8.308682441711426 4.882812390860636e-06 -2.5
-8.28173828125 -0.6685742139816284 -2.5
-7.881082534790039 -2.6310887336730957 -2.5
-6.642314434051514 -4.991376876831055 -2.5
-6.219133377075195 -5.509667873382568 -2.5
-4.15433931350708 -7.195522308349609 -2.5
-2.946301221847534 -7.768749713897705 -2.5
-1.66195547580719 -8.140766143798828 -2.5
-0.3345605432987213 -8.301933288574219 -2.5
1.6619482040405273 -8.140766143798828 -2.5
2.3116161823272705 -7.980634689331055 -2.5
2.946296215057373 -7.768749713897705 -2.5
4.719868183135986 -6.837910175323486 -2.5
5.254780292510986 -6.43594217300415 -2.5
6.642309188842773 -4.991376876831055 -2.5
7.022411823272705 -4.44070291519165 -2.5
7.356967449188232 -3.8612303733825684 -2.5
8.067238807678223 -1.9883935451507568 -2.5
8.281730651855469 -0.6685644388198853 -2.5
-7.986819744110107 0.0 -2.5
-7.960916519165039 -0.6426757574081421 -2.5
-7.883388519287109 -1.2811815738677979 -2.5
-7.7547287940979 -1.9113720655441284 -2.5
-7.347704887390137 -3.130566358566284 -2.5
-6.750373363494873 -4.268681526184082 -2.5
-5.978215217590332 -5.296240329742432 -2.5
-5.532660007476807 -5.760107517242432 -2.5
-5.051220417022705 -6.186625957489014 -2.5
-4.537028789520264 -6.573017597198486 -2.5
-2.832165479660034 -7.46780252456665 -2.5
-2.2220752239227295 -7.671479225158691 -2.5
-0.96270751953125 -7.92858362197876 -2.5
-0.3215991258621216 -7.980336666107178 -2.5
0.9627026319503784 -7.92858362197876 -2.5
2.2220678329467773 -7.671479225158691 -2.5
3.423879384994507 -7.215683460235596 -2.5
4.537024021148682 -6.573017597198486 -2.5
5.978200435638428 -5.296235084533691 -2.5
6.750370979309082 -4.268686294555664 -2.5
7.575783729553223 -2.529165029525757 -2.5
7.754726409912109 -1.9113671779632568 -2.5
-7.662042140960693 -0.6185400485992432 -2.5
-7.587422847747803 -1.2330809831619263 -2.5
-7.463593482971191 -1.8396142721176147 -2.5
-6.80647087097168 -3.5723047256469727 -2.5
-6.49694299697876 -4.108417987823486 -2.5
-3.8434863090515137 -6.6571044921875 -2.5
-3.295341730117798 -6.944794654846191 -2.5
-2.1386499404907227 -7.383471488952637 -2.5
-1.5375951528549194 -7.5316162109375 -2.5
-0.9265673756599426 -7.630922794342041 -2.5
-0.30952635407447815 -7.680732250213623 -2.5
0.30952146649360657 -7.680727481842041 -2.5
3.295339345932007 -6.944794654846191 -2.5
3.8434789180755615 -6.6571044921875 -2.5
4.366694450378418 -6.326244831085205 -2.5
4.861581802368164 -5.954370021820068 -2.5
5.324943542480469 -5.543862342834473 -2.5
5.753774166107178 -5.097407341003418 -2.5
6.806471824645996 -3.5723094940185547 -2.5
7.587419033050537 -1.2330760955810547 -2.5
7.662035942077637 -0.6185400485992432 -2.5
-7.406877040863037 0.0 -2.5
-7.382856369018555 -0.5960058569908142 -2.5
-7.191646575927734 -1.7725878953933716 -2.5
-7.02569055557251 -2.345522403717041 -2.5
-6.558463096618652 -3.442148447036743 -2.5
-6.260217189788818 -3.9587206840515137 -2.5
-5.921371936798096 -4.449624061584473 -2.5
-4.207587718963623 -6.095736980438232 -2.5
-3.703439950942993 -6.414535999298096 -2.5
-2.060727596282959 -7.114433288574219 -2.5
-1.4815722703933716 -7.257187366485596 -2.5
-0.8928027153015137 -7.352870941162109 -2.5
0.2982421815395355 -7.400868892669678 -2.5
1.4815673828125 -7.257187366485596 -2.5
3.703434944152832 -6.41454553604126 -2.5
4.207582950592041 -6.095736980438232 -2.5
4.684440612792969 -5.737407207489014 -2.5
5.13092041015625 -5.341860294342041 -2.5
5.544123649597168 -4.911669731140137 -2.5
6.260214805603027 -3.9587254524230957 -2.5
6.814169883728027 -2.903247117996216 -2.5
7.02569055557251 -2.345517635345459 -2.5
7.191642761230469 -1.7725830078125 -2.5
7.310954570770264 -1.188149333000183 -2.5
-6.5728759765625 -2.8004393577575684 -2.5
-6.326220512390137 -3.320258617401123 -2.5
-5.711690425872803 -4.292060375213623 -2.5
-5.347801208496094 -4.737739086151123 -2.5
-4.058591365814209 -5.87987756729126 -2.5
-3.0628318786621094 -6.454780101776123 -2.5
-1.4291088581085205 -7.000195026397705 -2.5
-0.2876855432987213 -7.1387939453125 -2.5
0.28768065571784973 -7.1387939453125 -2.5
0.8611816167831421 -7.092494964599609 -2.5
1.9877489805221558 -6.862504959106445 -2.5
3.5722923278808594 -6.187392234802246 -2.5
5.711689472198486 -4.292060375213623 -2.5
6.936977386474609 -1.7098095417022705 -2.5
7.052065372467041 -1.1460692882537842 -2.5
7.121420860290527 -0.5748974680900574 -2.5
-6.876042366027832 -0.5550927519798279 -2.5
-6.809080600738525 -1.1065820455551147 -2.5
-6.697955131530762 -1.6509032249450684 -2.5
-6.54339599609375 -2.184501886367798 -2.5
-6.108239650726318 -3.2058544158935547 -2.5
-5.830467224121094 -3.6869726181030273 -2.5
-5.514882564544678 -4.1441650390625 -2.5
-5.163533687591553 -4.57449197769165 -2.5
-4.362868785858154 -5.343544960021973 -2.5
-3.9187450408935547 -5.677285194396973 -2.5
-3.449208974838257 -5.974199295043945 -2.5
-2.9572973251342773 -6.232372760772705 -2.5
-2.4462132453918457 -6.450126647949219 -2.5
-1.9192626476287842 -6.626044750213623 -2.5
-0.8315160870552063 -6.848114967346191 -2.5
-0.2777734398841858 -6.89281702041626 -2.5
0.8315111994743347 -6.848114967346191 -2.5
1.379858374595642 -6.759003639221191 -2.5
2.4462060928344727 -6.450126647949219 -2.5
2.957289934158325 -6.232378005981445 -2.5
3.9187426567077637 -5.677279949188232 -2.5
4.362863540649414 -5.343544960021973 -2.5
4.778693675994873 -4.975151062011719 -2.5
5.163530349731445 -4.574496746063232 -2.5
5.830463886260986 -3.686967611312866 -2.5
6.108239650726318 -3.2058446407318115 -2.5
6.346394062042236 -2.7039451599121094 -2.5
6.697954177856445 -1.6508984565734863 -2.5
6.809074401855469 -1.1065869331359863 -2.5
-6.666842937469482 0.0 -2.5
-6.323741436004639 -2.1111669540405273 -2.5
-6.13335657119751 -2.6131787300109863 -2.5
-5.903195858001709 -3.0982372760772705 -2.5
-4.618282318115234 -4.808144569396973 -2.5
-3.787200927734375 -5.486703872680664 -2.5
-3.333425283432007 -5.773647308349609 -2.5
-2.858024835586548 -6.023163795471191 -2.5
-1.3335448503494263 -6.532109260559082 -2.5
-0.80360347032547 -6.618237018585205 -2.5
-0.26844969391822815 -6.661440372467041 -2.5
1.854833960533142 -6.403617858886719 -2.5
2.364091634750366 -6.233608245849609 -2.5
4.618281364440918 -4.808144569396973 -2.5
5.634743690490723 -3.5631980895996094 -2.5
5.903190612792969 -3.0982372760772705 -2.5
6.133359432220459 -2.6131787300109863 -2.5
6.58050537109375 -1.0694433450698853 -2.5
-6.448565483093262 4.882812390860636e-06 -2.5
-6.365058422088623 -1.0344189405441284 -2.5
-6.116697788238525 -2.042060613632202 -2.5
-5.932546138763428 -2.5276172161102295 -2.5
-5.709919452667236 -2.9967918395996094 -2.5
-5.155257225036621 -3.8739256858825684 -2.5
-4.467076301574707 -4.650717735290527 -2.5
-2.286694288253784 -6.029516696929932 -2.5
-1.289882779121399 -6.318242073059082 -2.5
-0.7772924900054932 -6.401542663574219 -2.5
0.7772851586341858 -6.401542663574219 -2.5
1.2898778915405273 -6.3182373046875 -2.5
2.7644457817077637 -5.825961589813232 -2.5
3.6631810665130615 -5.307060241699219 -2.5
4.078361511230469 -4.995092868804932 -2.5
4.467072486877441 -4.650727272033691 -2.5
5.45025634765625 -3.446537971496582 -2.5
5.709917068481445 -2.9967968463897705 -2.5
5.932548522949219 -2.5276219844818115 -2.5
6.365053653717041 -1.0344287157058716 -2.5
-6.242421627044678 4.882812390860636e-06 -2.5
-6.161582946777344 -1.0013574361801147 -2.5
-6.061027526855469 -1.4939111471176147 -2.5
-5.921166896820068 -1.976782202720642 -2.5
-5.527388572692871 -2.900995969772339 -2.5
-4.324277400970459 -4.502050876617432 -2.5
-3.5461010932922363 -5.137412071228027 -2.5
-3.12121319770813 -5.406093597412109 -2.5
-1.73675537109375 -5.995956897735596 -2.5
0.25135496258735657 -6.237353324890137 -2.5
1.2486425638198853 -6.116269588470459 -2.5
1.7367479801177979 -5.995961666107178 -2.5
2.676074266433716 -5.639721393585205 -2.5
3.5461010932922363 -5.137412071228027 -2.5
4.67251443862915 -4.139492034912109 -2.5
4.990458965301514 -3.7500877380371094 -2.5
5.527387619018555 -2.900995969772339 -2.5
5.921162128448486 -1.9767773151397705 -2.5
6.061022758483887 -1.4939111471176147 -2.5
-6.047380447387695 0.0 -2.5
-6.027768611907959 -0.4866113066673279 -2.5
-5.969067096710205 -0.9700634479522705 -2.5
-5.563460350036621 -2.370366096496582 -2.5
-5.354686260223389 -2.8103904724121094 -2.5
-5.111177921295166 -3.23211407661438 -2.5
-4.526525974273682 -4.010151386260986 -2.5
-4.189163684844971 -4.361386775970459 -2.5
-3.824636220932007 -4.684326171875 -2.5
-1.2096362113952637 -5.92516565322876 -2.5
-0.7289355397224426 -6.003281116485596 -2.5
0.2435034066438675 -6.04247522354126 -2.5
0.7289282083511353 -6.003285884857178 -2.5
3.023684024810791 -5.2371826171875 -2.5
4.189162731170654 -4.361386775970459 -2.5
4.526523113250732 -4.010156154632568 -2.5
5.563461780548096 -2.370371103286743 -2.5
5.736154556274414 -1.915014624595642 -2.5
5.969059944152832 -0.9700732231140137 -2.5
6.027768611907959 -0.4866113066673279 -2.5
-5.862524509429932 0.0 -2.5
-5.843509197235107 -0.4717382788658142 -2.5
-5.692162990570068 -1.4029979705810547 -2.5
-5.560816287994385 -1.8564794063568115 -2.5
-5.393395900726318 -2.297910213470459 -2.5
-5.191001892089844 -2.7244529724121094 -2.5
-4.95494270324707 -3.133315324783325 -2.5
-4.68674898147583 -3.521865129470825 -2.5
-4.388156414031982 -3.8875732421875 -2.5
-3.707723379135132 -4.5411376953125 -2.5
-2.0788793563842773 -5.481547832489014 -2.5
-0.7066503763198853 -5.819775104522705 -2.5
0.2360571175813675 -5.857758522033691 -2.5
0.7066479325294495 -5.819775104522705 -2.5
1.6310522556304932 -5.631054401397705 -2.5
2.078874349594116 -5.481552600860596 -2.5
2.9312572479248047 -5.077089786529541 -2.5
3.3302879333496094 -4.824755668640137 -2.5
3.707719564437866 -4.5411376953125 -2.5
4.061103343963623 -4.228061199188232 -2.5
4.686743259429932 -3.521860361099243 -2.5
4.954941272735596 -3.1333203315734863 -2.5
5.393395900726318 -2.297910213470459 -2.5
5.560810565948486 -1.85647451877594 -2.5
5.692160606384277 -1.402993083000183 -2.5
5.786601543426514 -0.9404101371765137 -2.5
-5.687027454376221 4.882812390860636e-06 -2.5
-5.668583869934082 -0.4576171636581421 -2.5
-5.613379001617432 -0.9122607111930847 -2.5
-5.394349098205566 -1.8009033203125 -2.5
-5.035609245300293 -2.642895460128784 -2.5
-4.546450138092041 -3.416435480117798 -2.5
-3.939539670944214 -4.101489067077637 -2.5
-3.596730947494507 -4.405200004577637 -2.5
-2.843513011932373 -4.925102233886719 -2.5
-2.437985897064209 -5.137944221496582 -2.5
-1.5822339057922363 -5.462490081787109 -2.5
-0.685498058795929 -5.645561218261719 -2.5
-0.22899413108825684 -5.682412147521973 -2.5
0.22899168729782104 -5.682406902313232 -2.5
1.137548804283142 -5.572089672088623 -2.5
1.5822290182113647 -5.462490081787109 -2.5
3.5967259407043457 -4.405200004577637 -2.5
4.256796836853027 -3.771196126937866 -2.5
4.546445369720459 -3.416435480117798 -2.5
4.806611061096191 -3.0395214557647705 -2.5
5.035610198974609 -2.642890453338623 -2.5
5.394350528717041 -1.8009033203125 -2.5
5.613376140594482 -0.9122704863548279 -2.5
5.668581485748291 -0.4576171636581421 -2.5
-5.359752178192139 -1.3210595846176147 -2.5
-5.23607063293457 -1.7480615377426147 -2.5
-5.078431129455566 -2.1637206077575684 -2.5
-4.887857437133789 -2.5653467178344727 -2.5
-4.665584564208984 -2.9503369331359863 -2.5
-4.131894588470459 -3.660537004470825 -2.5
-3.4911999702453613 -4.275947093963623 -2.5
-3.135807991027832 -4.543002605438232 -2.5
-2.760085344314575 -4.780600547790527 -2.5
-1.9574779272079468 -5.161430358886719 -2.5
-0.6653832793235779 -5.479911804199219 -2.5
-0.22227539122104645 -5.515683650970459 -2.5
0.22227294743061066 -5.515683650970459 -2.5
1.1041747331619263 -5.408603191375732 -2.5
1.535803198814392 -5.302211761474609 -2.5
1.9574731588363647 -5.161440372467041 -2.5
3.135805606842041 -4.543002605438232 -2.5
4.131894588470459 -3.6605420112609863 -2.5
4.413046836853027 -3.3161914348602295 -2.5
4.665578365325928 -2.9503417015075684 -2.5
5.44866943359375 -0.885498046875 -2.5
5.502260684967041 -0.4441894292831421 -2.5
-5.343883991241455 -0.43147948384284973 -2.5
-5.291841983795166 -0.8600097298622131 -2.5
-5.205481052398682 -1.2830370664596558 -2.5
-5.085360050201416 -1.6977392435073853 -2.5
-4.932258129119873 -2.101435422897339 -2.5
-4.286028861999512 -3.2207422256469727 -2.5
-3.713881731033325 -3.8665575981140137 -2.5
-3.0455517768859863 -4.4122314453125 -2.5
-2.6806395053863525 -4.642997741699219 -2.5
-2.298334836959839 -4.843642234802246 -2.5
-1.9011352062225342 -5.012870788574219 -2.5
-0.6462329030036926 -5.322177410125732 -2.5
0.21587401628494263 -5.356918811798096 -2.5
0.6462255716323853 -5.322177410125732 -2.5
1.0723925828933716 -5.252919673919678 -2.5
1.4915990829467773 -5.149589538574219 -2.5
1.9011303186416626 -5.012876033782959 -2.5
2.298330068588257 -4.843647480010986 -2.5
3.713879346847534 -3.8665623664855957 -2.5
4.012966156005859 -3.555180549621582 -2.5
4.531289100646973 -2.865419864654541 -2.5
4.747165203094482 -2.491503953933716 -2.5
5.08535623550415 -1.6977441310882568 -2.5
5.2918381690979 -0.8600146174430847 -2.5
5.343881607055664 -0.4314013719558716 -2.5
