ply
format ascii 1.0
element vertex 931
property float x
property float y
property float z
end_header
-8.921684265136719 -6.704207420349121 2.990277051925659
-1.0421435832977295 -25.860008239746094 6.934791564941406
1.054443359375 -26.165828704833984 7.016801834106445
3.141367197036743 -25.87162971496582 6.983195781707764
7.507954120635986 -25.920482635498047 7.230863571166992
9.932723999023438 -26.190473556518555 7.505445957183838
12.376914024353027 -26.0838565826416 7.736056804656982
10.489819526672363 -9.293191909790039 3.755113363265991
9.047016143798828 -4.748251914978027 2.7377355098724365
10.193500518798828 -3.403101682662964 2.879534959793091
27.439403533935547 -2.2151477336883545 7.37628698348999
-8.920707702636719 -6.70347261428833 2.857805013656616
-1.0421338081359863 -25.860008239746094 6.628299236297607
1.0544482469558716 -26.165828704833984 6.706685543060303
3.141362190246582 -25.87162971496582 6.674563884735107
7.507948875427246 -25.92049217224121 6.911281585693359
12.395459175109863 -26.12293815612793 7.405228614807129
9.235957145690918 -4.847415447235107 2.6713860034942627
10.865214347839355 -3.6273486614227295 2.9336328506469727
21.529037475585938 -5.306453704833984 5.678752899169922
26.258344650268555 -4.267420768737793 6.813173770904541
26.663320541381836 -2.152501106262207 6.850874900817871
-8.909799575805664 -6.695271968841553 2.7230725288391113
-5.338178634643555 -26.148075103759766 6.520573139190674
-3.1756787300109863 -26.154090881347656 6.437201976776123
-1.0421289205551147 -25.860008239746094 6.323541164398193
3.1413817405700684 -25.87163543701172 6.367680549621582
7.507948875427246 -25.920482635498047 6.59351110458374
9.9327392578125 -26.190473556518555 6.843897342681885
9.875859260559082 -8.749282836914062 3.223720073699951
8.520956993103027 -5.388354301452637 2.463284492492676
10.497978210449219 -3.504747152328491 2.7041544914245605
26.899486541748047 -6.630159854888916 6.769093036651611
-3.4552977085113525 -5.984739780426025 1.6075369119644165
-5.338198184967041 -26.148075103759766 6.208017349243164
-3.1756787300109863 -26.154090881347656 6.128640651702881
-1.042138695716858 -25.860008239746094 6.020430088043213
3.141371965408325 -25.87163543701172 6.062454700469971
12.395459175109863 -26.12293815612793 6.72611141204834
8.8665132522583 -5.606874942779541 2.440316915512085
26.513412475585938 -6.534998416900635 6.352125644683838
27.17724609375 -2.193988084793091 6.342531204223633
-8.909067153930664 -6.694717884063721 2.4624857902526855
-3.4550437927246094 -5.984292030334473 1.5269033908843994
-1.0421338081359863 -25.860008239746094 5.718876838684082
1.0450292825698853 -25.932151794433594 5.7348313331604
5.296498775482178 -25.943944931030273 5.851031303405762
9.932723999023438 -26.190473556518555 6.189473628997803
8.962031364440918 -5.667267799377441 2.343057155609131
11.082870483398438 -4.721988201141357 2.6619818210601807
11.009570121765137 -3.6755504608154297 2.5647640228271484
26.97588348388672 -6.648987770080566 6.139209270477295
27.646873474121094 -2.231898069381714 6.128960609436035
-8.908705711364746 -6.69444465637207 2.333176851272583
-5.276987075805664 -25.848257064819336 5.523565769195557
1.0450341701507568 -25.932151794433594 5.433910369873047
5.296498775482178 -25.943944931030273 5.544012546539307
7.507948875427246 -25.92047882080078 5.650139808654785
9.844022750854492 -25.956565856933594 5.812321186065674
12.395459175109863 -26.12293815612793 6.053956985473633
11.392836570739746 -7.20442008972168 2.8222832679748535
11.953676223754883 -3.990739583969116 2.6385772228240967
27.321224212646484 -4.440157413482666 5.795388698577881
-8.9083251953125 -6.694173336029053 2.2044811248779297
-3.45452618598938 -5.983401775360107 1.3668322563171387
-3.139272451400757 -25.854198455810547 5.152369499206543
-1.0421338081359863 -25.86001968383789 5.120106220245361
3.141371965408325 -25.87163543701172 5.155844688415527
7.507948875427246 -25.920482635498047 5.33869743347168
9.84401798248291 -25.956571578979492 5.491939544677734
12.319775581359863 -25.963436126708984 5.685329437255859
10.9988374710083 -4.686180114746094 2.3651986122131348
11.457817077636719 -3.8251965045928955 2.389718770980835
27.662172317504883 -4.495564937591553 5.544279098510742
28.1503849029541 -2.2725439071655273 5.587183475494385
-8.907973289489746 -6.693902492523193 2.0763566493988037
3.141367197036743 -25.87163543701172 4.856386184692383
5.321069240570068 -26.064287185668945 4.95705509185791
12.88284683227539 -6.76145601272583 2.7111706733703613
11.60423755645752 -3.874079465866089 2.2796852588653564
11.939559936523438 -2.9428601264953613 2.2914328575134277
-15.66368579864502 -6.67365837097168 2.9778454303741455
-8.907611846923828 -6.693631649017334 1.9487709999084473
-3.166616201400757 -26.079389572143555 4.594761848449707
-1.042138695716858 -25.86001968383789 4.526565074920654
7.507944107055664 -25.920482635498047 4.719814777374268
12.368427276611328 -26.06596565246582 5.046112537384033
12.679662704467773 -8.018155097961426 2.623866558074951
13.669560432434082 -7.174351692199707 2.7000749111175537
12.176557540893555 -5.187961101531982 2.314913272857666
26.60188865661621 -6.556807518005371 4.791892051696777
26.465848922729492 -4.301145076751709 4.689583778381348
-15.66368579864502 -6.67365837097168 2.7837860584259033
-8.90725040435791 -6.693362712860107 1.821690320968628
-3.4612841606140137 -5.99510383605957 1.1318371295928955
-3.161918878555298 -26.040740966796875 4.288939952850342
-1.042138695716858 -25.86001968383789 4.2315521240234375
3.141371965408325 -25.87163543701172 4.261087417602539
5.328964710235596 -26.10295867919922 4.355870723724365
7.507939338684082 -25.92049217224121 4.412208557128906
9.904345512390137 -26.11565399169922 4.566675186157227
12.376914024353027 -26.0838623046875 4.7204742431640625
13.028203010559082 -8.238570213317871 2.5202841758728027
13.878457069396973 -4.633317947387695 2.3922483921051025
26.875898361206055 -6.624344348907471 4.525728225708008
27.097753524780273 -4.40383768081665 4.488617897033691
-3.4631590843200684 -5.998359203338623 1.0537872314453125
-1.0421435832977295 -25.860013961791992 3.937608480453491
9.88967227935791 -26.07695770263672 4.243156433105469
12.614999771118164 -5.374764442443848 2.086225748062134
13.806337356567383 -4.609220027923584 2.2145137786865234
27.37417984008789 -4.448761940002441 4.219426155090332
-15.663676261901855 -6.67365837097168 2.397663116455078
-8.906538009643555 -6.692825794219971 1.5689034461975098
-3.465034008026123 -6.001607418060303 0.9759142994880676
-5.338198184967041 -26.14810562133789 3.758219003677368
1.054443359375 -26.165843963623047 3.6877551078796387
3.141371965408325 -25.87163543701172 3.6700925827026367
5.344233512878418 -26.17774772644043 3.7624778747558594
9.932729721069336 -26.19047737121582 3.944568395614624
27.083393096923828 -9.041775703430176 4.020909309387207
-5.338188171386719 -26.14810562133789 3.4570727348327637
-3.1756787300109863 -26.15410614013672 3.4128692150115967
-1.0421435832977295 -25.860013961791992 3.3526086807250977
3.141362190246582 -25.87163543701172 3.376009464263916
5.344233512878418 -26.177743911743164 3.4609923362731934
7.507939338684082 -25.92049217224121 3.495741605758667
9.932729721069336 -26.19047737121582 3.6284899711608887
12.395463943481445 -26.12293815612793 3.7455883026123047
27.492889404296875 -9.178482055664062 3.754638671875
-8.905835151672363 -6.692293643951416 1.317729115486145
-3.1756787300109863 -26.15410614013672 3.1164305210113525
1.054443359375 -26.165843963623047 3.0976085662841797
5.344228267669678 -26.177743911743164 3.160374164581299
7.507944107055664 -25.92047882080078 3.1921026706695557
12.395459175109863 -26.122934341430664 3.420241594314575
27.53339385986328 -6.786405086517334 3.3543334007263184
-3.47063946723938 -6.011309623718262 0.743168294429779
-5.338188171386719 -26.148099899291992 2.857297897338867
-1.0421435832977295 -25.860013961791992 2.7709574699401855
1.054443359375 -26.165843963623047 2.8037266731262207
3.141362190246582 -25.87163543701172 2.7902984619140625
5.344228267669678 -26.177743911743164 2.8605382442474365
7.507944107055664 -25.92047882080078 2.889256477355957
9.932729721069336 -26.19047737121582 2.998974561691284
27.96635627746582 -6.893118858337402 3.083838939666748
-8.899545669555664 -6.687569618225098 1.0672369003295898
-3.4705517292022705 -6.011159420013428 0.6654391288757324
-3.1756787300109863 -26.15410614013672 2.525799512863159
3.141371965408325 -25.87163543701172 2.4985198974609375
5.344228267669678 -26.177743911743164 2.5614147186279297
9.932723999023438 -26.19047737121582 2.685375928878784
12.395453453063965 -26.122934341430664 2.772038459777832
28.211854934692383 -4.584897518157959 2.7401444911956787
-5.276040077209473 -25.843631744384766 2.2340450286865234
-1.0419481992721558 -25.855384826660156 2.191669464111328
5.281996726989746 -25.872928619384766 2.236577033996582
28.964662551879883 -4.707234859466553 2.485426187515259
-8.905102729797363 -6.691744327545166 0.8192468285560608
-3.4677586555480957 -6.006328105926514 0.5100839138031006
-3.1387059688568115 -25.849565505981445 1.9151153564453125
-1.0419530868530273 -25.855384826660156 1.903123378753662
5.281991958618164 -25.8729248046875 1.9421191215515137
-8.905073165893555 -6.69172477722168 0.6952343583106995
-5.27603006362915 -25.843631744384766 1.6462740898132324
-3.1387059688568115 -25.849565505981445 1.625223994255066
-1.0419481992721558 -25.855384826660156 1.615047574043274
1.0421679019927979 -25.861162185668945 1.6154083013534546
3.140800714492798 -25.86697769165039 1.6263185739517212
9.817065238952637 -25.885517120361328 1.7279033660888672
-3.4649853706359863 -6.00152063369751 0.3554840087890625
-1.0419530868530273 -25.855384826660156 1.3273699283599854
5.280951976776123 -25.8677978515625 1.3542993068695068
9.757031440734863 -25.727201461791992 1.411438226699829
12.191024780273438 -25.69210433959961 1.4587597846984863
14.8375825881958 -25.699447631835938 1.5222347974777222
1.0421679019927979 -25.861162185668945 1.0402507781982422
5.282001972198486 -25.872928619384766 1.0613287687301636
7.495956897735596 -25.87907600402832 1.0828810930252075
9.817070007324219 -25.885517120361328 1.1126928329467773
14.953242301940918 -25.8997745513916 1.201996088027954
-3.462231397628784 -5.996730804443359 0.2014794945716858
3.140815258026123 -25.86699676513672 0.7581790089607239
5.282001972198486 -25.872928619384766 0.7683514356613159
7.495961666107178 -25.87907600402832 0.7839541435241699
9.8170747756958 -25.885520935058594 0.8055365085601807
12.286054611206055 -25.89236831665039 0.8339016437530518
-3.463022470474243 -5.998117446899414 0.1247323602437973
-5.743178367614746 -28.13178253173828 0.5170819163322449
-3.155815362930298 -25.990488052368164 0.47150665521621704
-1.0486669540405273 -26.02229881286621 0.46902188658714294
1.0488964319229126 -26.028114318847656 0.4691268801689148
7.544350624084473 -26.046152114868164 0.48835235834121704
12.350194931030273 -26.02754783630371 0.5188287496566772
-3.4647216796875 -6.001049518585205 0.04799240082502365
-5.749682426452637 -28.163705825805664 0.19908325374126434
3.161078929901123 -26.03398895263672 0.18163390457630157
5.316103458404541 -26.039960861206055 0.18407073616981506
7.54434061050415 -26.046152114868164 0.1878088265657425
9.880444526672363 -26.052616119384766 0.1929791271686554
12.365365982055664 -26.059520721435547 0.19977447390556335
-8.844467163085938 -6.646168231964111 -0.04597518965601921
-5.743168830871582 -28.131776809692383 -0.11931747198104858
-1.047387719154358 -25.990360260009766 -0.10809478163719177
5.309575080871582 -26.008012771606445 -0.11030974984169006
-8.844477653503418 -6.646168231964111 -0.1685848981142044
-3.4697117805480957 -6.009706974029541 -0.10574279725551605
-5.749682426452637 -28.163705825805664 -0.43801483511924744
-1.0486571788787842 -26.02229881286621 -0.39685362577438354
1.0488964319229126 -26.028114318847656 -0.3969424366950989
7.544350624084473 -26.046152114868164 -0.4132096767425537
-8.844467163085938 -6.646168231964111 -0.29123350977897644
-3.476332902908325 -6.021157264709473 -0.18302367627620697
-3.155825138092041 -25.990482330322266 -0.6892088055610657
1.048891544342041 -26.028114318847656 -0.6857307553291321
7.54434061050415 -26.046152114868164 -0.7138323783874512
12.365370750427246 -26.059526443481445 -0.7593124508857727
-8.844467163085938 -6.646168231964111 -0.413958877325058
-3.4837353229522705 -6.033998966217041 -0.2607038915157318
-5.749682426452637 -28.163705825805664 -1.0755470991134644
-3.155825138092041 -25.990482330322266 -0.9796372652053833
1.0488964319229126 -26.028114318847656 -0.9746932983398438
5.316098690032959 -26.039955139160156 -0.9944433569908142
9.880444526672363 -26.05262565612793 -1.0425699949264526
12.365370750427246 -26.059526443481445 -1.0792821645736694
7.184326171875 -10.408313751220703 -0.4732183814048767
8.445297241210938 -10.343624114990234 -0.49964889883995056
-8.844467163085938 -6.646168231964111 -0.5367826819419861
-3.4911766052246094 -6.046881198883057 -0.33877837657928467
-5.743168830871582 -28.131786346435547 -1.3930903673171997
1.048891544342041 -26.028114318847656 -1.2638927698135376
3.161088705062866 -26.03398895263672 -1.272430419921875
5.316098690032959 -26.039960861206055 -1.289502501487732
7.544350624084473 -26.046152114868164 -1.3156887292861938
-8.90480899810791 -6.691519737243652 -0.6642410159111023
-3.155825138092041 -25.990478515625 -1.5612828731536865
5.281996726989746 -25.872928619384766 -1.5747137069702148
5.761801719665527 -9.979734420776367 -0.6871905326843262
6.860815048217773 -9.939627647399902 -0.720224142074585
-3.4919188022613525 -6.048171043395996 -0.4941892921924591
-1.041933536529541 -25.855384826660156 -1.83106529712677
5.282001972198486 -25.872928619384766 -1.868584394454956
5.292441368103027 -11.153596878051758 -0.8735958933830261
5.734364986419678 -9.932212829589844 -0.8115502595901489
6.828876972198486 -9.893355369567871 -0.8506532311439514
23.3793888092041 -7.805193901062012 -1.7441326379776
-8.90475082397461 -6.691483020782471 -0.9123492240905762
-12.28688907623291 -25.894086837768555 -2.347599983215332
-7.97411584854126 -27.52975082397461 -2.347599983215332
-1.0419530868530273 -25.855384826660156 -2.119483470916748
1.0421679019927979 -25.861175537109375 -2.1199607849121094
3.14080548286438 -25.867000579833984 -2.134277105331421
7.495956897735596 -25.879072189331055 -2.206841230392456
5.392397403717041 -14.21858024597168 -1.2455569505691528
5.068398475646973 -10.681441307067871 -0.968393087387085
19.85441780090332 -20.67066764831543 -2.347599983215332
21.45331573486328 -19.006013870239258 -2.347599983215332
23.3793888092041 -7.805193901062012 -2.0188612937927246
-26.860179901123047 7.324218586290954e-06 -2.5
-26.773061752319336 -2.161341428756714 -2.5
-25.47783660888672 -8.505752563476562 -2.5
-23.78348159790039 -12.48253059387207 -2.5
-8.904730796813965 -6.691463470458984 -1.0367268323898315
-18.606693267822266 -19.37160301208496 -2.5
-16.98758316040039 -20.806005477905273 -2.5
-15.25832462310791 -22.10546875 -2.5
-3.487416982650757 -6.040372371673584 -0.6491786241531372
-7.017426490783691 -24.226913452148438 -2.347599983215332
1.0156152248382568 -25.202299118041992 -2.347599983215332
3.0402488708496094 -25.038856506347656 -2.347599983215332
6.76659631729126 -9.803128242492676 -1.1086764335632324
7.989037990570068 -9.784808158874512 -1.1757185459136963
20.1051025390625 -17.81159019470215 -2.5
21.4731388092041 -16.13602638244629 -2.5
22.701913833618164 -14.355850219726562 -2.5
18.377933502197266 -7.830113410949707 -1.8593037128448486
21.527196884155273 -5.306003093719482 -2.0636041164398193
-23.977602005004883 7.324218586290954e-06 -2.5
-23.89984893798828 -1.9293956756591797 -2.5
-22.74361801147461 -7.592933177947998 -2.5
-22.05885124206543 -9.398397445678711 -2.5
-17.94747543334961 -15.900076866149902 -2.5
-6.264321327209473 -21.626943588256836 -2.347599983215332
-4.5037841796875 -22.060882568359375 -2.347599983215332
-2.7139892578125 -22.351747512817383 -2.347599983215332
-0.9066357016563416 -22.49765968322754 -2.347599983215332
6.7359619140625 -9.758743286132812 -1.2363370656967163
7.951196193695068 -9.738465309143066 -1.3108245134353638
16.609838485717773 -17.292715072631836 -2.5
17.94746971130371 -15.90009593963623 -2.5
19.168685913085938 -14.40433406829834 -2.5
15.028803825378418 -7.887732982635498 -1.7696763277053833
21.426483154296875 -7.153213977813721 -2.355220079421997
23.667083740234375 -3.846287727355957 -2.5
23.899805068969727 -1.9293969869613647 -2.5
-21.578676223754883 -1.7420141696929932 -2.5
-21.368539810180664 -3.4727306365966797 -2.5
-21.019800186157227 -5.180934906005859 -2.5
-19.916566848754883 -8.485640525817871 -2.5
-19.169164657592773 -10.060735702514648 -2.5
-18.297435760498047 -11.570591926574707 -2.5
-8.904682159423828 -6.691424369812012 -1.2862775325775146
-16.20442771911621 -14.355870246887207 -2.5
-13.691733360290527 -16.769336700439453 -2.5
-12.29796314239502 -17.816682815551758 -2.5
-7.239643573760986 -19.089324951171875 -2.357631206512451
-4.066371917724609 -19.918333053588867 -2.347599983215332
-2.4504051208496094 -20.180950164794922 -2.347599983215332
-0.8185790777206421 -20.31269073486328 -2.347599983215332
0.8185644149780273 -20.312686920166016 -2.347599983215332
2.450395345687866 -20.180952072143555 -2.347599983215332
4.066352367401123 -19.918333053588867 -2.347599983215332
3.8871190547943115 -10.249517440795898 -1.265868067741394
4.650927543640137 -9.801639556884766 -1.2528483867645264
6.709516525268555 -9.720442771911621 -1.3639516830444336
18.29741668701172 -11.57059383392334 -2.5
20.425878524780273 -5.034544467926025 -2.4293601512908936
21.57868194580078 -1.7420165538787842 -2.5
-19.664037704467773 -1.5874438285827637 -2.5
-19.472543716430664 -3.164599657058716 -2.5
-18.71272850036621 -6.247217655181885 -2.5
-18.14933967590332 -7.732706069946289 -2.5
-16.673891067504883 -10.543938636779785 -2.5
-13.66604995727539 -14.227859497070312 -2.5
-12.476869583129883 -15.281397819519043 -2.5
-11.206762313842773 -16.23579978942871 -2.5
-8.457250595092773 -17.823259353637695 -2.5
-5.474585056304932 -18.900390625 -2.493577480316162
-0.76515132188797 -18.986644744873047 -2.408008575439453
2.3050341606140137 -18.983797073364258 -2.423363208770752
3.874384641647339 -18.978017807006836 -2.4545676708221436
3.822748899459839 -10.079793930053711 -1.3661229610443115
6.708906173706055 -9.719552040100098 -1.4966223239898682
8.190312385559082 -10.031329154968262 -1.641101598739624
13.666029930114746 -14.227876663208008 -2.5
14.766596794128418 -13.082080841064453 -2.5
16.673871994018555 -10.543949127197266 -2.5
15.056049346923828 -7.902029991149902 -2.1547727584838867
17.629009246826172 -5.885429382324219 -2.355220079421997
19.664012908935547 -1.5874462127685547 -2.5
-18.05733871459961 -1.457735538482666 -2.5
-17.8814697265625 -2.906026601791382 -2.5
-8.904633522033691 -6.69138765335083 -1.5371078252792358
-13.560053825378418 -12.013167381286621 -2.5
-12.54942798614502 -13.065342903137207 -2.5
-11.457406997680664 -14.032784461975098 -2.5
-10.291117668151855 -14.909214973449707 -2.5
-7.766225337982178 -16.366954803466797 -2.5
-6.424057483673096 -16.938798904418945 -2.5
-5.040209770202637 -17.40079689025879 -2.5
2.1836278438568115 -17.983970642089844 -2.5
4.607866287231445 -9.71088695526123 -1.4833059310913086
7.912495136260986 -9.691061019897461 -1.7265032529830933
13.560043334960938 -12.013175010681152 -2.5
14.482744216918945 -10.883087158203125 -2.5
16.188579559326172 -5.404548168182373 -2.355220079421997
18.05729866027832 -1.4577380418777466 -2.5
-16.743793487548828 4.882812390860636e-06 -2.5
-16.68946647644043 -1.3473119735717773 -2.5
-16.52693748474121 -2.685892343521118 -2.5
-11.598803520202637 -12.07563591003418 -2.5
-9.511557579040527 -13.77983283996582 -2.5
-3.490981340408325 -6.046533107757568 -1.0424678325653076
-7.177934646606445 -15.127154350280762 -2.5
-5.937417030334473 -15.65568733215332 -2.5
-3.349184513092041 -16.40536880493164 -2.5
-2.0182275772094727 -16.621673583984375 -2.5
-0.6742089986801147 -16.730175018310547 -2.5
2.0182225704193115 -16.621671676635742 -2.5
3.3491697311401367 -16.40537452697754 -2.5
3.895092725753784 -13.447449684143066 -2.0903608798980713
3.761606454849243 -9.918577194213867 -1.5838618278503418
4.834804534912109 -10.189156532287598 -1.6839171648025513
5.612602233886719 -9.72132682800293 -1.6760302782058716
7.912495136260986 -9.691061019897461 -1.8680051565170288
12.53286075592041 -11.103179931640625 -2.5
13.385659217834473 -10.058685302734375 -2.5
13.332094192504883 -8.430726051330566 -2.355220079421997
16.689443588256836 -1.347314476966858 -2.5
-15.561098098754883 2.441406195430318e-06 -2.5
-15.510639190673828 -1.2521460056304932 -2.5
-15.35958480834961 -2.4961791038513184 -2.5
-15.10891056060791 -3.724022150039673 -2.5
-13.778647422790527 -7.231592655181885 -2.5
-8.80153751373291 -6.613897323608398 -1.7687628269195557
-10.779536247253418 -11.222688674926758 -2.5
-9.841547966003418 -12.053694725036621 -2.5
-8.839731216430664 -12.806522369384766 -2.5
-4.329370021820068 -14.94670295715332 -2.5
-3.112612247467041 -15.246607780456543 -2.5
-0.6265966892242432 -15.548467636108398 -2.5
0.6265771389007568 -15.54847240447998 -2.5
3.8978564739227295 -13.456988334655762 -2.2508270740509033
4.598456859588623 -9.691061019897461 -1.7233242988586426
5.612504959106445 -9.721145629882812 -1.8033777475357056
7.912489891052246 -9.691061019897461 -2.0099761486053467
12.440180778503418 -9.348201751708984 -2.5
10.26699161529541 -6.49247407913208 -1.9515936374664307
15.108901023864746 -3.7240257263183594 -2.5
15.510624885559082 -1.2521495819091797 -2.5
-14.108813285827637 -3.477518320083618 -2.5
-13.36827564239502 -5.695685863494873 -2.5
-10.876626014709473 -9.635868072509766 -2.5
-9.1901216506958 -11.255824089050293 -2.5
-3.501577138900757 -6.064904689788818 -1.204858422279358
-6.229350566864014 -13.12808895111084 -2.5
-5.152788162231445 -13.586763381958008 -2.5
-1.751528263092041 -14.425101280212402 -2.5
4.042783260345459 -13.957334518432617 -2.5
3.732841730117798 -9.842720985412598 -1.8110849857330322
10.06600570678711 -10.479840278625488 -2.5
10.943974494934082 -8.223885536193848 -2.355220079421997
9.995561599731445 -5.246078968048096 -1.942152976989746
12.594072341918945 -5.365838527679443 -2.355220079421997
13.783231735229492 -4.60151481628418 -2.5
14.10879898071289 -3.477518320083618 -2.5
14.483930587768555 -1.1692638397216797 -2.5
-13.625678062438965 4.882812390860636e-06 -2.5
-13.5814790725708 -1.096408724784851 -2.5
-13.449213981628418 -2.18571400642395 -2.5
-13.229731559753418 -3.2608482837677 -2.5
-12.924448013305664 -4.314815521240234 -2.5
-12.5353364944458 -5.340805530548096 -2.5
-12.064926147460938 -6.332156658172607 -2.5
-8.769828796386719 -6.59007453918457 -2.012725591659546
-9.4388427734375 -9.826866149902344 -2.5
-3.5022900104522705 -6.066112995147705 -1.2851732969284058
-5.84121561050415 -12.310117721557617 -2.5
-4.831743240356445 -12.740222930908203 -2.5
0.5486425757408142 -13.614617347717285 -2.5
1.642372965812683 -13.526326179504395 -2.5
2.725468635559082 -13.350308418273926 -2.5
3.7359814643859863 -9.851009368896484 -1.9330520629882812
4.598456859588623 -9.691061019897461 -1.9681087732315063
7.912495136260986 -9.691061019897461 -2.2954776287078857
8.320473670959473 -5.261566162109375 -1.806244134902954
11.846097946166992 -5.047159194946289 -2.362544536590576
12.924433708190918 -4.314814567565918 -2.5
13.229721069335938 -3.260850667953491 -2.5
13.5814790725708 -1.0964099168777466 -2.5
-12.1635103225708 -4.060776233673096 -2.5
-8.777689933776855 -6.595987319946289 -2.140558958053589
-9.042621612548828 -8.011068344116211 -2.355220079421997
-7.284555435180664 -10.553489685058594 -2.5
-5.497319221496582 -11.58534049987793 -2.5
-3.567700147628784 -12.31714916229248 -2.5
-2.565014600753784 -12.564290046691895 -2.5
0.5163427591323853 -12.813050270080566 -2.5
3.567700147628784 -12.317153930664062 -2.5
3.739140510559082 -9.859332084655762 -2.055718183517456
4.598456859588623 -9.691061019897461 -2.09123158454895
7.284535884857178 -10.553492546081543 -2.5
9.995561599731445 -5.246078968048096 -2.200775146484375
11.786762237548828 -5.021876335144043 -2.497769594192505
12.65737247467041 -2.0570335388183594 -2.5
-11.95071792602539 -1.9421874284744263 -2.5
-11.138667106628418 -4.745728492736816 -2.5
-9.640551567077637 -6.096302509307861 -2.355220079421997
-7.901469707489014 -8.226287841796875 -2.355220079421997
-7.6573486328125 -9.378539085388184 -2.5
-6.877856254577637 -9.964285850524902 -2.5
-3.3685107231140137 -11.629475593566895 -2.5
-2.421811580657959 -11.862818717956543 -2.5
-1.459389567375183 -12.019231796264648 -2.5
-0.48753416538238525 -12.097688674926758 -2.5
1.45937979221344 -12.019231796264648 -2.5
3.3685107231140137 -11.629483222961426 -2.5
4.293374061584473 -11.320713996887207 -2.5
3.7253270149230957 -7.851004600524902 -1.7943438291549683
6.053754806518555 -10.485416412353516 -2.5
4.553881645202637 -6.597442626953125 -1.6552730798721313
7.657329082489014 -9.378536224365234 -2.5
7.901435375213623 -8.226289749145508 -2.355220079421997
9.965903282165527 -5.230515003204346 -2.3239951133728027
11.48439884185791 -3.8340611457824707 -2.5
11.7556734085083 -2.897526741027832 -2.5
11.950712203979492 -1.9421886205673218 -2.5
12.0682373046875 -0.9742480516433716 -2.5
-11.464516639709473 3.662109293145477e-06 -2.5
-11.13137149810791 -2.7436461448669434 -2.5
-10.151362419128418 -5.327824592590332 -2.5
-6.830785751342773 -8.366189956665039 -2.355220079421997
-4.914760589599609 -10.357620239257812 -2.5
-2.951225519180298 -7.781749248504639 -1.8148555755615234
-3.189624071121216 -11.011876106262207 -2.5
-2.2931981086730957 -11.232818603515625 -2.5
-0.4616357386112213 -11.45521354675293 -2.5
2.2931835651397705 -11.232820510864258 -2.5
4.598456859588623 -9.691061019897461 -2.3391127586364746
7.48180627822876 -7.789414882659912 -2.355220079421997
8.084341049194336 -7.162112712860107 -2.355220079421997
7.063544750213623 -5.307930946350098 -1.9267295598983765
10.874516487121582 -3.6304430961608887 -2.5
11.131361961364746 -2.743647336959839 -2.5
11.316035270690918 -1.8390454053878784 -2.5
-10.883695602416992 2.441406195430318e-06 -2.5
-10.848402976989746 -0.8757763504981995 -2.5
-10.567465782165527 -2.6046483516693115 -2.5
-10.012807846069336 -4.266044616699219 -2.5
-7.674789905548096 -6.799266338348389 -2.355220079421997
-6.484721660614014 -7.942347049713135 -2.355220079421997
-3.5072314739227295 -6.074689865112305 -1.611226201057434
-3.0280418395996094 -10.45399284362793 -2.5
-2.177016496658325 -10.663748741149902 -2.5
3.028022289276123 -10.45399284362793 -2.5
5.441850662231445 -9.425567626953125 -2.5
4.45095682144165 -6.448328495025635 -1.7997801303863525
5.033393383026123 -5.240341663360596 -1.6690335273742676
7.674765586853027 -6.799271106719971 -2.355220079421997
10.323583602905273 -3.4465184211730957 -2.5
10.74276351928711 -1.7458752393722534 -2.5
10.848407745361328 -0.8757787942886353 -2.5
-10.322797775268555 -0.833343505859375 -2.5
-10.222270011901855 -1.6612828969955444 -2.5
-9.823412895202637 -3.279527425765991 -2.5
-8.246195793151855 -5.214570045471191 -2.355220079421997
-7.302915096282959 -6.469820499420166 -2.355220079421997
-6.170522212982178 -7.557510852813721 -2.355220079421997
-4.439692497253418 -9.356449127197266 -2.5
-2.9512157440185547 -7.781749248504639 -2.0090510845184326
-2.8813133239746094 -9.947463989257812 -2.5
-2.071537971496582 -10.147059440612793 -2.5
0.3131689429283142 -7.771402359008789 -1.877519965171814
2.881303548812866 -9.947463989257812 -2.5
2.977773427963257 -7.851795673370361 -2.0271353721618652
4.439677715301514 -9.356451034545898 -2.5
4.878291130065918 -8.449463844299316 -2.355220079421997
7.302895545959473 -6.469820499420166 -2.355220079421997
8.246167182922363 -5.214571475982666 -2.355220079421997
9.170087814331055 -4.812835693359375 -2.5
9.823373794555664 -3.2795286178588867 -2.5
-9.875327110290527 2.441406195430318e-06 -2.5
-9.843305587768555 -0.7946337461471558 -2.5
-9.7474365234375 -1.584112524986267 -2.5
-9.588363647460938 -2.363318920135498 -2.5
-9.367114067077637 -3.1271934509277344 -2.5
-6.963715553283691 -6.16929817199707 -2.355220079421997
-6.4447021484375 -6.709630012512207 -2.355220079421997
-5.883901119232178 -7.206460952758789 -2.355220079421997
-4.522162914276123 -6.551444053649902 -2.0152852535247803
-3.5256786346435547 -6.106637001037598 -1.7850933074951172
-3.4053955078125 -7.176714897155762 -2.0109944343566895
-2.951225519180298 -7.781749248504639 -2.1069176197052
-2.7474756240844727 -9.485401153564453 -2.5
-1.1903173923492432 -9.803298950195312 -2.5
0.3131689429283142 -7.771402359008789 -1.9689791202545166
1.9752978086471558 -9.675725936889648 -2.5
4.651699066162109 -8.05698299407959 -2.355220079421997
4.440468788146973 -6.433130741119385 -1.9788862466812134
5.883891582489014 -7.206460952758789 -2.355220079421997
5.999780178070068 -5.315349102020264 -2.0292110443115234
8.744135856628418 -4.589278697967529 -2.5
9.085067749023438 -3.87078595161438 -2.5
9.367084503173828 -3.12719464302063 -2.5
9.747416496276855 -1.584114909172058 -2.5
9.843280792236328 -0.7946361899375916 -2.5
-9.312456130981445 -1.5134167671203613 -2.5
-9.160473823547363 -2.257852792739868 -2.5
-8.353960037231445 -4.384477615356445 -2.5
-7.94823694229126 -5.026154518127441 -2.4919092655181885
-7.105649471282959 -5.339532375335693 -2.355220079421997
-6.652944087982178 -5.89398193359375 -2.355220079421997
-5.621323108673096 -6.884861946105957 -2.355220079421997
-3.5357666015625 -6.124109745025635 -1.873822569847107
-2.6248583793640137 -9.062100410461426 -2.5
-1.1371923685073853 -9.365811347961426 -2.5
0.3131689429283142 -7.771402359008789 -2.0609517097473145
1.1372119188308716 -9.365809440612793 -2.5
1.887148380279541 -9.24393367767334 -2.5
3.15179181098938 -8.310640335083008 -2.355220079421997
4.444106578826904 -7.697432518005371 -2.355220079421997
4.435195446014404 -6.425494194030762 -2.068863868713379
6.652915000915527 -5.893985271453857 -2.355220079421997
7.105610370635986 -5.339530944824219 -2.355220079421997
8.353911399841309 -4.384479999542236 -2.5
8.679628372192383 -3.6980481147766113 -2.5
8.949057579040527 -2.9876365661621094 -2.5
9.160439491271973 -2.2578539848327637 -2.5
9.312417030334473 -1.5134203433990479 -2.5
9.404008865356445 -0.759173572063446 -2.5
-9.029301643371582 6.103515261202119e-06 -2.5
-9.00002384185791 -0.7265563607215881 -2.5
-8.564614295959473 -2.859283447265625 -2.5
-7.995043754577637 -4.196113109588623 -2.5
-6.367133617401123 -5.640775203704834 -2.355220079421997
-5.892592430114746 -6.134820461273193 -2.355220079421997
-5.379819393157959 -6.589078426361084 -2.355220079421997
-3.89251446723938 -5.639276027679443 -1.8972225189208984
-3.0119481086730957 -6.347540378570557 -1.9453060626983643
-1.7014892101287842 -8.334471702575684 -2.355220079421997
-1.0253417491912842 -8.444358825683594 -2.355220079421997
-0.3636132776737213 -9.021954536437988 -2.5
0.3131738305091858 -7.771402359008789 -2.1534671783447266
1.0253368616104126 -8.444358825683594 -2.355220079421997
2.3666064739227295 -8.170528411865234 -2.355220079421997
3.0163915157318115 -7.953604698181152 -2.355220079421997
5.379819393157959 -6.589078426361084 -2.355220079421997
5.033393383026123 -5.240341663360596 -2.0118184089660645
6.800341606140137 -5.110137939453125 -2.355220079421997
8.306742668151855 -3.539174795150757 -2.5
8.564584732055664 -2.8592822551727295 -2.5
8.912343978881836 -1.448400855064392 -2.5
-8.655180931091309 3.662109293145477e-06 -2.5
-8.627114295959473 -0.6964514255523682 -2.5
-8.5430908203125 -1.3883849382400513 -2.5
-8.20975112915039 -2.740809202194214 -2.5
-7.962583065032959 -3.392526865005493 -2.5
-7.663774013519287 -4.022248268127441 -2.5
-7.315268516540527 -4.625881195068359 -2.5
-3.903637647628784 -5.655379295349121 -1.9848848581314087
-3.000239133834839 -6.322869777679443 -2.0215046405792236
-2.268559455871582 -7.831978797912598 -2.355220079421997
-1.6309814453125 -7.989129543304443 -2.355220079421997
-0.9828564524650574 -8.094464302062988 -2.355220079421997
-0.32833006978034973 -8.147305488586426 -2.355220079421997
0.3131689429283142 -7.771402359008789 -2.2465531826019287
1.6309716701507568 -7.989134311676025 -2.355220079421997
2.8913965225219727 -7.624046325683594 -2.355220079421997
3.4955077171325684 -7.366658687591553 -2.355220079421997
6.103295803070068 -5.407049655914307 -2.355220079421997
6.701704025268555 -5.036019325256348 -2.421388864517212
7.663744926452637 -4.022250652313232 -2.5
7.96255350112915 -3.392526865005493 -2.5
8.209712028503418 -2.740809202194214 -2.5
8.627079963684082 -0.6964526176452637 -2.5
-8.308695793151855 -1.220703097715159e-06 -2.5
-8.281752586364746 -0.6685693264007568 -2.5
-8.0672607421875 -1.988405704498291 -2.5
-7.356986999511719 -3.861233949661255 -2.5
-7.022426605224609 -4.440707683563232 -2.5
-6.64232873916626 -4.991372108459473 -2.5
-5.858979225158691 -5.190596580505371 -2.355220079421997
-5.422319412231445 -5.645218372344971 -2.355220079421997
-4.950473308563232 -6.063226222991943 -2.355220079421997
-3.903637647628784 -5.655379295349121 -2.067654609680176
-3.2574949264526367 -5.642138481140137 -1.9602915048599243
-3.0119481086730957 -6.347540378570557 -2.1140201091766357
-2.7756688594818115 -7.318841457366943 -2.355220079421997
-1.565698266029358 -7.669317245483398 -2.355220079421997
0.9435009360313416 -7.770435810089111 -2.355220079421997
3.9137449264526367 -6.778817176818848 -2.355220079421997
4.419267654418945 -6.402420520782471 -2.340782880783081
4.950463771820068 -6.06322717666626 -2.355220079421997
5.033393383026123 -5.240341663360596 -2.1863009929656982
7.022392272949219 -4.440711498260498 -2.5
7.881073951721191 -2.6310925483703613 -2.5
8.06722640991211 -1.988405704498291 -2.5
8.281723022460938 -0.6685742139816284 -2.5
-7.986830711364746 4.882812390860636e-06 -2.5
-7.883403301239014 -1.2811766862869263 -2.5
-7.347719669342041 -3.1305651664733887 -2.5
-6.750405311584473 -4.268682956695557 -2.5
-6.385014533996582 -4.79801607131958 -2.5
-5.693002700805664 -5.043550968170166 -2.380723714828491
-4.568784236907959 -5.595733642578125 -2.2612178325653076
-3.903637647628784 -5.655379295349121 -2.1509807109832764
-3.2574949264526367 -5.642138481140137 -2.0392906665802
-3.0119481086730957 -6.347540378570557 -2.1992135047912598
-1.505043864250183 -7.372217655181885 -2.355220079421997
-0.9069628715515137 -7.469419956207275 -2.355220079421997
-0.302978515625 -7.518182277679443 -2.355220079421997
2.093374013900757 -7.227208137512207 -2.355220079421997
2.6681299209594727 -7.03532600402832 -2.355220079421997
3.225580930709839 -6.797818660736084 -2.355220079421997
4.758691310882568 -5.828349590301514 -2.355220079421997
5.033393383026123 -5.240341663360596 -2.2744085788726807
5.692983150482178 -5.043549537658691 -2.380720853805542
6.384980201721191 -4.798017501831055 -2.5
6.75036096572876 -4.268680095672607 -2.5
7.071962833404541 -3.7116551399230957 -2.5
7.347700119018555 -3.1305174827575684 -2.5
7.754726409912109 -1.911376953125 -2.5
-7.662055492401123 -0.6185449361801147 -2.5
-7.587446212768555 -1.2330774068832397 -2.5
-6.806488990783691 -3.572308301925659 -2.5
-5.016577243804932 -5.222801208496094 -2.355220079421997
-4.568784236907959 -5.595733642578125 -2.349423885345459
-3.2574949264526367 -5.642138481140137 -2.11883807182312
-2.9488232135772705 -6.214505672454834 -2.2371084690093994
-1.5115771293640137 -5.218564510345459 -1.7669755220413208
2.014785051345825 -6.955874919891357 -2.355220079421997
3.6208837032318115 -6.271580696105957 -2.355220079421997
5.016557693481445 -5.222805023193359 -2.355220079421997
6.496923446655273 -4.108424186706543 -2.5
6.806449890136719 -3.572308301925659 -2.5
7.291352272033691 -2.4342150688171387 -2.5
7.463583946228027 -1.8396203517913818 -2.5
7.662031173706055 -0.6185449361801147 -2.5
-7.382875919342041 -0.5960070490837097 -2.5
-7.025707721710205 -2.3455188274383545 -2.5
-6.814184188842773 -2.903247117996216 -2.5
-6.5584716796875 -3.4421422481536865 -2.5
-6.260229587554932 -3.958721876144409 -2.5
-5.92138147354126 -4.449624061584473 -2.5
-4.848178386688232 -5.047472953796387 -2.362229108810425
-2.941704034805298 -6.199507713317871 -2.31610107421875
-1.5115673542022705 -5.218564510345459 -1.8337936401367188
-1.3957568407058716 -6.83690071105957 -2.355220079421997
-0.8411034941673279 -6.927046775817871 -2.355220079421997
0.8410937190055847 -6.92704963684082 -2.355220079421997
1.3957470655441284 -6.836907863616943 -2.355220079421997
1.536318302154541 -5.304053783416748 -1.8638341426849365
2.4743895530700684 -6.524473667144775 -2.355220079421997
2.9913671016693115 -6.30421257019043 -2.355220079421997
3.9639110565185547 -5.742724418640137 -2.355220079421997
4.413154125213623 -5.405138969421387 -2.355220079421997
4.848158836364746 -5.047474384307861 -2.362227439880371
5.921376705169678 -4.449624061584473 -2.5
6.814155101776123 -2.903247117996216 -2.5
7.025678634643555 -2.3455188274383545 -2.5
7.31094217300415 -1.188149333000183 -2.5
7.382846355438232 -0.5960094928741455 -2.5
-7.144604206085205 1.220703097715159e-06 -2.5
-6.936996936798096 -1.7098181247711182 -2.5
-6.326235294342041 -3.3202526569366455 -2.5
-6.038539886474609 -3.8185412883758545 -2.5
-5.711703777313232 -4.292055606842041 -2.5
-4.833579063415527 -5.032283782958984 -2.4415793418884277
-3.823559522628784 -5.539366245269775 -2.355220079421997
-3.2146923542022705 -5.567984580993652 -2.2497262954711914
-2.885453939437866 -6.080969333648682 -2.355220079421997
-1.3463232517242432 -6.59480094909668 -2.355220079421997
-0.8113183379173279 -6.681751728057861 -2.355220079421997
-0.2710302770137787 -6.725367069244385 -2.355220079421997
1.872622013092041 -6.465081691741943 -2.355220079421997
2.386772394180298 -6.293436050415039 -2.355220079421997
2.5182178020477295 -5.307083606719971 -2.0554842948913574
3.3653955459594727 -5.829071044921875 -2.355220079421997
3.823539972305298 -5.53936767578125 -2.355220079421997
4.833569049835205 -5.032281398773193 -2.441575765609741
5.347797870635986 -4.737739086151123 -2.5
5.711689472198486 -4.292060375213623 -2.5
6.038530349731445 -3.8185412883758545 -2.5
6.77688455581665 -2.2624597549438477 -2.5
6.936962604522705 -1.7098193168640137 -2.5
7.121410846710205 -0.574902355670929 -2.5
-6.697973251342773 -1.6509032249450684 -2.5
-6.543403148651123 -2.1845030784606934 -2.5
-6.346401214599609 -2.7039451599121094 -2.5
-6.108256816864014 -3.2058520317077637 -2.5
-5.83047342300415 -3.686965227127075 -2.5
-5.163539886474609 -4.574489593505859 -2.5
-4.121538162231445 -5.047983169555664 -2.361719846725464
-2.7860400676727295 -5.871438980102539 -2.355220079421997
-2.304555654525757 -6.076584339141846 -2.355220079421997
-1.084741234779358 -5.313315391540527 -1.9652738571166992
-0.213623046875 -5.300698280334473 -1.9225434064865112
0.21312987804412842 -5.288990497589111 -1.9182971715927124
0.7833495736122131 -6.451521873474121 -2.355220079421997
1.2999560832977295 -6.367564678192139 -2.355220079421997
1.8080956935882568 -6.242320537567139 -2.355220079421997
2.786020517349243 -5.871440410614014 -2.355220079421997
3.24944806098938 -5.628223896026611 -2.355220079421997
4.121542930603027 -5.047982215881348 -2.3617191314697266
4.778691291809082 -4.975156307220459 -2.5
5.163535118103027 -4.574495792388916 -2.5
5.514882564544678 -4.144168376922607 -2.5
6.543378829956055 -2.184504270553589 -2.5
6.697939395904541 -1.6509045362472534 -2.5
6.809057235717773 -1.1065856218338013 -2.5
6.876029968261719 -0.5550940036773682 -2.5
-6.645238876342773 -0.5364587306976318 -2.5
-6.323754787445068 -2.111173152923584 -2.5
-5.903207778930664 -3.0982372760772705 -2.5
-5.63476037979126 -3.563201904296875 -2.5
-4.6182861328125 -4.808140754699707 -2.5
-4.109487056732178 -5.033204078674316 -2.436598777770996
-2.6925048828125 -5.674349308013916 -2.355220079421997
-2.227182626724243 -5.87260103225708 -2.355220079421997
-0.7570751905441284 -6.234957218170166 -2.355220079421997
-0.25291013717651367 -6.275655269622803 -2.355220079421997
0.21312987804412842 -5.288989067077637 -1.9849278926849365
0.6434912085533142 -5.299677848815918 -2.001922845840454
1.0828466415405273 -5.304117202758789 -2.0300166606903076
2.692499876022339 -5.674350261688232 -2.355220079421997
4.109477519989014 -5.033201694488525 -2.436598300933838
4.618276119232178 -4.808143138885498 -2.5
4.990200042724609 -4.420937538146973 -2.5
5.9031982421875 -3.098236083984375 -2.5
6.133359432220459 -2.613177537918091 -2.5
6.645209789276123 -0.5364599227905273 -2.5
-6.448578834533691 2.441406195430318e-06 -2.5
-6.261196136474609 -1.5432469844818115 -2.5
-6.116713523864746 -2.042055606842041 -2.5
-5.450278282165527 -3.446535587310791 -2.5
-4.826821327209473 -4.276188850402832 -2.5
-4.078364372253418 -4.995090007781982 -2.5
-2.6043407917022705 -5.488564491271973 -2.355220079421997
-2.1542625427246094 -5.680333137512207 -2.355220079421997
-0.7322900295257568 -6.030818939208984 -2.355220079421997
-0.24462890625 -6.070184230804443 -2.355220079421997
0.7322704792022705 -6.030818939208984 -2.355220079421997
2.154247999191284 -5.680331707000732 -2.355220079421997
2.6043407917022705 -5.488566875457764 -2.355220079421997
3.037548780441284 -5.261202335357666 -2.355220079421997
3.48186993598938 -5.044378757476807 -2.376255989074707
4.078359127044678 -4.995090007781982 -2.5
4.826816082000732 -4.276192665100098 -2.5
5.155253887176514 -3.8739256858825684 -2.5
5.709917068481445 -2.996798038482666 -2.5
5.932548522949219 -2.527620792388916 -2.5
6.11669921875 -2.042055606842041 -2.5
6.365034103393555 -1.034423828125 -2.5
-6.242445945739746 1.220703097715159e-06 -2.5
-6.222201824188232 -0.502307116985321 -2.5
-6.06102991104126 -1.4939135313034058 -2.5
-5.921176433563232 -1.976778507232666 -2.5
-5.742905139923096 -2.446817636489868 -2.5
-5.527387619018555 -2.90099835395813 -2.5
-5.27603006362915 -3.336359739303589 -2.5
-4.990473747253418 -3.7500829696655273 -2.5
-4.324291706085205 -4.502050876617432 -2.5
-3.948002815246582 -4.835410118103027 -2.5
-3.4726805686950684 -5.031045913696289 -2.4482414722442627
-1.5115673542022705 -5.218564510345459 -2.1758673191070557
-1.1763231754302979 -5.762055397033691 -2.355220079421997
-0.7088720798492432 -5.838028430938721 -2.355220079421997
-0.23680663108825684 -5.876137733459473 -2.355220079421997
0.7088671922683716 -5.838027000427246 -2.355220079421997
1.176332950592041 -5.762056827545166 -2.355220079421997
1.6361571550369263 -5.648721694946289 -2.355220079421997
2.5210888385772705 -5.3131103515625 -2.355220079421997
3.472670793533325 -5.031047344207764 -2.4482409954071045
3.9479832649230957 -4.835408687591553 -2.5
4.672509670257568 -4.139495849609375 -2.5
4.990454196929932 -3.750086545944214 -2.5
5.742895603179932 -2.446817636489868 -2.5
6.06102991104126 -1.4939147233963013 -2.5
6.161567211151123 -1.0013574361801147 -2.5
6.22216272354126 -0.5023095607757568 -2.5
-6.047387599945068 0.0 -2.5
-6.027778148651123 -0.4866113066673279 -2.5
-5.871654987335205 -1.4472362995147705 -2.5
-5.736166954040527 -1.9150121212005615 -2.5
-5.563481330871582 -2.3703672885894775 -2.5
-5.354701995849609 -2.810358762741089 -2.5
-5.111186504364014 -3.232119083404541 -2.5
-4.189174652099609 -4.361384391784668 -2.5
-3.82464337348938 -4.684326171875 -2.5
-2.442328929901123 -5.147101879119873 -2.355220079421997
-1.5115673542022705 -5.218564510345459 -2.246044158935547
-0.6867235898971558 -5.655622482299805 -2.355220079421997
-0.2294042855501175 -5.692541599273682 -2.355220079421997
0.6867089867591858 -5.655623435974121 -2.355220079421997
1.1395848989486694 -5.582027435302734 -2.355220079421997
1.5850292444229126 -5.472224235534668 -2.355220079421997
2.020219564437866 -5.326937198638916 -2.355220079421997
2.442319393157959 -5.147104263305664 -2.355220079421997
3.435292959213257 -4.976893424987793 -2.5
4.189159870147705 -4.361385345458984 -2.5
5.969062328338623 -0.9700695872306824 -2.5
6.027763366699219 -0.48661497235298157 -2.5
-5.862524509429932 0.0 -2.5
-5.78661584854126 -0.9404150247573853 -2.5
-5.191010475158691 -2.724449396133423 -2.5
-4.686752796173096 -3.5218615531921387 -2.5
-4.061118125915527 -4.228065013885498 -2.5
-3.3302879333496094 -4.82475471496582 -2.5
-1.1047314405441284 -5.411392688751221 -2.355220079421997
-0.6657323837280273 -5.48274040222168 -2.355220079421997
-0.22239257395267487 -5.518531322479248 -2.355220079421997
1.958471655845642 -5.164103984832764 -2.355220079421997
2.9018211364746094 -5.026110649108887 -2.474897861480713
3.330278158187866 -4.824759483337402 -2.5
4.061098575592041 -4.228068828582764 -2.5
4.686738014221191 -3.521862745285034 -2.5
5.190996170043945 -2.724449396133423 -2.5
5.560815334320068 -1.8564733266830444 -2.5
5.843510627746582 -0.47174072265625 -2.5
-5.687036037445068 1.220703097715159e-06 -2.5
-5.394360065460205 -1.800899624824524 -2.5
-5.035620212554932 -2.642890453338623 -2.5
-4.256801605224609 -3.771193742752075 -2.5
-3.9395458698272705 -4.101496696472168 -2.5
-3.596733331680298 -4.405197620391846 -2.5
-1.4905908107757568 -5.146143913269043 -2.355220079421997
-1.0716845989227295 -5.249401569366455 -2.355220079421997
0.21083983778953552 -5.232243537902832 -2.301945209503174
1.9133641719818115 -5.045169353485107 -2.3719820976257324
2.387260675430298 -5.031092643737793 -2.448007822036743
2.843500852584839 -4.925106048583984 -2.5
3.5967187881469727 -4.405202388763428 -2.5
3.9395360946655273 -4.101499080657959 -2.5
4.256792068481445 -3.7711973190307617 -2.5
4.546450138092041 -3.416433095932007 -2.5
4.806616306304932 -3.039525032043457 -2.5
5.231938362121582 -2.2291221618652344 -2.5
5.394350528717041 -1.8009008169174194 -2.5
5.6685791015625 -0.4576159417629242 -2.5
-5.52017068862915 1.220703097715159e-06 -2.5
-5.502270221710205 -0.4441894292831421 -2.5
-5.236069202423096 -1.7480602264404297 -2.5
-4.887856483459473 -2.5653440952301025 -2.5
-4.413061618804932 -3.316195011138916 -2.5
-3.4911961555480957 -4.275944709777832 -2.5
-3.135815382003784 -4.542996883392334 -2.5
-2.760073184967041 -4.780594348907471 -2.5
-1.4610106945037842 -5.044008731842041 -2.3782565593719482
-0.6268554329872131 -5.162558555603027 -2.355220079421997
-0.20970214903354645 -5.203570365905762 -2.358534097671509
0.20969726145267487 -5.203569412231445 -2.358534097671509
0.6268505454063416 -5.162558555603027 -2.355220079421997
2.3664355278015137 -4.987191200256348 -2.5
2.760068416595459 -4.780595779418945 -2.5
3.4911863803863525 -4.275947093963623 -2.5
4.413036823272705 -3.316197395324707 -2.5
4.665575981140137 -2.9503417015075684 -2.5
5.078432559967041 -2.163717031478882 -2.5
5.236073970794678 -1.7480590343475342 -2.5
-5.361284255981445 1.220703097715159e-06 -2.5
-4.747172832489014 -2.4915051460266113 -2.5
-4.286030292510986 -3.220743417739868 -2.5
-4.012963771820068 -3.555178165435791 -2.5
-3.7138915061950684 -3.8665599822998047 -2.5
-3.0455517768859863 -4.412238597869873 -2.5
-2.6806395053863525 -4.64299201965332 -2.5
-2.298334836959839 -4.843637466430664 -2.5
-1.9011377096176147 -5.012873649597168 -2.5
-1.457543969154358 -5.032032489776611 -2.4429266452789307
-1.0289745330810547 -5.040209770202637 -2.398765802383423
0.6126366853713989 -5.045528411865234 -2.3700485229492188
1.4575244188308716 -5.032033443450928 -2.4429259300231934
2.6806297302246094 -4.64299201965332 -2.5
3.045542001724243 -4.412240028381348 -2.5
3.7138671875 -3.866563558578491 -2.5
4.286020278930664 -3.2207422256469727 -2.5
4.531283855438232 -2.86541748046875 -2.5
4.747162818908691 -2.4915051460266113 -2.5
5.205478191375732 -1.2830395698547363 -2.5
5.291845798492432 -0.8600121736526489 -2.5
5.343886375427246 -0.431403785943985 -2.5
