ply
format ascii 1.0
element vertex 912
property float x
property float y
property float z
end_header
-4.630576133728027 12.209853172302246 3.498995780944824
-6.644726276397705 11.50902271270752 3.560901403427124
-14.561717987060547 9.208271026611328 4.6164751052856445
5.946034908294678 8.614325523376465 2.680711030960083
4.10107421875 10.813612937927246 2.961914539337158
2.3842992782592773 11.67904281616211 3.0527734756469727
1.4303125143051147 11.7795991897583 3.038989782333374
0.4831323027610779 11.988534927368164 3.072835683822632
-1.5786889791488647 13.001708984375 3.3542821407318115
-2.660781145095825 13.033397674560547 3.4067907333374023
-4.885932445526123 12.883173942565918 3.5287797451019287
-5.99444055557251 12.633027076721191 3.5811607837677
-7.026742935180664 12.1707124710083 3.5991997718811035
-14.561296463012695 9.207998275756836 4.412317276000977
5.946034908294678 8.614325523376465 2.5574638843536377
4.278681755065918 11.281933784484863 2.9481091499328613
2.4922778606414795 12.207978248596191 3.0443146228790283
-0.5381982326507568 13.35538101196289 3.2657885551452637
-4.008847713470459 13.8401460647583 3.520581007003784
8.919402122497559 10.924277305603027 3.2806408405303955
4.455146312713623 11.74721622467041 2.9225480556488037
2.6098437309265137 12.783827781677246 3.035104990005493
1.6070727109909058 13.235331535339355 3.101410388946533
0.5541552901268005 13.750868797302246 3.20131516456604
-3.015505313873291 14.77098560333252 3.506892681121826
-7.923867225646973 13.724570274353027 3.6864988803863525
-14.560461044311523 9.207470893859863 4.007440567016602
3.7240283489227295 12.856855392456055 2.9577319622039795
2.7366626262664795 13.405038833618164 3.023181676864624
-1.8959887027740479 15.614921569824219 3.475743293762207
-3.2606565952301025 15.97182559967041 3.602057933807373
-4.599096775054932 15.8779296875 3.652736186981201
-7.237812519073486 15.253378868103027 3.7307090759277344
8.919386863708496 10.924267768859863 2.9527947902679443
5.809465408325195 12.2431640625 2.8373358249664307
2.8600292205810547 14.009325981140137 2.993678569793701
0.6174682378768921 15.3220796585083 3.210639476776123
-3.541201114654541 17.34599494934082 3.7066991329193115
-6.467082500457764 17.052309036254883 3.818434476852417
-7.824055194854736 16.488876342773438 3.8212711811065674
-9.113771438598633 15.78554630279541 3.81636643409729
8.919391632080078 10.924267768859863 2.7900352478027344
5.946034908294678 8.614325523376465 2.070749044418335
7.011601448059082 12.144462585449219 2.774245500564575
5.096396446228027 13.438066482543945 2.843251943588257
-2.108708381652832 17.36676788330078 3.4609453678131104
-7.017651081085205 18.504066467285156 3.915125608444214
-8.466584205627441 17.84297752380371 3.907153844833374
-9.833549499511719 17.032236099243164 3.890798330307007
-14.55923080444336 9.20669937133789 3.4079222679138184
9.18074893951416 11.244364738464355 2.704988956451416
7.348258972167969 12.727558135986328 2.738579034805298
6.367680549621582 13.41957950592041 2.767869710922241
5.331676959991455 14.058456420898438 2.801748514175415
-1.0302783250808716 25.566303253173828 4.767943382263184
-2.108698606491089 17.366777420043945 3.2599291801452637
-6.180639743804932 21.33802604675293 4.139611721038818
-9.234725952148438 19.46182632446289 4.0141143798828125
-10.660802841186523 18.465087890625 3.973118782043457
9.650046348571777 11.819159507751465 2.668660879135132
5.946034908294678 8.614325523376465 1.83069908618927
7.713273525238037 13.35977554321289 2.698085308074951
5.593608379364014 14.749072074890137 2.758881092071533
4.464128494262695 15.41195297241211 2.8063342571258545
4.931179046630859 24.154481887817383 4.311730861663818
3.3428001403808594 27.5302677154541 4.850379943847656
1.0671899318695068 26.481517791748047 4.635354518890381
-6.852143287658691 23.656347274780273 4.307540416717529
4.673664569854736 16.13533592224121 2.746569871902466
4.931179046630859 24.154481887817383 4.03071928024292
3.5580906867980957 29.303319931030273 4.826287746429443
1.1463549137115479 28.446123123168945 4.654720783233643
-2.108698606491089 17.366777420043945 2.8603265285491943
-7.508737564086914 25.92316436767578 4.41266393661499
-9.33828353881836 24.623085021972656 4.305675983428955
-13.213666915893555 22.886775970458984 4.320877552032471
-14.558012008666992 9.205927848815918 2.816262722015381
-1.1917284727096558 29.57268524169922 4.5029168128967285
-9.85721206665039 25.991336822509766 4.229222297668457
-13.213666915893555 22.886775970458984 4.020730972290039
5.946034908294678 8.614325523376465 1.4740242958068848
7.727487564086914 16.285322189331055 2.538440465927124
6.440314769744873 16.981693267822266 2.5576231479644775
-9.857199668884277 25.99134635925293 3.9145727157592773
-11.57784652709961 24.39982795715332 3.8032708168029785
12.071101188659668 14.78441333770752 2.472438335418701
5.946034908294678 8.614325523376465 1.3559114933013916
9.495009422302246 16.445844650268555 2.459953546524048
8.143515586853027 17.162078857421875 2.4607479572296143
4.884052753448486 16.861713409423828 2.2740302085876465
-8.020556449890137 27.690160751342773 3.734405517578125
-9.857199668884277 25.99134635925293 3.6008996963500977
-13.272868156433105 22.98930549621582 3.438720703125
-14.556808471679688 9.20516586303711 2.230980396270752
12.649091720581055 15.492323875427246 2.3657851219177246
10.080472946166992 17.45988655090332 2.38478946685791
7.106589317321777 18.738515853881836 2.3705830574035645
-11.744876861572266 24.751840591430664 3.2407262325286865
-14.556407928466797 9.204912185668945 2.0372817516326904
9.123205184936523 19.22675323486328 2.278503656387329
7.493991374969482 19.759990692138672 2.2626430988311768
4.884055137634277 16.861713409423828 1.8795113563537598
-2.108708381652832 17.36676788330078 1.8730376958847046
-8.136260032653809 28.089628219604492 3.1310412883758545
-9.868120193481445 26.0201416015625 2.9794793128967285
-13.272868156433105 22.98930549621582 2.842129945755005
-14.556008338928223 9.204657554626465 1.8440710306167603
12.649091720581055 15.492323875427246 1.9174184799194336
9.75231647491455 20.552547454833984 2.180931568145752
4.931179046630859 24.154481887817383 2.363442897796631
3.141862630844116 25.87541389465332 2.498884439468384
-9.868120193481445 26.0201416015625 2.667910099029541
-14.555609703063965 9.204413414001465 1.6511095762252808
12.649086952209473 15.492314338684082 1.693977952003479
5.94603967666626 8.614325523376465 0.8865460157394409
12.459892272949219 21.581146240234375 2.1106460094451904
10.192606925964355 21.4804630279541 2.0137734413146973
4.88406229019165 16.861703872680664 1.486855387687683
1.0537596940994263 26.14860725402832 2.2165253162384033
-4.033952713012695 19.75967788696289 1.708117961883545
-6.505600452423096 11.26805591583252 1.102020263671875
-14.555214881896973 9.204169273376465 1.458654761314392
5.946034908294678 8.614325523376465 0.7698290944099426
11.395421981811523 24.015296936035156 1.9550014734268188
9.132721900939941 24.080970764160156 1.8941664695739746
4.931183815002441 24.15447235107422 1.8131250143051147
3.1418652534484863 25.87540054321289 1.917028784751892
1.0537670850753784 26.148603439331055 1.9247020483016968
-1.0502172708511353 8.649374961853027 0.6408047080039978
-1.804846167564392 8.840761184692383 0.6636208891868591
-4.772121429443359 10.057050704956055 0.8187090754508972
-6.505600452423096 11.26805591583252 0.9569329619407654
12.64909839630127 15.492314338684082 1.2482974529266357
10.100629806518555 26.63314437866211 1.7778081893920898
4.931183815002441 24.15447235107422 1.538671851158142
0.3405102491378784 8.44936466217041 0.5277862548828125
-0.3442456126213074 8.542333602905273 0.5335928201675415
-2.6338963508605957 9.093271255493164 0.5908758640289307
-3.5864133834838867 9.45663070678711 0.6312454342842102
-4.772114276885986 10.057050704956055 0.6947805881500244
-6.505600452423096 11.26805591583252 0.8120821714401245
5.946034908294678 8.614325523376465 0.5369274616241455
1.0227221250534058 8.422773361206055 0.43523284792900085
0.3405102491378784 8.44936466217041 0.43377530574798584
-0.3442456126213074 8.542333602905273 0.4385473430156708
-4.772121429443359 10.057050704956055 0.571024477481842
2.449899911880493 8.458037376403809 0.3539172410964966
0.3405102491378784 8.44936466217041 0.3398706018924713
-0.3442456126213074 8.542333602905273 0.34360992908477783
-1.8048412799835205 8.840761184692383 0.3626556396484375
-3.5864133834838867 9.456621170043945 0.406494140625
-4.772121429443359 10.057050704956055 0.4474078416824341
3.2420384883880615 8.548554420471191 0.26602354645729065
2.449899911880493 8.458037376403809 0.25621917843818665
1.7168725728988647 8.409765243530273 0.2497454732656479
1.0227221250534058 8.422773361206055 0.2468768209218979
0.3405102491378784 8.44936466217041 0.2460504025220871
-0.3442456126213074 8.542333602905273 0.24875731766223907
-1.804846167564392 8.840761184692383 0.2625451683998108
12.64909839630127 15.492314338684082 0.360189825296402
5.946044921875 8.614325523376465 0.18850035965442657
5.195268630981445 8.998466491699219 0.18712584674358368
4.128764629364014 8.701181411743164 0.17344726622104645
1.7168725728988647 8.409765243530273 0.15457701683044434
-0.3442456126213074 8.542333602905273 0.15396544337272644
-1.0502172708511353 8.649374961853027 0.15691222250461578
-2.6338963508605957 9.093271255493164 0.17049437761306763
-3.5864133834838867 9.456621170043945 0.18214201927185059
-4.772114276885986 10.057050704956055 0.20047515630722046
-14.551044464111328 9.201522827148438 0.3100527822971344
12.64909839630127 15.492314338684082 0.1385205090045929
5.195268630981445 8.998476028442383 0.07196410745382309
4.128764629364014 8.701181411743164 0.06670410186052322
0.3405102491378784 8.44936466217041 0.05856719985604286
-6.505600452423096 11.26805591583252 0.09011474251747131
-14.5502290725708 9.201005935668945 0.119232177734375
8.919377326965332 10.924247741699219 -0.05860717594623566
5.94603967666626 8.614325523376465 -0.04349822923541069
5.195268630981445 8.998466491699219 -0.04317932203412056
4.128764629364014 8.701181411743164 -0.04002365097403526
3.2420384883880615 8.548554420471191 -0.03799392655491829
2.449899911880493 8.458037376403809 -0.036593321710824966
1.7168725728988647 8.409765243530273 -0.03566894307732582
-0.3442456126213074 8.542333602905273 -0.03552795201539993
-1.0502172708511353 8.649374961853027 -0.03620819002389908
-2.6338963508605957 9.093271255493164 -0.03934158384799957
-3.5864133834838867 9.456621170043945 -0.0420297235250473
-4.772121429443359 10.057050704956055 -0.04626007005572319
-14.549410820007324 9.200478553771973 -0.07153671234846115
1.7168725728988647 8.409765243530273 -0.13079237937927246
0.3405102491378784 8.44936466217041 -0.12885712087154388
-0.3442407250404358 8.542333602905273 -0.13027465343475342
-1.0502172708511353 8.649374961853027 -0.13276855647563934
-1.8048510551452637 8.840771675109863 -0.13749557733535767
-3.5864133834838867 9.456621170043945 -0.15411682426929474
-6.505600452423096 11.26805591583252 -0.19826705753803253
-14.548590660095215 9.199960708618164 -0.2622998058795929
20.776567459106445 1.67727530002594 -0.5487090945243835
4.128769397735596 8.701181411743164 -0.25353163480758667
3.2420384883880615 8.548554420471191 -0.24067489802837372
2.449899911880493 8.458037376403809 -0.23180465400218964
1.7168725728988647 8.409765243530273 -0.22594787180423737
1.0227221250534058 8.422773361206055 -0.22335265576839447
-0.3442456126213074 8.542333602905273 -0.22505371272563934
-1.0502172708511353 8.649374961853027 -0.22936202585697174
-3.5864133834838867 9.456621170043945 -0.2662411332130432
-6.505602836608887 11.26805591583252 -0.3425123393535614
-14.547775268554688 9.199453353881836 -0.45310622453689575
5.946034908294678 8.614325523376465 -0.39165541529655457
3.2420458793640137 8.548544883728027 -0.3420941233634949
1.7168725728988647 8.409765243530273 -0.32116103172302246
0.3405102491378784 8.44936466217041 -0.31640928983688354
-0.3442456126213074 8.542333602905273 -0.3198901414871216
-2.6338963508605957 9.093271255493164 -0.3542312681674957
-4.772121429443359 10.057050704956055 -0.4165228307247162
18.065555572509766 1.4584081172943115 -0.8793798685073853
27.464067459106445 6.769287109375 -1.372418761253357
8.919377326965332 10.924257278442383 -0.6842681765556335
5.195268630981445 8.998476028442383 -0.5041418075561523
4.128764629364014 8.701181411743164 -0.4672929346561432
3.2420506477355957 8.548544883728027 -0.44359633326530457
2.449899911880493 8.458037376403809 -0.4272468388080597
1.7168725728988647 8.409765243530273 -0.41645216941833496
0.3405102491378784 8.44936466217041 -0.4102906584739685
-0.3442456126213074 8.542333602905273 -0.4148043692111969
-1.0502172708511353 8.649374961853027 -0.4227435290813446
-1.804846167564392 8.840761184692383 -0.4377955496311188
-2.6338963508605957 9.093271255493164 -0.45933470129966736
-3.586416006088257 9.45663070678711 -0.4907177686691284
-4.772114276885986 10.057050704956055 -0.5401081442832947
19.002172470092773 0.0 -1.1331626176834106
18.065555572509766 1.4584081172943115 -1.0808134078979492
20.770366668701172 3.3755176067352295 -1.254855751991272
27.426958084106445 6.76012659072876 -1.6845104694366455
23.48833465576172 7.841562271118164 -1.476682424545288
24.30912971496582 10.357138633728027 -1.5757232904434204
8.919382095336914 10.924267768859863 -0.8410090208053589
5.94603967666626 8.614325523376465 -0.624198317527771
5.195268630981445 8.998476028442383 -0.6196220517158508
3.2420458793640137 8.548544883728027 -0.5452077984809875
1.7168725728988647 8.409765243530273 -0.5118460059165955
1.0227221250534058 8.422773361206055 -0.5059672594070435
-1.0502221584320068 8.649365425109863 -0.5195791721343994
-1.804846167564392 8.840761184692383 -0.5380784273147583
-2.6338963508605957 9.093271255493164 -0.564551055431366
-3.5864133834838867 9.456621170043945 -0.603123128414154
-6.505602836608887 11.26805591583252 -0.7759025692939758
-14.54531478881836 9.19789981842041 -1.0262608528137207
18.065561294555664 1.4584081172943115 -1.2825133800506592
20.753915786743164 3.3728418350219727 -1.4878548383712769
27.4081974029541 6.755517482757568 -1.997501015663147
5.946034908294678 8.614325523376465 -0.7406777739524841
4.128769397735596 8.701181411743164 -0.6815134882926941
3.2420384883880615 8.548554420471191 -0.6469535827636719
1.0227221250534058 8.422773361206055 -0.6003895401954651
0.3405102491378784 8.44936466217041 -0.598379373550415
-1.0502172708511353 8.649374961853027 -0.616541862487793
-1.804846167564392 8.840761184692383 -0.6384939551353455
-6.505600452423096 11.26805591583252 -0.9207000732421875
-21.455751419067383 16.122953414916992 -1.8991378545761108
-14.544496536254883 9.197372436523438 -1.2177112102508545
15.265756607055664 2.4809277057647705 -1.2667936086654663
15.295649528503418 3.7700390815734863 -1.2903324365615845
24.22427749633789 15.31850528717041 -2.347599983215332
22.91309928894043 17.21808624267578 -2.347599983215332
19.85445785522461 20.67068862915039 -2.347599983215332
8.919363021850586 10.924247741699219 -1.1551486253738403
5.195268630981445 8.998466491699219 -0.8510705232620239
4.128769397735596 8.701181411743164 -0.788863480091095
2.449899911880493 8.458037376403809 -0.7212597727775574
-1.0502172708511353 8.649374961853027 -0.7136574983596802
-1.804846167564392 8.840761184692383 -0.7390667796134949
-2.6338963508605957 9.093271255493164 -0.7754278182983398
-16.281497955322266 23.58782196044922 -2.347599983215332
-18.12676429748535 22.2012882232666 -2.347599983215332
-21.455751419067383 16.122953414916992 -2.198284864425659
-14.543673515319824 9.196855545043945 -1.4094425439834595
19.002182006835938 0.0 -1.7686206102371216
14.837260246276855 3.6570701599121094 -1.4223016500473022
24.71079444885254 10.528281211853027 -2.5
21.318037033081055 13.48070240020752 -2.347599983215332
20.164169311523438 15.152372360229492 -2.347599983215332
18.8795108795166 16.72579574584961 -2.347599983215332
17.472421646118164 18.19072151184082 -2.347599983215332
8.919382095336914 10.924267768859863 -1.3126318454742432
5.195268630981445 8.998466491699219 -0.9670953154563904
4.128764629364014 8.701181411743164 -0.8964076042175293
3.2420458793640137 8.548544883728027 -0.8509508967399597
2.449899911880493 8.458037376403809 -0.8195874094963074
1.0227221250534058 8.422773361206055 -0.7897042632102966
-1.804846167564392 8.840761184692383 -0.8398236036300659
-4.772114276885986 10.057050704956055 -1.0360897779464722
-14.328164100646973 20.7579288482666 -2.347599983215332
-18.879497528076172 16.72579574584961 -2.347599983215332
-20.164148330688477 15.152382850646973 -2.347599983215332
-14.542848587036133 9.196337699890137 -1.6014982461929321
-23.783485412597656 12.482539176940918 -2.5
-25.47783851623535 8.505751609802246 -2.5
-26.079652786254883 6.428027153015137 -2.5
-26.773054122924805 2.1613378524780273 -2.5
23.97760772705078 -9.765624781721272e-06 -2.5
18.485151290893555 1.492285132408142 -1.9336066246032715
14.370600700378418 2.335439443588257 -1.5179928541183472
22.743608474731445 7.592929363250732 -2.5
19.030248641967773 12.033984184265137 -2.347599983215332
18.00020980834961 13.526259422302246 -2.347599983215332
8.919357299804688 10.924238204956055 -1.4704318046569824
5.946034908294678 8.614325523376465 -1.0913485288619995
5.195268630981445 8.998466491699219 -1.0833598375320435
4.128764629364014 8.701181411743164 -1.004173755645752
3.2420384883880615 8.548554420471191 -0.953251302242279
1.7168725728988647 8.409765243530273 -0.8949207663536072
1.0227221250534058 8.422773361206055 -0.884641706943512
0.3405102491378784 8.44936466217041 -0.8816796541213989
-0.3442456126213074 8.542333602905273 -0.8913789391517639
-1.0502221584320068 8.649365425109863 -0.9084417223930359
-3.5864133834838867 9.456621170043945 -1.0545120239257812
-4.772114276885986 10.057050704956055 -1.1606472730636597
-6.505600452423096 11.26805591583252 -1.3566030263900757
-12.790488243103027 18.530223846435547 -2.347599983215332
-16.853374481201172 14.930819511413574 -2.347599983215332
-21.231082916259766 11.142919540405273 -2.5
-22.05885887145996 9.398427963256836 -2.5
-22.743627548217773 7.592929363250732 -2.5
-23.280853271484375 5.738193035125732 -2.5
21.578691482543945 1.7420214414596558 -2.5
14.099955558776855 2.2914745807647705 -1.6496145725250244
19.139057159423828 10.044921875 -2.4960734844207764
15.216625213623047 13.480731964111328 -2.347599983215332
14.082529067993164 14.661455154418945 -2.347599983215332
1.0227221250534058 8.422773361206055 -0.9797994494438171
-1.804846167564392 8.840761184692383 -1.0419836044311523
-3.586418390274048 9.45663070678711 -1.167941689491272
-14.082524299621582 14.6614351272583 -2.347599983215332
-16.25200843811035 12.212587356567383 -2.347599983215332
-19.16914176940918 10.060742378234863 -2.5
-20.53476333618164 6.855507850646973 -2.5
-21.368539810180664 3.4727439880371094 -2.5
-21.578630447387695 1.7419629096984863 -2.5
19.664018630981445 1.5874608755111694 -2.5
18.149351119995117 7.732705116271973 -2.5
13.866442680358887 12.284589767456055 -2.347599983215332
8.91937255859375 10.924247741699219 -1.787180781364441
5.94603967666626 8.614325523376465 -1.3264394998550415
5.195268630981445 8.998476028442383 -1.3167251348495483
4.128769397735596 8.701181411743164 -1.2204819917678833
3.2420506477355957 8.548544883728027 -1.158591866493225
2.449899911880493 8.458037376403809 -1.115889310836792
1.7168725728988647 8.409765243530273 -1.0876957178115845
-0.3442456126213074 8.542333602905273 -1.0833914279937744
-1.0502172708511353 8.649374961853027 -1.1041277647018433
-1.8048412799835205 8.840761184692383 -1.143441081047058
-18.149330139160156 7.732734203338623 -2.5
-19.15472412109375 4.721200942993164 -2.5
-19.472497940063477 3.16460919380188 -2.5
-19.664005279541016 1.587441325187683 -2.5
18.116069793701172 0.0 -2.5
18.05731964111328 1.4577538967132568 -2.5
14.029494285583496 2.280019521713257 -1.9614580869674683
17.183744430541992 5.736786842346191 -2.5
16.666400909423828 7.100888729095459 -2.5
15.063119888305664 7.905722618103027 -2.347599983215332
13.599884986877441 10.219648361206055 -2.347599983215332
12.733437538146973 11.280858993530273 -2.347599983215332
8.919357299804688 10.924238204956055 -1.9461981058120728
5.946034908294678 8.614325523376465 -1.4444636106491089
5.195268630981445 8.998476028442383 -1.433884859085083
3.2420458793640137 8.548544883728027 -1.2616803646087646
0.3405102491378784 8.44936466217041 -1.1669515371322632
-1.0502221584320068 8.649365425109863 -1.2023712396621704
-1.804846167564392 8.840761184692383 -1.2451822757720947
-2.6338963508605957 9.093271255493164 -1.3064430952072144
-4.772121429443359 10.057050704956055 -1.5361813306808472
-6.505600452423096 11.26805591583252 -1.7955368757247925
-11.784425735473633 12.268877029418945 -2.347599983215332
-12.733439445495605 11.28084945678711 -2.347599983215332
-13.599870681762695 10.219667434692383 -2.347599983215332
-16.04096794128418 8.4189453125 -2.5
-16.666385650634766 7.100888729095459 -2.5
-17.881450653076172 2.9060449600219727 -2.5
-18.057302474975586 1.4577441215515137 -2.5
16.743764877319336 9.765624781721272e-06 -2.5
14.044233322143555 2.282421827316284 -2.124446153640747
13.758668899536133 3.3912107944488525 -2.1157782077789307
15.88206958770752 5.302216529846191 -2.5
13.92209243774414 7.306865215301514 -2.347599983215332
13.288976669311523 8.403447151184082 -2.347599983215332
12.569697380065918 9.445508003234863 -2.347599983215332
10.891752243041992 11.33951187133789 -2.347599983215332
5.195268630981445 8.998466491699219 -1.5514036417007446
3.2420384883880615 8.548554420471191 -1.3650860786437988
1.7168725728988647 8.409765243530273 -1.2815548181533813
0.34050291776657104 8.44937515258789 -1.262593388557434
-0.3442456126213074 8.542333602905273 -1.2764832973480225
-4.772114276885986 10.057050704956055 -1.6620837450027466
-8.931714057922363 12.939824104309082 -2.347599983215332
-10.891733169555664 11.339521408081055 -2.347599983215332
-11.768866539001465 10.426318168640137 -2.347599983215332
-12.569682121276855 9.445508003234863 -2.347599983215332
-16.25720977783203 4.007030963897705 -2.5
15.510639190673828 1.2521581649780273 -2.5
15.35958480834961 2.496171712875366 -2.5
13.857184410095215 3.415478467941284 -2.2928810119628906
14.760268211364746 4.927704811096191 -2.5
14.315888404846191 6.099423885345459 -2.5
12.938722610473633 6.790761470794678 -2.347599983215332
12.35033893585205 7.809873104095459 -2.347599983215332
11.681852340698242 8.778339385986328 -2.347599983215332
10.122431755065918 10.538564682006836 -2.347599983215332
8.919386863708496 10.924267768859863 -2.2657480239868164
5.946034908294678 8.614325523376465 -1.6816271543502808
4.128764629364014 8.701181411743164 -1.5472981929779053
1.7168725728988647 8.409765243530273 -1.3789548873901367
1.0227221250534058 8.422773361206055 -1.36311674118042
-1.0502172708511353 8.649374961853027 -1.3997876644134521
-1.804846167564392 8.840761184692383 -1.4496279954910278
-2.6338963508605957 9.093271255493164 -1.5209475755691528
-8.300825119018555 12.02586841583252 -2.347599983215332
-9.241586685180664 11.3189058303833 -2.347599983215332
-10.937600135803223 9.689882278442383 -2.347599983215332
-11.681838035583496 8.778339385986328 -2.347599983215332
-12.350326538085938 7.809873104095459 -2.347599983215332
-13.77865219116211 7.231611251831055 -2.5
-14.315878868103027 6.099443435668945 -2.5
-14.76025104522705 4.927685260772705 -2.5
-15.108903884887695 3.724003791809082 -2.5
-15.359572410583496 2.4961814880371094 -2.5
14.483942985534668 1.169277310371399 -2.5
13.783239364624023 4.601523399353027 -2.5
11.532832145690918 7.292910099029541 -2.347599983215332
10.90860366821289 8.197275161743164 -2.347599983215332
10.213613510131836 9.048476219177246 -2.347599983215332
8.629875183105469 10.569686889648438 -2.347599983215332
5.946034908294678 8.614325523376465 -1.8008297681808472
2.449899911880493 8.458037376403809 -1.5149794816970825
1.7168725728988647 8.409765243530273 -1.4767025709152222
-0.3442456126213074 8.542333602905273 -1.4708584547042847
-1.804846167564392 8.840761184692383 -1.5523847341537476
-2.6338915824890137 9.093271255493164 -1.6287598609924316
-9.452394485473633 9.840986251831055 -2.347599983215332
-10.213598251342773 9.048466682434082 -2.347599983215332
-11.532816886901855 7.292919635772705 -2.347599983215332
-12.866599082946777 6.752910137176514 -2.5
-13.368264198303223 5.695693016052246 -2.5
-14.108810424804688 3.4775097370147705 -2.5
-14.342878341674805 2.3309569358825684 -2.5
13.625682830810547 0.0 -2.5
13.449233055114746 2.1857030391693115 -2.5
13.229747772216797 3.2608299255371094 -2.5
12.535348892211914 5.340810298919678 -2.5
9.57723331451416 8.484697341918945 -2.347599983215332
8.863454818725586 9.227822303771973 -2.347599983215332
8.092177391052246 9.911123275756836 -2.347599983215332
5.946034908294678 8.614325523376465 -1.9204888343811035
5.195268630981445 8.998466491699219 -1.9064254760742188
3.2420384883880615 8.548554420471191 -1.6774711608886719
2.4499096870422363 8.458037376403809 -1.6156450510025024
1.7168725728988647 8.409765243530273 -1.5748246908187866
1.0227221250534058 8.422773361206055 -1.5567364692687988
0.34050291776657104 8.44937515258789 -1.55152428150177
-0.3442456126213074 8.542333602905273 -1.5685926675796509
-1.804846167564392 8.840761184692383 -1.6555362939834595
-4.772114276885986 10.057050704956055 -2.042433500289917
-7.268413066864014 10.53011703491211 -2.347599983215332
-8.092158317565918 9.911103248596191 -2.347599983215332
-9.577228546142578 8.484697341918945 -2.347599983215332
-10.22890853881836 7.686532974243164 -2.347599983215332
-12.53532886505127 5.3408203125 -2.5
-12.9244384765625 4.314814567565918 -2.5
-13.229741096496582 3.2608299255371094 -2.5
-13.449213981628418 2.185722589492798 -2.5
-13.581483840942383 1.0964159965515137 -2.5
11.797311782836914 5.0263671875 -2.5
11.32562255859375 5.944150447845459 -2.4936184883117676
10.177556037902832 6.435898303985596 -2.347599983215332
9.626684188842773 7.233974456787109 -2.347599983215332
9.013371467590332 7.985146522521973 -2.347599983215332
7.615742206573486 9.327588081359863 -2.347599983215332
5.946034908294678 8.614325523376465 -2.0406322479248047
5.195268630981445 8.998476028442383 -2.0256903171539307
4.128769397735596 8.701181411743164 -1.877626657485962
2.449899911880493 8.458037376403809 -1.7167184352874756
1.7168725728988647 8.409765243530273 -1.6733441352844238
0.3405102491378784 8.44936466217041 -1.6485857963562012
-2.6338963508605957 9.093271255493164 -1.845650315284729
-6.020846843719482 10.428446769714355 -2.347599983215332
-6.84048318862915 9.910136222839355 -2.347599983215332
-8.341588973999023 8.684540748596191 -2.347599983215332
-9.626669883728027 7.233974456787109 -2.347599983215332
-10.1775484085083 6.435888290405273 -2.347599983215332
-11.354597091674805 5.95934534072876 -2.5
-12.450818061828613 3.06884765625 -2.5
12.068256378173828 0.97425776720047 -2.5
11.950724601745605 1.9421874284744263 -2.5
11.75570297241211 2.897509813308716 -2.5
11.138673782348633 4.745751857757568 -2.5
10.700871467590332 5.616250038146973 -2.49538254737854
7.5487060546875 5.672490119934082 -1.9497203826904297
5.195268630981445 8.998466491699219 -2.1454720497131348
2.449899911880493 8.458037376403809 -1.8182305097579956
1.7168725728988647 8.409765243530273 -1.7722917795181274
1.0227221250534058 8.422773361206055 -1.751935362815857
0.3405102491378784 8.44936466217041 -1.746069312095642
-0.3442407250404358 8.542333602905273 -1.7652783393859863
-1.0502172708511353 8.649374961853027 -1.7990667819976807
-1.804846167564392 8.840761184692383 -1.8631231784820557
-3.5864133834838867 9.45663070678711 -2.0883421897888184
-6.458571434020996 9.356874465942383 -2.347599983215332
-7.190541744232178 8.806816101074219 -2.347599983215332
-7.875881195068359 8.199677467346191 -2.347599983215332
-9.089211463928223 6.83010721206665 -2.347599983215332
-9.783392906188965 6.18664026260376 -2.390122890472412
-11.138654708862305 4.745741844177246 -2.5
-11.484414100646973 3.834062337875366 -2.5
-11.95071792602539 1.9421874284744263 -2.5
-12.068239212036133 0.97425776720047 -2.5
11.464523315429688 0.0 -2.5
11.427346229553223 0.9225097298622131 -2.5
11.316059112548828 1.8390429019927979 -2.5
10.874521255493164 3.6304588317871094 -2.5
10.547128677368164 4.493710994720459 -2.5
7.528674125671387 5.657431602478027 -2.053602933883667
7.457633972167969 7.764208793640137 -2.347599983215332
6.808696269989014 8.339111328125 -2.347599983215332
5.946034908294678 8.614325523376465 -2.28251576423645
5.195268630981445 8.998466491699219 -2.2658026218414307
4.128764629364014 8.701181411743164 -2.100189685821533
3.2420384883880615 8.548554420471191 -1.9936879873275757
1.7168725728988647 8.409765243530273 -1.8716918230056763
0.3405102491378784 8.44936466217041 -1.8439993858337402
-3.5864133834838867 9.456621170043945 -2.2054686546325684
-6.115573406219482 8.85995101928711 -2.347599983215332
-7.457614421844482 7.764208793640137 -2.347599983215332
-8.05819034576416 7.138955116271973 -2.347599983215332
-8.606508255004883 6.467372894287109 -2.347599983215332
-9.660844802856445 6.109150409698486 -2.49255633354187
-10.547111511230469 4.493710994720459 -2.5
-10.87450885772705 3.630449056625366 -2.5
-11.316046714782715 1.839052677154541 -2.5
-11.427329063415527 0.9225097298622131 -2.5
10.883708000183105 9.765624781721272e-06 -2.5
10.848410606384277 0.8757910132408142 -2.5
9.63266372680664 5.055595397949219 -2.498861074447632
6.463747501373291 7.916640281677246 -2.347599983215332
5.805766582489014 8.411093711853027 -2.347599983215332
3.2420458793640137 8.548544883728027 -2.1000826358795166
1.7168725728988647 8.409765243530273 -1.9715758562088013
-1.804846167564392 8.840761184692383 -2.0726215839385986
-3.5864133834838867 9.45663070678711 -2.323164701461792
-5.110112190246582 8.850996017456055 -2.347599983215332
-7.079799652099609 7.370859146118164 -2.347599983215332
-7.649941444396973 6.777275085449219 -2.347599983215332
-9.637038230895996 5.057909965515137 -2.5
-10.323586463928223 3.446523427963257 -2.5
-10.567445755004883 2.604628801345825 -2.5
10.356359481811523 9.765624781721272e-06 -2.5
10.222246170043945 1.6612889766693115 -2.5
9.82338809967041 3.279531240463257 -2.5
8.21950912475586 5.197704792022705 -2.347599983215332
7.504311561584473 5.639130592346191 -2.2659857273101807
7.279296875 6.448896408081055 -2.347599983215332
6.736772537231445 7.013710975646973 -2.347599983215332
6.150561332702637 7.533066272735596 -2.347599983215332
4.862524509429932 8.422128677368164 -2.347599983215332
3.2420384883880615 8.548554420471191 -2.2070183753967285
2.449899911880493 8.458037376403809 -2.1256749629974365
1.7168725728988647 8.409765243530273 -2.0719685554504395
1.0227221250534058 8.422773361206055 -2.048170328140259
-0.3442456126213074 8.542333602905273 -2.0637691020965576
-1.0502221584320068 8.649365425109863 -2.103271484375
-1.804846167564392 8.840761184692383 -2.178159236907959
-2.6338963508605957 9.093271255493164 -2.2853217124938965
-3.4485349655151367 9.0930757522583 -2.347599983215332
-4.169037818908691 8.786093711853027 -2.347599983215332
-4.862509727478027 8.422138214111328 -2.347599983215332
-5.524445533752441 8.003554344177246 -2.347599983215332
-6.736762523651123 7.013720512390137 -2.347599983215332
-7.279279708862305 6.448896408081055 -2.347599983215332
-9.823376655578613 3.279531240463257 -2.5
-10.222233772277832 1.6612792015075684 -2.5
9.87530517578125 0.0 -2.5
9.84328556060791 0.7946386337280273 -2.5
9.747424125671387 1.5841113328933716 -2.5
9.367094993591309 3.127197265625 -2.5
9.085084915161133 3.870790958404541 -2.5
8.744153022766113 4.589286804199219 -2.5
7.943185806274414 5.022958755493164 -2.3791916370391846
7.413478851318359 5.570878982543945 -2.347599983215332
6.941179275512695 6.149335861206055 -2.347599983215332
5.267844200134277 7.631786823272705 -2.347599983215332
3.97540283203125 8.377978324890137 -2.347599983215332
3.2420384883880615 8.548554420471191 -2.314528465270996
2.449904680252075 8.458037376403809 -2.2292234897613525
1.7168725728988647 8.409765243530273 -2.1728999614715576
-2.5799951553344727 8.907177925109863 -2.347599983215332
-3.2883496284484863 8.670693397521973 -2.347599983215332
-4.636638164520264 8.030927658081055 -2.347599983215332
-5.864853382110596 7.183144569396973 -2.347599983215332
-6.423840045928955 6.687929630279541 -2.347599983215332
-6.941159725189209 6.149345397949219 -2.347599983215332
-7.413471698760986 5.570868968963623 -2.347599983215332
-8.744145393371582 4.589277267456055 -2.5
-9.085067749023438 3.870790958404541 -2.5
-9.588339805603027 2.3633105754852295 -2.5
-9.74740982055664 1.5841113328933716 -2.5
-9.843274116516113 0.7946386337280273 -2.5
9.434606552124023 0.0 -2.5
9.160456657409668 2.257861375808716 -2.5
8.679656028747559 3.6980466842651367 -2.5
6.63140869140625 5.874921798706055 -2.347599983215332
6.137179851531982 6.389462947845459 -2.347599983215332
5.603137016296387 6.862597465515137 -2.347599983215332
3.7979931831359863 8.004101753234863 -2.347599983215332
3.1416258811950684 8.2837495803833 -2.347599983215332
-1.0502172708511353 8.649374961853027 -2.3087592124938965
-1.7721142768859863 8.680429458618164 -2.347599983215332
-2.464853525161743 8.509687423706055 -2.347599983215332
-3.797976016998291 8.004091262817383 -2.347599983215332
-4.429726600646973 7.672538757324219 -2.347599983215332
-6.137163162231445 6.389482498168945 -2.347599983215332
-6.631396293640137 5.874911785125732 -2.347599983215332
-7.082624435424805 5.322265625 -2.347599983215332
-7.97402811050415 5.042470455169678 -2.5
-8.353920936584473 4.384482383728027 -2.5
-9.312418937683105 1.513427734375 -2.5
9.029287338256836 0.0 -2.5
8.912367820739746 1.448388695716858 -2.5
8.30675983428955 3.539179563522339 -2.5
7.613811016082764 4.814687252044678 -2.494217872619629
6.778364181518555 5.093613147735596 -2.347599983215332
6.346520900726318 5.622529029846191 -2.347599983215332
5.362421989440918 6.567763328552246 -2.347599983215332
4.816547870635986 6.977968692779541 -2.347599983215332
4.239436149597168 7.342909812927246 -2.347599983215332
3.006657600402832 7.927870750427246 -2.347599983215332
-0.3413964807987213 8.471991539001465 -2.347599983215332
-1.6959813833236694 8.307509422302246 -2.347599983215332
-3.6348118782043457 7.660243988037109 -2.347599983215332
-4.816533088684082 6.977978229522705 -2.347599983215332
-5.362404823303223 6.567782878875732 -2.347599983215332
-6.346503734588623 5.622519493103027 -2.347599983215332
-7.003029823303223 5.262441158294678 -2.4254136085510254
-7.631454944610596 4.825839519500732 -2.5
-7.995026588439941 4.196113109588623 -2.5
-8.564589500427246 2.8592772483825684 -2.5
-8.999990463256836 0.7265625 -2.5
8.627094268798828 0.6964550614356995 -2.5
8.543086051940918 1.3883886337280273 -2.5
8.403661727905273 2.071298837661743 -2.5
7.663764476776123 4.022255897521973 -2.5
7.304347991943359 4.618984222412109 -2.4962713718414307
6.497511863708496 4.882558345794678 -2.347599983215332
6.083559513092041 5.389550685882568 -2.347599983215332
5.630146503448486 5.861611366271973 -2.347599983215332
4.616977214813232 6.68883752822876 -2.347599983215332
3.4842185974121094 7.342822074890137 -2.347599983215332
2.882072687149048 7.599374771118164 -2.347599983215332
2.261225461959839 7.806650161743164 -2.347599983215332
1.6257201433181763 7.963290691375732 -2.347599983215332
0.9796777367591858 8.068281173706055 -2.347599983215332
0.3272729516029358 8.120956420898438 -2.347599983215332
-0.32725340127944946 8.120946884155273 -2.347599983215332
-0.9796606302261353 8.068281173706055 -2.347599983215332
-1.6257054805755615 7.963290691375732 -2.347599983215332
-2.2612156867980957 7.806650161743164 -2.347599983215332
-2.8820531368255615 7.599384784698486 -2.347599983215332
-4.063757419586182 7.038661956787109 -2.347599983215332
-4.616962909698486 6.688827991485596 -2.347599983215332
-5.140217304229736 6.295644283294678 -2.347599983215332
-5.630136489868164 5.86160135269165 -2.347599983215332
-7.315248966217041 4.625888347625732 -2.5
-8.209721565246582 2.7408103942871094 -2.5
-8.40364933013916 2.071298837661743 -2.5
-8.543066024780273 1.3883886337280273 -2.5
8.308684349060059 0.0 -2.5
8.281743049621582 0.6685839891433716 -2.5
8.201090812683105 1.3328124284744263 -2.5
8.067248344421387 1.9883984327316284 -2.5
7.356979846954346 3.8612401485443115 -2.5
6.2376389503479 4.68728494644165 -2.3476901054382324
5.840024471282959 5.173818111419678 -2.347599983215332
5.404765605926514 5.626962661743164 -2.347599983215332
4.934455394744873 6.043622970581055 -2.347599983215332
3.344741106033325 7.048896312713623 -2.347599983215332
2.7666990756988525 7.295166015625 -2.347599983215332
2.170707941055298 7.494150161743164 -2.347599983215332
0.31416746973991394 7.795868873596191 -2.347599983215332
-0.3141576945781708 7.795859336853027 -2.347599983215332
-1.5606249570846558 7.64453125 -2.347599983215332
-3.9010839462280273 6.756884574890137 -2.347599983215332
-4.432136058807373 6.421083927154541 -2.347599983215332
-5.404757976531982 5.626962661743164 -2.347599983215332
-5.840007305145264 5.173798561096191 -2.347599983215332
-7.356969833374023 3.8612401485443115 -2.5
-7.881076335906982 2.631093740463257 -2.5
-8.067245483398438 1.9883984327316284 -2.5
-8.20107364654541 1.3328124284744263 -2.5
7.986823558807373 -9.765624781721272e-06 -2.5
7.960920333862305 0.6426757574081421 -2.5
7.8833909034729 1.2811815738677979 -2.5
7.754743576049805 1.9113671779632568 -2.5
7.575788497924805 2.529179573059082 -2.5
3.7499778270721436 6.49514627456665 -2.347599983215332
2.6595189571380615 7.01256799697876 -2.347599983215332
0.9040282964706421 7.445263385772705 -2.347599983215332
-0.9040136337280273 7.445263385772705 -2.347599983215332
-2.086606502532959 7.203827857971191 -2.347599983215332
-2.6595044136047363 7.012578010559082 -2.347599983215332
-3.7499656677246094 6.49514627456665 -2.347599983215332
-4.743303298950195 5.809511661529541 -2.347599983215332
-5.613776683807373 4.973378658294678 -2.347599983215332
-7.071972370147705 3.711669921875 -2.5
-7.347692489624023 3.1305761337280273 -2.5
-7.754733562469482 1.9113671779632568 -2.5
7.686970233917236 0.0 -2.5
7.662040710449219 0.6185546517372131 -2.5
7.463601112365723 1.8396190404891968 -2.5
7.291367053985596 2.4342284202575684 -2.5
7.071860313415527 3.0130369663238525 -2.5
6.806477069854736 3.57232403755188 -2.5
6.496957778930664 4.108417987823486 -2.5
6.127541542053223 4.604540824890137 -2.4927761554718018
5.403037071228027 4.786669731140137 -2.347599983215332
5.000344276428223 5.205917835235596 -2.347599983215332
4.100507736206055 5.940605163574219 -2.347599983215332
3.094472646713257 6.521435260772705 -2.347599983215332
0.8700854182243347 7.165741920471191 -2.347599983215332
-0.2906518578529358 7.21251916885376 -2.347599983215332
-0.8700756430625916 7.165741920471191 -2.347599983215332
-1.4438451528549194 7.072490215301514 -2.347599983215332
-2.0082762241363525 6.93337869644165 -2.347599983215332
-2.5596606731414795 6.749306678771973 -2.347599983215332
-4.100495338439941 5.940605163574219 -2.347599983215332
-6.143125057220459 4.616269588470459 -2.4991202354431152
-6.496940612792969 4.108417987823486 -2.5
-7.463595867156982 1.8396093845367432 -2.5
-7.587416648864746 1.2330858707427979 -2.5
-7.662035942077637 0.6185449361801147 -2.5
7.382865905761719 0.5960156321525574 -2.5
7.31096887588501 1.1881444454193115 -2.5
7.02569580078125 2.345527410507202 -2.5
6.814179420471191 2.903251886367798 -2.5
6.2602219581604 3.958730459213257 -2.5
5.206161975860596 4.612265586853027 -2.347599983215332
4.81814432144165 5.016220569610596 -2.347599983215332
4.398891448974609 5.387646198272705 -2.347599983215332
3.951101064682007 5.724160194396973 -2.347599983215332
3.4776830673217773 6.023515701293945 -2.347599983215332
2.9817235469818115 6.283818244934082 -2.347599983215332
2.4664134979248047 6.503368854522705 -2.347599983215332
1.9351049661636353 6.680742263793945 -2.347599983215332
0.8383813500404358 6.904638290405273 -2.347599983215332
0.28007078170776367 6.949716567993164 -2.347599983215332
-0.2800561487674713 6.949716567993164 -2.347599983215332
-0.838366687297821 6.904648303985596 -2.347599983215332
-1.3912426233291626 6.814794540405273 -2.347599983215332
-1.9351000785827637 6.680751800537109 -2.347599983215332
-2.4663915634155273 6.503368854522705 -2.347599983215332
-2.981703996658325 6.283818244934082 -2.347599983215332
-3.4776611328125 6.023505687713623 -2.347599983215332
-3.9510886669158936 5.724160194396973 -2.347599983215332
-4.398871898651123 5.387656211853027 -2.347599983215332
-4.818137168884277 5.016230583190918 -2.347599983215332
-5.511847972869873 4.883095741271973 -2.48544979095459
-5.921362400054932 4.449638366699219 -2.5
-6.260214805603027 3.9587206840515137 -2.5
-7.191635608673096 1.7725683450698853 -2.5
7.144597053527832 0.0 -2.5
7.052074909210205 1.146083950996399 -2.5
6.936984539031982 1.7098242044448853 -2.5
6.776904106140137 2.2624707221984863 -2.5
6.038537502288818 3.818554639816284 -2.5
4.647531509399414 4.838583946228027 -2.347599983215332
4.243117809295654 5.196865081787109 -2.347599983215332
2.8761229515075684 6.06130838394165 -2.347599983215332
1.8665820360183716 6.444169998168945 -2.347599983215332
1.3419921398162842 6.573476314544678 -2.347599983215332
0.8086962699890137 6.660136699676514 -2.347599983215332
-0.2701367139816284 6.703622817993164 -2.347599983215332
-0.8086718320846558 6.660146236419678 -2.347599983215332
-2.3790550231933594 6.273085594177246 -2.347599983215332
-3.811174154281616 5.521445274353027 -2.347599983215332
-5.335573673248291 4.726913928985596 -2.4942848682403564
-5.711681842803955 4.292050838470459 -2.5
-6.326213359832764 3.320253849029541 -2.5
-6.776904106140137 2.2624707221984863 -2.5
6.898415565490723 0.0 -2.5
5.036933422088623 4.462333679199219 -2.4387006759643555
4.487392425537109 4.671875 -2.347599983215332
4.096916198730469 5.017802715301514 -2.347599983215332
3.679865598678589 5.331201076507568 -2.347599983215332
3.238947629928589 5.610009670257568 -2.347599983215332
2.2971019744873047 6.056933403015137 -2.347599983215332
-0.2608325183391571 6.472626686096191 -2.347599983215332
-1.8022533655166626 6.222138404846191 -2.347599983215332
-2.2970824241638184 6.056933403015137 -2.347599983215332
-3.2389307022094727 5.610019207000732 -2.347599983215332
-4.518081188201904 4.703827857971191 -2.363663911819458
-5.514880180358887 4.144179821014404 -2.5
-5.830471038818359 3.6869726181030273 -2.5
-6.543385982513428 2.184511661529541 -2.5
-6.697958946228027 1.6508984565734863 -2.5
-6.809069633483887 1.106591820716858 -2.5
-6.87603759765625 0.5550976395606995 -2.5
6.666845321655273 1.9531249563442543e-05 -2.5
6.645238876342773 0.5364745855331421 -2.5
6.580517292022705 1.0694433450698853 -2.5
6.13336181640625 2.6131932735443115 -2.5
5.903207778930664 3.0982420444488525 -2.5
5.329762935638428 4.005048751831055 -2.5
4.976208209991455 4.408525466918945 -2.492985248565674
4.336757659912109 4.515048503875732 -2.347599983215332
2.219985246658325 5.853613376617432 -2.347599983215332
1.2522534132003784 6.13390588760376 -2.347599983215332
-0.7546117901802063 6.214804649353027 -2.347599983215332
-1.2522436380386353 6.13390588760376 -2.347599983215332
-3.1302075386047363 5.421709060668945 -2.347599983215332
-4.501877307891846 4.686962604522705 -2.4369869232177734
-5.329751014709473 4.005058288574219 -2.5
-5.90319299697876 3.0982322692871094 -2.5
-6.645219802856445 0.5364550948143005 -2.5
6.365063190460205 1.034423828125 -2.5
6.116703987121582 2.042060613632202 -2.5
5.93255615234375 2.5276172161102295 -2.5
5.155265808105469 3.8739256858825684 -2.5
4.817175388336182 4.267646312713623 -2.4950015544891357
4.208698749542236 4.381728649139404 -2.3553946018218994
3.8297460079193115 4.690595626831055 -2.347599983215332
3.0277318954467773 5.244189262390137 -2.347599983215332
2.1472997665405273 5.661962985992432 -2.347599983215332
1.6847338676452637 5.816386699676514 -2.347599983215332
1.2112524509429932 5.933095455169678 -2.347599983215332
0.7299145460128784 6.011308670043945 -2.347599983215332
0.2438378781080246 6.050556659698486 -2.347599983215332
-2.147287607192993 5.661952972412109 -2.347599983215332
-3.027726888656616 5.244189262390137 -2.347599983215332
-3.8297412395477295 4.690595626831055 -2.347599983215332
-4.454352855682373 4.637490272521973 -2.4928805828094482
-4.82681131362915 4.276201248168945 -2.5
-5.155251502990723 3.8739256858825684 -2.5
-5.450258731842041 3.446533203125 -2.5
-5.709909439086914 2.9967968463897705 -2.5
-5.932543754577637 2.527636766433716 -2.5
-6.11669397354126 2.042060613632202 -2.5
-6.427656173706055 0.5188964605331421 -2.5
6.24242639541626 9.765624781721272e-06 -2.5
6.161591529846191 1.0013574361801147 -2.5
5.921166896820068 1.9767870903015137 -2.5
5.742907524108887 2.446826219558716 -2.5
4.666745662689209 4.134384632110596 -2.4969089031219482
4.194660663604736 4.367099285125732 -2.4250617027282715
3.7073216438293457 4.540644645690918 -2.347599983215332
3.3299341201782227 4.82424783706665 -2.347599983215332
2.9309520721435547 5.076542854309082 -2.347599983215332
2.512949228286743 5.29592752456665 -2.347599983215332
2.078662157058716 5.48095703125 -2.347599983215332
1.630886197090149 5.630458831787109 -2.347599983215332
0.7065746784210205 5.819150447845459 -2.347599983215332
0.23604004085063934 5.857138633728027 -2.347599983215332
-1.172521948814392 5.743417739868164 -2.347599983215332
-1.6308715343475342 5.630458831787109 -2.347599983215332
-2.0786399841308594 5.480966567993164 -2.347599983215332
-2.512929677963257 5.29592752456665 -2.347599983215332
-3.3299291133880615 4.824238300323486 -2.347599983215332
-3.7296435832977295 4.567997932434082 -2.36173677444458
-4.672516822814941 4.139502048492432 -2.5
-5.276032447814941 3.336357355117798 -2.5
-5.527382850646973 2.901005744934082 -2.5
-5.742892742156982 2.446826219558716 -2.5
-5.921152114868164 1.9767870903015137 -2.5
-6.161577224731445 1.001367211341858 -2.5
-6.222175121307373 0.5023144483566284 -2.5
6.047382831573486 0.0 -2.5
6.027775764465332 0.48662108182907104 -2.5
5.969072341918945 0.9700781106948853 -2.5
5.871652603149414 1.4472460746765137 -2.5
5.736164569854736 1.9150195121765137 -2.5
5.563468933105469 2.370371103286743 -2.5
5.354684829711914 2.81036114692688 -2.5
4.176518440246582 4.348212718963623 -2.4924497604370117
3.22589111328125 4.673505783081055 -2.347599983215332
2.4344310760498047 5.130458831787109 -2.347599983215332
1.1358935832977295 5.56396484375 -2.347599983215332
0.6845068335533142 5.637333869934082 -2.347599983215332
0.2286669909954071 5.674130916595459 -2.347599983215332
-0.6844897270202637 5.63732385635376 -2.347599983215332
-1.5799145698547363 5.454521179199219 -2.347599983215332
-2.0136985778808594 5.309716701507568 -2.347599983215332
-2.4344236850738525 5.130449295043945 -2.347599983215332
-2.83935546875 4.917929649353027 -2.347599983215332
-3.2258787155151367 4.673505783081055 -2.347599983215332
-3.7176902294158936 4.553359508514404 -2.430097818374634
-4.183669567108154 4.355673789978027 -2.4967234134674072
-4.52651834487915 4.010165691375732 -2.5
-4.834528923034668 3.632929563522339 -2.5
-5.111188888549805 3.232128858566284 -2.5
-5.35467529296875 2.81036114692688 -2.5
-5.736149787902832 1.9150097370147705 -2.5
-5.871645450592041 1.4472265243530273 -2.5
-5.969052791595459 0.9700781106948853 -2.5
5.862529277801514 9.765624781721272e-06 -2.5
5.843517780303955 0.471748024225235 -2.5
5.786606311798096 0.9404199123382568 -2.5
5.393393516540527 2.297929525375366 -2.5
5.191010475158691 2.7244529724121094 -2.5
4.954951286315918 3.133310556411743 -2.5
4.686752796173096 3.521855354309082 -2.5
4.388171195983887 3.887568235397339 -2.5
4.051936149597168 4.218505859375 -2.4943478107452393
2.752570629119873 4.76760721206665 -2.347599983215332
1.9521557092666626 5.147402286529541 -2.347599983215332
1.5316381454467773 5.287783145904541 -2.347599983215332
