ply
format ascii 1.0
element vertex 857
property float x
property float y
property float z
end_header
-1.2388916015625 10.203125 0.7559188604354858
-2.0848193168640137 10.212089538574219 0.7665585279464722
-3.036879777908325 10.484492301940918 0.8027975559234619
-6.25475549697876 10.8335542678833 0.9200341701507568
-9.141571998596191 11.196386337280273 1.0630688667297363
-10.69339370727539 11.132987976074219 1.1353206634521484
-13.21617603302002 11.708505630493164 1.2985882759094238
-16.05624008178711 12.065478324890137 1.477134108543396
2.0108983516693115 9.850058555603027 0.6274621486663818
-4.001205921173096 10.550312042236328 0.7042520046234131
-5.069936275482178 10.684638023376465 0.7381380796432495
-6.2547607421875 10.8335542678833 0.7807686924934387
-9.141576766967773 11.196386337280273 0.9021520614624023
-13.2161865234375 11.708505630493164 1.1020208597183228
-15.862231254577637 11.919696807861328 1.238393783569336
-19.82748031616211 12.538105010986328 1.4641799926757812
-25.53279685974121 13.40062427520752 1.7997475862503052
1.201635718345642 9.896376609802246 0.511379063129425
0.4028564393520355 9.996787071228027 0.5132168531417847
-1.2388916015625 10.203125 0.5272296071052551
-2.0848193168640137 10.212089538574219 0.5346508622169495
-3.036879777908325 10.484492301940918 0.5599261522293091
-9.141571998596191 11.196386337280273 0.7414572238922119
-11.09054183959961 11.546454429626465 0.8212637305259705
-19.525390625 12.347089767456055 1.1850411891937256
-25.168485641479492 13.209394454956055 1.458069086074829
2.80804181098938 9.694472312927246 0.4056549072265625
2.0108983516693115 9.850058555603027 0.40405791997909546
1.201635718345642 9.896376609802246 0.4006750285625458
0.4028564393520355 9.996787071228027 0.4021148681640625
-0.414130836725235 10.276445388793945 0.41336455941200256
-1.2388916015625 10.203125 0.4130938649177551
-3.036879777908325 10.484492301940918 0.4387124478816986
-5.069936275482178 10.684638023376465 0.475328654050827
-19.827470779418945 12.538105010986328 0.9428665041923523
16.29115104675293 16.960947036743164 0.6842895150184631
2.80804181098938 9.694472312927246 0.29367461800575256
2.0108983516693115 9.850058555603027 0.29251861572265625
0.4028564393520355 9.996787071228027 0.2911120653152466
-0.414130836725235 10.276445388793945 0.29925626516342163
-1.2388916015625 10.203125 0.2990603446960449
-2.0848193168640137 10.212089538574219 0.3032696545124054
-4.001205921173096 10.550312042236328 0.328317254781723
-5.069936275482178 10.684638023376465 0.3441149890422821
-6.2547607421875 10.8335542678833 0.36398863792419434
-9.141576766967773 11.196386337280273 0.4205770790576935
-13.448993682861328 11.914755821228027 0.5228081941604614
-16.1014404296875 12.099443435668945 0.5860366821289062
16.282094955444336 16.951522827148438 0.42329803109169006
2.80804181098938 9.694472312927246 0.18176665902137756
2.035107374191284 9.968612670898438 0.1832299828529358
0.4028564393520355 9.996787071228027 0.1801803559064865
-1.2388916015625 10.203125 0.18510009348392487
-2.0848193168640137 10.212089538574219 0.1877053827047348
-3.036879777908325 10.484492301940918 0.19657927751541138
-5.069936275482178 10.684638023376465 0.21298614144325256
-13.448988914489746 11.914755821228027 0.3235836625099182
-16.1014404296875 12.099443435668945 0.36272063851356506
-19.827470779418945 12.538105010986328 0.42248138785362244
-25.532793045043945 13.400595664978027 0.5193160772323608
2.035107374191284 9.968612670898438 0.07046600431203842
1.201635718345642 9.896376609802246 0.06904510408639908
0.4028564393520355 9.996787071228027 0.06929320842027664
-0.414130836725235 10.276445388793945 0.07123168557882309
-1.2388916015625 10.203125 0.07118529826402664
-4.001205921173096 10.550312042236328 0.07814911007881165
-5.069936275482178 10.684638023376465 0.08191009610891342
-6.25475549697876 10.8335542678833 0.08663970977067947
-7.594086647033691 11.001893997192383 0.09258788824081421
-13.448988914489746 11.914755821228027 0.12444274872541428
-16.1014404296875 12.099443435668945 0.13949401676654816
-19.827470779418945 12.538105010986328 0.16247649490833282
2.035107374191284 9.968612670898438 -0.04228057712316513
0.4028564393520355 9.996787071228027 -0.04157699644565582
-1.2388916015625 10.203125 -0.042712096124887466
-2.0848193168640137 10.212089538574219 -0.04331329092383385
-3.036879777908325 10.484492301940918 -0.04536117613315582
-9.141571998596191 11.196386337280273 -0.06006728857755661
-13.448979377746582 11.914755821228027 -0.07466766238212585
-16.1014404296875 12.099432945251465 -0.08369827270507812
16.255008697509766 16.923320770263672 -0.35756805539131165
2.035107374191284 9.968612670898438 -0.15503646433353424
1.201635718345642 9.896376609802246 -0.15191039443016052
-4.001205921173096 10.550312042236328 -0.1719406098127365
-5.069936275482178 10.684638023376465 -0.18021376430988312
-6.25475549697876 10.8335542678833 -0.19062194228172302
-7.594086647033691 11.001904487609863 -0.20370864868164062
-9.141576766967773 11.196386337280273 -0.2202572524547577
-11.09054183959961 11.546454429626465 -0.2439633160829544
-16.101444244384766 12.0994234085083 -0.30690887570381165
-19.82746124267578 12.538105010986328 -0.3574742078781128
14.712841033935547 25.483427047729492 -0.7746130228042603
2.80804181098938 9.694472312927246 -0.2656925916671753
2.035107374191284 9.968612670898438 -0.26783034205436707
1.201635718345642 9.896376609802246 -0.262429803609848
-0.414130836725235 10.276445388793945 -0.2707411050796509
-2.0848143100738525 10.212089538574219 -0.27437224984169006
-3.073432445526123 10.610702514648438 -0.29080137610435486
-4.001205921173096 10.550312042236328 -0.2970329225063324
-5.069936275482178 10.684638023376465 -0.3113242983818054
-6.2547607421875 10.8335542678833 -0.3293069303035736
-7.594081878662109 11.001893997192383 -0.35191434621810913
-9.14156723022461 11.196386337280273 -0.38050124049186707
-11.090546607971191 11.546464920043945 -0.4214540123939514
-13.448984146118164 11.914746284484863 -0.4729897975921631
-16.101444244384766 12.099432945251465 -0.5301971435546875
-25.500438690185547 13.383642196655273 -0.7581250071525574
16.236982345581055 16.904541015625 -0.8770367503166199
16.120004653930664 23.353885650634766 -1.0617936849594116
13.814628601074219 23.927669525146484 -1.0338134765625
1.201635718345642 9.896376609802246 -0.37301602959632874
0.4028564393520355 9.996787071228027 -0.37435653805732727
-0.414130836725235 10.276445388793945 -0.38482969999313354
-4.001205921173096 10.550312042236328 -0.42220062017440796
-6.2547607421875 10.8335542678833 -0.4680728018283844
-9.141571998596191 11.196386337280273 -0.5408422946929932
-11.09054183959961 11.546454429626465 -0.5990524291992188
-16.101444244384766 12.099432945251465 -0.7536153793334961
-19.82748031616211 12.538105010986328 -0.8777798414230347
-25.532793045043945 13.400595664978027 -1.078957438468933
16.227968215942383 16.89517593383789 -1.1366304159164429
3.846142530441284 10.141425132751465 -0.5262535214424133
2.80804181098938 9.694472312927246 -0.489704430103302
1.2016406059265137 9.89638614654541 -0.4836929142475128
-0.414130836725235 10.276445388793945 -0.49901166558265686
-2.0848193168640137 10.212089538574219 -0.5057044625282288
-3.073437452316284 10.610702514648438 -0.5359863042831421
-4.001205921173096 10.550312042236328 -0.547471284866333
-6.254750728607178 10.8335542678833 -0.6069535613059998
-11.09054183959961 11.546454429626465 -0.7767956256866455
-13.448993682861328 11.914755821228027 -0.8717799186706543
-16.101444244384766 12.099432945251465 -0.9772197008132935
-24.876712799072266 13.056279182434082 -1.3631409406661987
16.218963623046875 16.885801315307617 -1.3962148427963257
16.03573989868164 23.231815338134766 -1.6833739280700684
12.242409706115723 25.80034065246582 -1.7029821872711182
3.846142530441284 10.141425132751465 -0.6467986702919006
2.80804181098938 9.694472312927246 -0.6018775701522827
1.201635718345642 9.896376609802246 -0.5944890975952148
0.4028564393520355 9.996787071228027 -0.596625030040741
-1.2388916015625 10.203125 -0.6129156351089478
-2.0848193168640137 10.212089538574219 -0.6215426325798035
-3.073432445526123 10.610702514648438 -0.6587608456611633
-4.001205921173096 10.550312042236328 -0.6728765964508057
-5.069936275482178 10.684638023376465 -0.7052522301673889
-7.594081878662109 11.001893997192383 -0.7971972227096558
-13.448984146118164 11.914746284484863 -1.0714715719223022
16.2099552154541 16.876415252685547 -1.6558544635772705
13.734057426452637 23.788124084472656 -1.9437005519866943
2.026249885559082 9.925272941589355 -0.7168186902999878
0.4028564393520355 9.996787071228027 -0.7079669237136841
-0.41233396530151367 10.23177719116211 -0.7246084213256836
-1.2388916015625 10.203125 -0.7272968888282776
-4.001205921173096 10.550312042236328 -0.7984475493431091
-6.25475549697876 10.8335542678833 -0.8851983547210693
-7.594086647033691 11.001893997192383 -0.9459692239761353
-11.090546607971191 11.546464920043945 -1.1329017877578735
-12.993471145629883 11.511210441589355 -1.2283649444580078
-19.82746124267578 12.538105010986328 -1.6600176095962524
12.860107421875 2.089980363845825 -1.0671690702438354
24.224756240844727 15.318818092346191 -2.347647190093994
2.80804181098938 9.694472312927246 -0.826697826385498
2.035107374191284 9.968612670898438 -0.8333536982536316
0.4028564393520355 9.996787071228027 -0.8194834589958191
-0.414130836725235 10.276445388793945 -0.8424096703529358
-4.001205921173096 10.550312042236328 -0.9242167472839355
-5.069936275482178 10.684638023376465 -0.9686866402626038
-7.594086647033691 11.001893997192383 -1.0949755907058716
-9.044926643371582 11.078007698059082 -1.1714102029800415
-11.090546607971191 11.546464920043945 -1.311353325843811
-13.12852954864502 11.630868911743164 -1.4366326332092285
-19.82746124267578 12.538105010986328 -1.9214965105056763
-25.16845703125 13.209394454956055 -2.328183174133301
-27.186864852905273 9.076289176940918 -2.347647190093994
26.7735595703125 2.1614062786102295 -2.500047206878662
12.382939338684082 2.0124316215515137 -1.1676591634750366
25.478315353393555 8.505898475646973 -2.500047206878662
24.71125030517578 10.528486251831055 -2.500047206878662
16.802734375 8.81875991821289 -1.7662181854248047
21.318450927734375 13.480966567993164 -2.347647190093994
18.8798770904541 16.726112365722656 -2.347647190093994
15.952338218688965 19.538066864013672 -2.347647190093994
12.611611366271973 21.843994140625 -2.347647190093994
10.813016891479492 22.78797721862793 -2.347647190093994
2.80804181098938 9.69448184967041 -0.9394000172615051
1.201635718345642 9.896376609802246 -0.9278680086135864
0.4028564393520355 9.996787071228027 -0.9312023520469666
-0.414130836725235 10.276445388793945 -0.9572539925575256
-1.2388916015625 10.203125 -0.9566279649734497
-2.105219602584839 10.31201171875 -0.9795840382575989
-3.073432445526123 10.610702514648438 -1.0281823873519897
-4.001205921173096 10.550312042236328 -1.0502139329910278
-5.069936275482178 10.684638023376465 -1.1007444858551025
-6.209125995635986 10.754511833190918 -1.1558245420455933
-9.012969017028809 11.038866996765137 -1.326404333114624
-11.090551376342773 11.546454429626465 -1.4901278018951416
-16.056259155273438 12.065478324890137 -1.8693368434906006
-23.204891204833984 9.886670112609863 -2.347647190093994
-23.92518424987793 7.987411975860596 -2.347647190093994
23.9780216217041 0.0 -2.500047206878662
22.059276580810547 9.39859390258789 -2.500047206878662
19.030590057373047 12.034218788146973 -2.347647190093994
18.000526428222656 13.526533126831055 -2.347647190093994
16.853744506835938 14.931113243103027 -2.347647190093994
14.240365982055664 17.441240310668945 -2.347647190093994
11.258158683776855 19.499755859375 -2.347647190093994
9.652587890625 20.342391967773438 -2.347647190093994
2.80804181098938 9.694472312927246 -1.0523349046707153
2.035107374191284 9.968612670898438 -1.060806155204773
1.201635718345642 9.896376609802246 -1.0394164323806763
-0.414130836725235 10.276445388793945 -1.0723339319229126
-1.2388916015625 10.203125 -1.0716336965560913
-3.014726400375366 10.408007621765137 -1.1297887563705444
-3.963876962661743 10.451884269714355 -1.1654958724975586
-7.514286994934082 10.886298179626465 -1.3791897296905518
-11.090546607971191 11.546464920043945 -1.6692707538604736
-16.056259155273438 12.065478324890137 -2.094069480895996
-19.030630111694336 12.034198760986328 -2.347647190093994
-19.937246322631836 10.463847160339355 -2.347647190093994
-20.714590072631836 8.825644493103027 -2.347647190093994
-21.357587814331055 7.130195140838623 -2.347647190093994
-23.28129768371582 5.73831033706665 -2.500047206878662
14.670116424560547 3.615849494934082 -1.7447961568832397
20.5351505279541 6.855634689331055 -2.500047206878662
19.916908264160156 8.485819816589355 -2.500047206878662
16.769399642944336 8.80126953125 -2.18703031539917
17.182363510131836 10.865458488464355 -2.347647190093994
16.252323150634766 12.212851524353027 -2.347647190093994
11.548505783081055 16.730926513671875 -2.347647190093994
8.715131759643555 18.366806030273438 -2.347647190093994
3.846142530441284 10.141425132751465 -1.2525193691253662
2.786977529525757 9.621787071228027 -1.156789779663086
1.9885594844818115 9.740614891052246 -1.1480412483215332
1.1955126523971558 9.845956802368164 -1.145356297492981
0.4005175828933716 9.938886642456055 -1.1486679315567017
-0.4038037061691284 10.020136833190918 -1.1580586433410645
-3.933779239654541 10.372509956359863 -1.281059980392456
-6.212514400482178 10.760371208190918 -1.4348336458206177
-7.594086647033691 11.001893997192383 -1.5437641143798828
-11.09054183959961 11.546454429626465 -1.8488267660140991
-13.2161865234375 11.708505630493164 -2.038978338241577
-16.056249618530273 12.065478324890137 -2.319321632385254
-17.182373046875 10.865439414978027 -2.347647190093994
-21.020214080810547 5.180995941162109 -2.500047206878662
-21.368953704833984 3.472792863845825 -2.500047206878662
12.092382431030273 0.9762011766433716 -1.5373749732971191
11.673623085021973 1.8971483707427979 -1.4987313747406006
18.149682998657227 7.732841491699219 -2.500047206878662
14.810273170471191 11.129179000854492 -2.347647190093994
13.866708755493164 12.28482437133789 -2.347647190093994
11.716513633728027 14.350126266479492 -2.347647190093994
10.523813247680664 15.246386528015137 -2.347647190093994
2.7607176303863525 9.531103134155273 -1.2574632167816162
0.3960595726966858 9.828310012817383 -1.2464890480041504
-0.4001123011112213 9.92837905883789 -1.2591801881790161
-2.0738134384155273 10.158193588256836 -1.3138349056243896
-5.056132793426514 10.655536651611328 -1.4946147203445435
-6.25475549697876 10.8335542678833 -1.5852497816085815
-7.594086647033691 11.001904487609863 -1.69408118724823
-9.141571998596191 11.196386337280273 -1.8317031860351562
-10.975736618041992 11.426933288574219 -2.0078446865081787
-15.657782554626465 9.901347160339355 -2.347647190093994
-17.04330062866211 7.261464595794678 -2.347647190093994
-18.24016571044922 6.089453220367432 -2.4368679523468018
-19.664384841918945 1.5874608755111694 -2.500047206878662
11.655057907104492 1.8941503763198853 -1.629490613937378
14.621796607971191 3.603945255279541 -2.0781846046447754
17.184062957763672 5.736875057220459 -2.500047206878662
16.666717529296875 7.101015567779541 -2.500047206878662
15.063403129577637 7.905888557434082 -2.347647190093994
14.37840747833252 9.092352867126465 -2.347647190093994
13.6001558303833 10.219853401184082 -2.347647190093994
11.784647941589355 12.269121170043945 -2.347647190093994
10.75918960571289 13.17757797241211 -2.347647190093994
9.663935661315918 14.000624656677246 -2.347647190093994
8.506011009216309 14.732841491699219 -2.347647190093994
7.292934417724609 15.369569778442383 -2.347647190093994
1.1874120235443115 9.77919864654541 -1.3594344854354858
0.3982275426387787 9.882050514221191 -1.3648207187652588
-0.4027148485183716 9.993104934692383 -1.380159854888916
-2.092226505279541 10.248339653015137 -1.4434341192245483
-3.0118701457977295 10.398134231567383 -1.4939182996749878
-4.001205921173096 10.550312042236328 -1.5571218729019165
-5.069936275482178 10.684638023376465 -1.6320449113845825
-6.2547607421875 10.8335542678833 -1.7263022661209106
-7.594086647033691 11.001904487609863 -1.8448162078857422
-14.37841796875 9.0923433303833 -2.347647190093994
-15.650732040405273 6.668124675750732 -2.347647190093994
-17.157987594604492 5.728163719177246 -2.496253252029419
-17.589969635009766 4.335517406463623 -2.500047206878662
-17.88179588317871 2.906074047088623 -2.500047206878662
-18.057655334472656 1.4577441215515137 -2.500047206878662
16.74407196044922 -1.9531249563442543e-05 -2.500047206878662
12.017929077148438 0.9701952934265137 -1.8002293109893799
11.625073432922363 1.8892675638198853 -1.7585043907165527
14.736420631408691 3.632206916809082 -2.2661359310150146
13.289233207702637 8.403594017028809 -2.347647190093994
12.56993579864502 9.445693016052246 -2.347647190093994
11.769110679626465 10.426523208618164 -2.347647190093994
9.944174766540527 12.179443359375 -2.347647190093994
8.931889533996582 12.940077781677246 -2.347647190093994
3.846142530441284 10.141425132751465 -1.6194485425949097
1.1974462270736694 9.8618745803833 -1.48328697681427
-0.40617185831069946 10.078906059265137 -1.506095290184021
-2.105219602584839 10.31201171875 -1.5714385509490967
-3.0202245712280273 10.427011489868164 -1.620845913887024
-5.069936275482178 10.684638023376465 -1.7658050060272217
-6.25475549697876 10.8335542678833 -1.867787480354309
-7.594086647033691 11.001893997192383 -1.996014952659607
-9.141576766967773 11.196386337280273 -2.1581666469573975
-10.60677719116211 11.042802810668945 -2.286175489425659
-11.769125938415527 10.426513671875 -2.347647190093994
-12.569941520690918 9.445663452148438 -2.347647190093994
-13.289247512817383 8.403594017028809 -2.347647190093994
-14.465185165405273 6.163027286529541 -2.347647190093994
-16.25752830505371 4.007089614868164 -2.500047206878662
-16.527246475219727 2.685927629470825 -2.500047206878662
-16.689775466918945 1.3473339080810547 -2.500047206878662
15.561381340026855 0.0 -2.500047206878662
11.976903915405273 0.9668945074081421 -1.9304354190826416
11.592470169067383 1.8839647769927979 -1.8868488073349
14.930146217346191 3.6799511909484863 -2.470421314239502
14.760537147521973 4.927783012390137 -2.500047206878662
14.316142082214355 6.099550724029541 -2.500047206878662
12.938969612121582 6.790907859802246 -2.347647190093994
12.35057544708252 7.810029029846191 -2.347647190093994
10.122626304626465 10.538779258728027 -2.347647190093994
8.300995826721191 12.026044845581055 -2.347647190093994
6.264389514923096 13.201913833618164 -2.347647190093994
1.9998779296875 9.796064376831055 -1.6062685251235962
0.4028564393520355 9.996787071228027 -1.6073580980300903
-0.40696287155151367 10.098564147949219 -1.6237237453460693
-1.2388916015625 10.203125 -1.6512451171875
-3.0202245712280273 10.427011489868164 -1.7440332174301147
-4.001205921173096 10.550312042236328 -1.8127851486206055
-6.25475549697876 10.8335542678833 -2.0097427368164062
-7.594086647033691 11.001893997192383 -2.1477155685424805
-9.14156723022461 11.196386337280273 -2.322190284729004
-10.937827110290527 9.690058708190918 -2.347647190093994
-14.760546684265137 4.927783012390137 -2.500047206878662
-15.109209060668945 3.724072217941284 -2.500047206878662
-15.510927200317383 1.2521581649780273 -2.500047206878662
14.531322479248047 0.0 -2.500047206878662
13.783486366271973 4.60159158706665 -2.500047206878662
13.368525505065918 5.69580078125 -2.500047206878662
10.908808708190918 8.197431564331055 -2.347647190093994
6.82275390625 11.817353248596191 -2.347647190093994
5.8497314453125 12.32802677154541 -2.347647190093994
1.9998779296875 9.796064376831055 -1.7201285362243652
1.201635718345642 9.896376609802246 -1.7151323556900024
0.4028564393520355 9.996787071228027 -1.721295714378357
-0.40696287155151367 10.098564147949219 -1.738821029663086
-1.2388916015625 10.203125 -1.768293857574463
-3.0202245712280273 10.427011489868164 -1.8676589727401733
-4.001205921173096 10.550312042236328 -1.941284418106079
-5.069936275482178 10.684638023376465 -2.034691572189331
-6.2547607421875 10.8335542678833 -2.1522040367126465
-7.594086647033691 11.001904487609863 -2.2999565601348877
-8.630048751831055 10.569872856140137 -2.347647190093994
-10.213818550109863 9.048632621765137 -2.347647190093994
-10.908818244934082 8.19742202758789 -2.347647190093994
-11.533056259155273 7.293046474456787 -2.347647190093994
-12.8635835647583 5.480644226074219 -2.405616283416748
-13.783495903015137 4.60159158706665 -2.500047206878662
-14.109081268310547 3.4775586128234863 -2.500047206878662
13.625932693481445 9.765624781721272e-06 -2.500047206878662
12.079569816589355 0.9751757383346558 -2.2235360145568848
13.229985237121582 3.2608983516693115 -2.500047206878662
11.32967758178711 5.946279048919678 -2.347647190093994
10.814462661743164 6.83865213394165 -2.347647190093994
10.229121208190918 7.686679363250732 -2.347647190093994
8.86361312866211 9.227997779846191 -2.347647190093994
8.092338562011719 9.911308288574219 -2.347647190093994
7.268559455871582 10.5303316116333 -2.347647190093994
6.397641658782959 11.0810546875 -2.347647190093994
2.80804181098938 9.694472312927246 -1.8518297672271729
1.9998779296875 9.79605484008789 -1.8344255685806274
1.201635718345642 9.896376609802246 -1.8290972709655762
0.4028564393520355 9.996787071228027 -1.8356702327728271
-2.105219602584839 10.31201171875 -1.931044578552246
-5.069936275482178 10.6846284866333 -2.1698906421661377
-6.254750728607178 10.8335542678833 -2.295210123062134
-7.268579006195068 10.530312538146973 -2.347647190093994
-8.092333793640137 9.91127872467041 -2.347647190093994
-8.863627433776855 9.227997779846191 -2.347647190093994
-10.814472198486328 6.838632583618164 -2.347647190093994
-12.5054292678833 5.328046798706055 -2.494034767150879
-12.924696922302246 4.314892292022705 -2.500047206878662
-13.449481964111328 2.1858301162719727 -2.500047206878662
12.782109260559082 1.031894564628601 -2.500047206878662
12.451064109802246 3.06890606880188 -2.500047206878662
11.797524452209473 5.026464939117432 -2.500047206878662
10.177753448486328 6.436025142669678 -2.347647190093994
9.626870155334473 7.234120845794678 -2.347647190093994
9.013534545898438 7.985312461853027 -2.347647190093994
8.341757774353027 8.684697151184082 -2.347647190093994
6.840615272521973 9.910351753234863 -2.347647190093994
5.162299633026123 10.879335403442383 -2.347647190093994
2.80804181098938 9.694472312927246 -1.9676792621612549
0.4028564393520355 9.996787071228027 -1.9505082368850708
-0.40696287155151367 10.098564147949219 -1.9703675508499146
-1.2388916015625 10.203125 -2.0037648677825928
-2.105219602584839 10.31201171875 -2.051849603652954
-4.001205921173096 10.550312042236328 -2.1997909545898438
-6.02099084854126 10.428651809692383 -2.347647190093994
-6.840634822845459 9.910322189331055 -2.347647190093994
-7.615893363952637 9.327763557434082 -2.347647190093994
-9.013545036315918 7.985282897949219 -2.347647190093994
-10.177762985229492 6.436005592346191 -2.347647190093994
-12.163740158081055 4.06082010269165 -2.500047206878662
12.107744216918945 0.0 -2.500047206878662
11.950946807861328 1.942226529121399 -2.500047206878662
6.458705902099609 9.357050895690918 -2.347647190093994
4.874091625213623 10.271924018859863 -2.347647190093994
2.80804181098938 9.694472312927246 -2.084031105041504
1.9998779296875 9.796064376831055 -2.0644443035125732
1.201635718345642 9.896376609802246 -2.0584475994110107
0.4028564393520355 9.996787071228027 -2.065845012664795
-2.105219602584839 10.31201171875 -2.173178195953369
-3.0202245712280273 10.427011489868164 -2.2415051460266113
-5.684838771820068 9.846405982971191 -2.347647190093994
-6.458715438842773 9.357030868530273 -2.347647190093994
-7.190693378448486 8.806991577148438 -2.347647190093994
-7.876054286956787 8.199804306030273 -2.347647190093994
-8.510316848754883 7.539472579956055 -2.347647190093994
-9.089394569396973 6.830214500427246 -2.347647190093994
-9.609540939331055 6.076669692993164 -2.347647190093994
-10.067362785339355 5.283730506896973 -2.347647190093994
-11.138886451721191 4.745810508728027 -2.500047206878662
-11.7559175491333 2.8975584506988525 -2.500047206878662
-11.950956344604492 1.9421972036361694 -2.500047206878662
-12.068486213684082 0.97425776720047 -2.500047206878662
11.464735984802246 0.0 -2.500047206878662
11.427557945251465 0.9225390553474426 -2.500047206878662
11.316264152526855 1.8390820026397705 -2.500047206878662
10.547308921813965 4.493789196014404 -2.500047206878662
9.099194526672363 5.753974437713623 -2.347647190093994
8.058354377746582 7.139071941375732 -2.347647190093994
3.817621946334839 10.066229820251465 -2.347647190093994
2.80804181098938 9.694472312927246 -2.200915575027466
0.4028564393520355 9.996787071228027 -2.181710720062256
-1.2388916015625 10.203125 -2.2412796020507812
-2.105219602584839 10.31201171875 -2.295062780380249
-2.995249032974243 10.340800285339355 -2.347647190093994
-3.817626953125 10.066240310668945 -2.347647190093994
-6.11572265625 8.860116958618164 -2.347647190093994
-8.058359146118164 7.139062404632568 -2.347647190093994
-8.606679916381836 6.467490196228027 -2.347647190093994
-9.099204063415527 5.753964900970459 -2.347647190093994
-10.547314643859863 4.493779182434082 -2.500047206878662
-11.131591796875 2.7436914443969727 -2.500047206878662
-11.427557945251465 0.9225195050239563 -2.500047206878662
10.883906364440918 9.765624781721272e-06 -2.500047206878662
10.323783874511719 3.4465818405151367 -2.500047206878662
9.629286766052246 5.053837776184082 -2.49798846244812
8.63820743560791 5.462460994720459 -2.347647190093994
8.170644760131836 6.139853477478027 -2.347647190093994
7.650102138519287 6.777402400970459 -2.347647190093994
5.805859088897705 8.411250114440918 -2.347647190093994
5.110209941864014 8.85116195678711 -2.347647190093994
2.80804181098938 9.694472312927246 -2.318369150161743
1.9998779296875 9.796064376831055 -2.296579122543335
1.201635718345642 9.896376609802246 -2.2899081707000732
0.4028564393520355 9.996787071228027 -2.2981369495391846
-0.40696287155151367 10.098564147949219 -2.3215365409851074
-1.2319482564926147 10.145917892456055 -2.3476474285125732
-2.044360399246216 10.013886451721191 -2.347647190093994
-2.843510627746582 9.816923141479492 -2.347647190093994
-3.624218702316284 9.556288719177246 -2.347647190093994
-4.381425857543945 9.233652114868164 -2.347647190093994
-5.805878639221191 8.411239624023438 -2.347647190093994
-7.07995080947876 7.370985984802246 -2.347647190093994
-7.650107383728027 6.777382850646973 -2.347647190093994
-8.638213157653809 5.462450981140137 -2.347647190093994
-9.61099624633789 5.04421854019165 -2.4932425022125244
-10.012968063354492 4.266103267669678 -2.500047206878662
-10.567646026611328 2.604667901992798 -2.500047206878662
-10.848612785339355 0.8757714629173279 -2.500047206878662
10.356542587280273 0.0 -2.500047206878662
10.222421646118164 1.6613085269927979 -2.500047206878662
10.055615425109863 2.4784960746765137 -2.500047206878662
7.774755477905273 5.842353343963623 -2.347647190093994
7.279433250427246 6.449013710021973 -2.347647190093994
6.736894607543945 7.013866901397705 -2.347647190093994
5.524555683135986 8.003691673278809 -2.347647190093994
4.862607479095459 8.422285079956055 -2.347647190093994
3.448618173599243 9.093241691589355 -2.347647190093994
2.7057275772094727 9.341249465942383 -2.347647190093994
1.945288062095642 9.528681755065918 -2.347647190093994
1.1722412109375 9.654306411743164 -2.347647190093994
0.39158689975738525 9.7173433303833 -2.347647190093994
-0.3915966749191284 9.717333793640137 -2.347647190093994
-1.1722558736801147 9.654296875 -2.347647190093994
-1.9453027248382568 9.528681755065918 -2.347647190093994
-2.7057323455810547 9.341249465942383 -2.347647190093994
-3.448613166809082 9.093241691589355 -2.347647190093994
-4.169140338897705 8.786269187927246 -2.3476474285125732
-4.862617015838623 8.42227554321289 -2.347647190093994
-7.279443264007568 6.44900369644165 -2.347647190093994
-7.774765491485596 5.842333793640137 -2.347647190093994
-9.527812004089355 4.059404373168945 -2.500047206878662
-9.823564529418945 3.2795801162719727 -2.500047206878662
-10.055604934692383 2.478466749191284 -2.500047206878662
-10.322968482971191 0.8333300352096558 -2.500047206878662
9.58853530883789 2.363349437713623 -2.500047206878662
9.367265701293945 3.127265453338623 -2.500047206878662
9.085244178771973 3.870859384536743 -2.500047206878662
8.744306564331055 4.589365005493164 -2.500047206878662
7.925693035125732 5.011894226074219 -2.373955249786377
7.413622856140137 5.570976257324219 -2.347647190093994
6.941308498382568 6.149453163146973 -2.347647190093994
6.423954963684082 6.688066482543945 -2.347647190093994
5.864970684051514 7.183271408081055 -2.347647190093994
5.267939567565918 7.631923675537109 -2.347647190093994
3.975468635559082 8.378144264221191 -2.347647190093994
2.5800437927246094 8.907343864440918 -2.347647190093994
1.1177929639816284 9.205888748168945 -2.347647190093994
0.37340331077575684 9.26595687866211 -2.347647190093994
-1.1178125143051147 9.205859184265137 -2.347647190093994
-1.8549413681030273 9.086073875427246 -2.347647190093994
-2.5800487995147705 8.907343864440918 -2.347647190093994
-3.2884275913238525 8.670868873596191 -2.347647190093994
-3.975478410720825 8.378134727478027 -2.347647190093994
-5.864980220794678 7.183280944824219 -2.347647190093994
-6.423984050750732 6.688056468963623 -2.347647190093994
-7.837865829467773 4.956347465515137 -2.347647190093994
-8.74154281616211 4.587900161743164 -2.499253273010254
-9.367265701293945 3.1272265911102295 -2.500047206878662
-9.747607231140137 1.5841211080551147 -2.500047206878662
9.434775352478027 0.0 -2.500047206878662
9.160614967346191 2.257890462875366 -2.500047206878662
7.082773208618164 5.322363376617432 -2.347647190093994
6.631533145904541 5.87502908706665 -2.347647190093994
6.137279987335205 6.389609336853027 -2.347647190093994
3.7980566024780273 8.004247665405273 -2.347647190093994
1.067910075187683 8.795039176940918 -2.347647190093994
0.35673826932907104 8.852460861206055 -2.347647190093994
-1.0679198503494263 8.795058250427246 -2.347647190093994
-3.141664981842041 8.283905982971191 -2.347647190093994
-4.429829120635986 7.672675609588623 -2.347647190093994
-5.032856464385986 7.291327953338623 -2.347647190093994
-6.137304782867432 6.389579772949219 -2.347647190093994
-6.631537914276123 5.875019550323486 -2.347647190093994
-7.082787990570068 5.322353363037109 -2.347647190093994
-7.734033107757568 4.890693187713623 -2.4247536659240723
-8.35409164428711 4.384541034698486 -2.500047206878662
-8.949237823486328 2.987685441970825 -2.500047206878662
-9.404179573059082 0.75916987657547 -2.500047206878662
9.02945327758789 0.0 -2.500047206878662
8.91250991821289 1.4484374523162842 -2.500047206878662
7.995175838470459 4.196191310882568 -2.500047206878662
6.778495788574219 5.093700885772705 -2.347647190093994
6.346630573272705 5.622636795043945 -2.347647190093994
4.239506721496582 7.343037128448486 -2.347647190093994
3.634892463684082 7.660390377044678 -2.347647190093994
2.359013557434082 8.144257545471191 -2.347647190093994
0.3414062559604645 8.472138404846191 -2.347647190093994
-3.634897470474243 7.660351276397705 -2.347647190093994
-4.239511489868164 7.34304666519165 -2.347647190093994
-5.362514495849609 6.567890644073486 -2.347647190093994
-7.610976219177246 4.812861442565918 -2.493288278579712
-7.995185375213623 4.196162223815918 -2.500047206878662
-8.5647554397583 2.859326124191284 -2.500047206878662
-8.767080307006836 2.160878896713257 -2.500047206878662
-8.912528991699219 1.4484179019927979 -2.500047206878662
-9.000165939331055 0.7265625 -2.500047206878662
8.655312538146973 0.0 -2.500047206878662
8.627245903015137 0.6964648365974426 -2.500047206878662
8.40380859375 2.071337938308716 -2.500047206878662
8.209882736206055 2.740849494934082 -2.500047206878662
7.962709903717041 3.3925976753234863 -2.500047206878662
7.663901329040527 4.022314548492432 -2.500047206878662
6.083662033081055 5.389657974243164 -2.347647190093994
5.140322208404541 6.295742034912109 -2.347647190093994
4.617055416107178 6.68896484375 -2.347647190093994
3.4842772483825684 7.342968463897705 -2.347647190093994
2.8821191787719727 7.599531173706055 -2.347647190093994
2.2612695693969727 7.806796550750732 -2.347647190093994
0.9796874523162842 8.068437576293945 -2.347647190093994
-0.3272753953933716 8.121112823486328 -2.347647190093994
-0.9796972274780273 8.068427085876465 -2.347647190093994
-2.261279344558716 7.806806564331055 -2.347647190093994
-5.630253791809082 5.861708641052246 -2.347647190093994
-6.083666801452637 5.3896484375 -2.347647190093994
-7.663901329040527 4.022294998168945 -2.500047206878662
-7.962714672088623 3.392578125 -2.500047206878662
-8.209882736206055 2.740859270095825 -2.500047206878662
-8.403818130493164 2.071347713470459 -2.500047206878662
-8.627245903015137 0.6964550614356995 -2.500047206878662
8.308828353881836 -1.9531249563442543e-05 -2.500047206878662
8.2012300491333 1.3328319787979126 -2.500047206878662
7.643945217132568 3.256787061691284 -2.500047206878662
7.357104301452637 3.8613085746765137 -2.500047206878662
7.018300533294678 4.438105583190918 -2.49853515625
5.840126991271973 5.173906326293945 -2.347647190093994
3.9011619091033936 6.757011413574219 -2.347647190093994
3.344804525375366 7.049013614654541 -2.347647190093994
2.1707518100738525 7.494287014007568 -2.347647190093994
0.9404687285423279 7.745439052581787 -2.347647190093994
-0.940478503704071 7.745439052581787 -2.347647190093994
-1.5606738328933716 7.644658088684082 -2.347647190093994
-2.7667479515075684 7.295312404632568 -2.347647190093994
-4.432246208190918 6.421181678771973 -2.347647190093994
-4.934560298919678 6.04373025894165 -2.347647190093994
-5.404877662658691 5.627050876617432 -2.347647190093994
-5.840141296386719 5.173896312713623 -2.347647190093994
-7.01809549331665 4.437968730926514 -2.498460292816162
-7.357114315032959 3.861269474029541 -2.500047206878662
-7.881230354309082 2.6311230659484863 -2.500047206878662
-8.067401885986328 1.9884276390075684 -2.500047206878662
-8.201250076293945 1.3328124284744263 -2.500047206878662
-8.28189468383789 0.6685742139816284 -2.500047206878662
7.961073875427246 0.6426953077316284 -2.500047206878662
7.883530139923096 1.281191349029541 -2.500047206878662
7.072099685668945 3.71172833442688 -2.500047206878662
6.750507831573486 4.268749713897705 -2.500047206878662
6.230507850646973 4.681904315948486 -2.439507246017456
5.195483207702637 5.409081935882568 -2.347647190093994
3.3394775390625 4.838076114654541 -1.8401256799697876
3.7500388622283936 6.495253562927246 -2.347647190093994
2.6595654487609863 7.012714862823486 -2.347647190093994
2.0866503715515137 7.203964710235596 -2.347647190093994
1.500209927558899 7.348515510559082 -2.347647190093994
0.30199217796325684 7.494003772735596 -2.347647190093994
-0.3020068407058716 7.494003772735596 -2.347647190093994
-0.9040380716323853 7.445400238037109 -2.347647190093994
-2.0866503715515137 7.203964710235596 -2.347647190093994
-2.6595799922943115 7.0126953125 -2.347647190093994
-3.2152392864227295 6.775947093963623 -2.347647190093994
-3.7500438690185547 6.495273113250732 -2.347647190093994
-4.260541915893555 6.172451019287109 -2.347647190093994
-4.743393421173096 5.80959939956665 -2.347647190093994
-5.6138916015625 4.973466873168945 -2.347647190093994
-6.750512599945068 4.268740177154541 -2.500047206878662
-7.575927734375 2.5291991233825684 -2.500047206878662
-7.7548828125 1.9113867282867432 -2.500047206878662
-7.883544921875 1.281191349029541 -2.500047206878662
-7.961064338684082 0.6426659822463989 -2.500047206878662
7.687114238739014 0.0 -2.500047206878662
7.587558269500732 1.2331054210662842 -2.500047206878662
7.463730335235596 1.8396483659744263 -2.500047206878662
6.806591510772705 3.5723729133605957 -2.500047206878662
6.128710746765137 4.605429649353027 -2.4932563304901123
3.609247922897339 6.251415729522705 -2.347647190093994
3.0945215225219727 6.521572113037109 -2.347647190093994
2.5597264766693115 6.749413967132568 -2.347647190093994
2.0083203315734863 6.933505535125732 -2.347647190093994
0.8700878620147705 7.165878772735596 -2.347647190093994
-0.8701074123382568 7.165878772735596 -2.347647190093994
-3.094531297683716 6.521572113037109 -2.347647190093994
-5.403139591217041 4.786747932434082 -2.347647190093994
-6.4970703125 4.108476638793945 -2.500047206878662
-6.806601524353027 3.5723729133605957 -2.500047206878662
-7.071987152099609 3.0130858421325684 -2.500047206878662
-7.587568283081055 1.2330760955810547 -2.500047206878662
-7.662177562713623 0.6185449361801147 -2.500047206878662
7.382997989654541 0.5960156321525574 -2.500047206878662
7.311093807220459 1.188173770904541 -2.500047206878662
7.191786766052246 1.7726171016693115 -2.500047206878662
7.025820255279541 2.3455564975738525 -2.500047206878662
6.260332107543945 3.9587888717651367 -2.500047206878662
5.910459041595459 4.441415786743164 -2.4953901767730713
5.206259727478027 4.612353324890137 -2.347647190093994
4.818227291107178 5.016308307647705 -2.347647190093994
4.398964881896973 5.387753963470459 -2.347647190093994
3.3271093368530273 4.820156097412109 -1.9768552780151367
3.4777441024780273 6.023612976074219 -2.347647190093994
2.981767416000366 6.283945083618164 -2.347647190093994
2.4664502143859863 6.503496170043945 -2.347647190093994
1.9351366758346558 6.680869102478027 -2.347647190093994
1.3912694454193115 6.814921855926514 -2.347647190093994
0.28006836771965027 6.949853420257568 -2.347647190093994
-0.28006836771965027 6.949843406677246 -2.347647190093994
-0.8383983969688416 6.90478515625 -2.347647190093994
-1.3912889957427979 6.814921855926514 -2.347647190093994
-1.935146450996399 6.680869102478027 -2.347647190093994
-2.4664549827575684 6.503496170043945 -2.347647190093994
-2.9817724227905273 6.283925533294678 -2.347647190093994
-4.398974418640137 5.387753963470459 -2.347647190093994
-5.214433670043945 4.619579792022705 -2.351331949234009
-6.260336875915527 3.9587790966033936 -2.500047206878662
-7.025820255279541 2.3455564975738525 -2.500047206878662
-7.382997989654541 0.5960058569908142 -2.500047206878662
7.144726276397705 -1.9531249563442543e-05 -2.500047206878662
7.052206993103027 1.146083950996399 -2.500047206878662
6.937108993530273 1.7098437547683716 -2.500047206878662
6.777030944824219 2.262500047683716 -2.500047206878662
6.326333045959473 3.3203125 -2.500047206878662
5.705737113952637 4.287578105926514 -2.497391700744629
4.647616863250732 4.838691234588623 -2.347647190093994
4.24319314956665 5.196972370147705 -2.347647190093994
3.3545897006988525 5.81033182144165 -2.347647190093994
1.8666112422943115 6.444286823272705 -2.347647190093994
1.3420019149780273 6.573613166809082 -2.347647190093994
-0.27015623450279236 6.703749656677246 -2.347647190093994
-1.3420116901397705 6.57360315322876 -2.347647190093994
-2.3791112899780273 6.273193359375 -2.347647190093994
-3.8112597465515137 5.521552562713623 -2.347647190093994
-5.191933631896973 4.599648475646973 -2.4271323680877686
-5.70812463760376 4.289365291595459 -2.498440742492676
-6.038652420043945 3.818603515625 -2.500047206878662
-6.573002815246582 2.800488233566284 -2.500047206878662
-6.777040958404541 2.2624902725219727 -2.500047206878662
-7.052206993103027 1.146093726158142 -2.500047206878662
-7.121552467346191 0.574902355670929 -2.500047206878662
6.876171588897705 0.5550976395606995 -2.500047206878662
6.698085784912109 1.6509374380111694 -2.500047206878662
6.543515682220459 2.1845507621765137 -2.500047206878662
5.830575942993164 3.6870312690734863 -2.500047206878662
5.513505935668945 4.143125057220459 -2.499375820159912
4.487480163574219 4.671962738037109 -2.347647190093994
4.096992015838623 5.017890453338623 -2.347647190093994
2.7770702838897705 5.852558612823486 -2.347647190093994
2.2971386909484863 6.057040691375732 -2.347647190093994
1.8022948503494263 6.222246170043945 -2.347647190093994
1.2957665920257568 6.347089767456055 -2.347647190093994
-2.297128915786743 6.057040691375732 -2.347647190093994
-3.239003896713257 5.610116958618164 -2.347647190093994
-5.514985084533691 4.144228458404541 -2.500047206878662
-5.830580711364746 3.687021493911743 -2.500047206878662
-6.108354568481445 3.2058982849121094 -2.500047206878662
-6.346518516540527 2.703984260559082 -2.500047206878662
-6.543515682220459 2.184521436691284 -2.500047206878662
-6.698076248168945 1.650917887687683 -2.500047206878662
-6.809208869934082 1.106591820716858 -2.500047206878662
6.666972637176514 0.0 -2.500047206878662
6.473232269287109 1.595497965812683 -2.500047206878662
6.323862075805664 2.111201047897339 -2.500047206878662
6.133466720581055 2.613222599029541 -2.500047206878662
4.977792739868164 4.409921646118164 -2.4937784671783447
4.336845397949219 4.515126705169678 -2.347647190093994
3.959462881088257 4.849452972412109 -2.347647190093994
3.315688371658325 4.803632736206055 -2.1887547969818115
3.1302733421325684 5.421786785125732 -2.347647190093994
2.220024347305298 5.853701114654541 -2.347647190093994
1.741796851158142 6.013378620147705 -2.347647190093994
0.2520800828933716 6.25548791885376 -2.347647190093994
-0.25209471583366394 6.255468845367432 -2.347647190093994
-2.220029354095459 5.853720664978027 -2.347647190093994
-2.6838574409484863 5.656093597412109 -2.347647190093994
-3.1302831172943115 5.421796798706055 -2.347647190093994
-3.959462881088257 4.849462985992432 -2.347647190093994
-4.342167854309082 4.520673751831055 -2.350531578063965
-4.980165958404541 4.412040710449219 -2.49497389793396
-5.329867839813232 4.005126953125 -2.500047206878662
-5.634863376617432 3.563242197036743 -2.500047206878662
-6.323866844177246 2.111201047897339 -2.500047206878662
-6.580634593963623 1.0694531202316284 -2.500047206878662
-6.645351409912109 0.5364550948143005 -2.500047206878662
6.427778244018555 0.5189062356948853 -2.500047206878662
6.261293888092041 1.543251872062683 -2.500047206878662
5.932665824890137 2.527656078338623 -2.500047206878662
5.450361251831055 3.446601390838623 -2.500047206878662
3.829828977584839 4.690683364868164 -2.347647190093994
2.5959765911102295 5.470917701721191 -2.347647190093994
1.2112646102905273 5.933183670043945 -2.347647190093994
0.7299169898033142 6.011435508728027 -2.347647190093994
-0.729931652545929 6.011425495147705 -2.347647190093994
-1.6847655773162842 5.816504001617432 -2.347647190093994
-2.5959863662719727 5.470917701721191 -2.347647190093994
-3.4399707317352295 4.983632564544678 -2.347647190093994
-3.829824209213257 4.690673828125 -2.347647190093994
-4.821108341217041 4.271113395690918 -2.4970407485961914
-5.450370788574219 3.4465723037719727 -2.500047206878662
-6.11681604385376 2.0420799255371094 -2.500047206878662
-6.261298656463623 1.543251872062683 -2.500047206878662
-6.427783012390137 0.5188866853713989 -2.500047206878662
6.222294807434082 0.5023046731948853 -2.500047206878662
6.061142444610596 1.493935465812683 -2.500047206878662
5.921278953552246 1.9767968654632568 -2.500047206878662
5.743007659912109 2.446855306625366 -2.500047206878662
5.276132583618164 3.3364062309265137 -2.500047206878662
4.233080863952637 4.407099723815918 -2.4472789764404297
3.309941291809082 4.795283317565918 -2.3335139751434326
2.9309959411621094 5.076640605926514 -2.347647190093994
2.512988328933716 5.296034812927246 -2.347647190093994
1.1725389957427979 5.743535041809082 -2.347647190093994
0.7065820097923279 5.819267272949219 -2.347647190093994
0.23603515326976776 5.857236385345459 -2.347647190093994
-0.7065868973731995 5.819247722625732 -2.347647190093994
-1.1725585460662842 5.74352502822876 -2.347647190093994
-1.6309081315994263 5.630566120147705 -2.347647190093994
-3.707392454147339 4.540732383728027 -2.347647190093994
-4.670639514923096 4.137822151184082 -2.498995542526245
-5.276137351989746 3.33642578125 -2.500047206878662
-5.527499675750732 2.9010350704193115 -2.500047206878662
-6.061142444610596 1.49392569065094 -2.500047206878662
6.047490119934082 -9.765624781721272e-06 -2.500047206878662
6.027871131896973 0.48662108182907104 -2.500047206878662
5.969179630279541 0.97010737657547 -2.500047206878662
5.871757507324219 1.4472754001617432 -2.500047206878662
5.563564300537109 2.370410203933716 -2.500047206878662
4.834619045257568 3.6329784393310547 -2.500047206878662
4.525771617889404 4.009482383728027 -2.499581813812256
4.177665710449219 4.349413871765137 -2.4931416511535645
3.225947141647339 4.673593521118164 -2.347647190093994
2.4344725608825684 5.130546569824219 -2.347647190093994
2.013745069503784 5.309794902801514 -2.347647190093994
1.1359179019927979 5.564062595367432 -2.347647190093994
-0.2286718636751175 5.674228191375732 -2.347647190093994
-0.6845117211341858 5.637431621551514 -2.347647190093994
-1.5799511671066284 5.454628944396973 -2.347647190093994
-4.526606559753418 4.010234355926514 -2.500047206878662
-5.354794979095459 2.8104100227355957 -2.500047206878662
-5.563569068908691 2.3703906536102295 -2.500047206878662
-5.736264705657959 1.9150292873382568 -2.500047206878662
-5.871767520904541 1.4472460746765137 -2.500047206878662
-5.969179630279541 0.9700683355331421 -2.500047206878662
-6.027880668640137 0.48662108182907104 -2.500047206878662
5.786713600158691 0.9404394030570984 -2.500047206878662
5.393496036529541 2.2979588508605957 -2.500047206878662
5.191103458404541 2.724501848220825 -2.500047206878662
4.955034255981445 3.133378744125366 -2.500047206878662
4.686826229095459 3.5219335556030273 -2.500047206878662
4.388236999511719 3.887636661529541 -2.500047206878662
3.5550780296325684 4.354179382324219 -2.397078514099121
2.752626895904541 4.767685413360596 -2.347647190093994
2.360058546066284 4.973720550537109 -2.347647190093994
1.952187418937683 5.147480487823486 -2.347647190093994
1.1011865139007568 5.393984317779541 -2.347647190093994
0.22166015207767487 5.500781059265137 -2.347647190093994
-0.2216796875 5.500791072845459 -2.347647190093994
-1.1011914014816284 5.393984317779541 -2.347647190093994
-1.5316600799560547 5.287890434265137 -2.347647190093994
-4.388236999511719 3.887646436691284 -2.500047206878662
-5.191103458404541 2.724501848220825 -2.500047206878662
-5.560922622680664 1.8565136194229126 -2.500047206878662
-5.692280292510986 1.4030077457427979 -2.500047206878662
-5.786708831787109 0.9404394030570984 -2.500047206878662
5.613486289978027 0.9122851490974426 -2.500047206878662
5.521864891052246 1.3610155582427979 -2.500047206878662
5.232036113739014 2.2291698455810547 -2.500047206878662
5.035703182220459 2.642949104309082 -2.500047206878662
4.806699275970459 3.039560556411743 -2.500047206878662
4.256875038146973 3.7712695598602295 -2.500047206878662
3.0337207317352295 4.395107269287109 -2.347647190093994
1.8937548398971558 4.993417739868164 -2.347647190093994
1.4858105182647705 5.129589557647705 -2.347647190093994
0.21503905951976776 5.336112976074219 -2.347647190093994
-0.21503905951976776 5.336112976074219 -2.347647190093994
-0.6437304615974426 5.301503658294678 -2.347647190093994
-1.0682275295257568 5.232509613037109 -2.347647190093994
-1.8937499523162842 4.993398189544678 -2.347647190093994
-3.5862207412719727 4.392323970794678 -2.4926931858062744
-4.256884574890137 3.7712597846984863 -2.500047206878662
-4.546533107757568 3.41650390625 -2.500047206878662
-5.035707950592041 2.642939329147339 -2.500047206878662
-5.232040882110596 2.2291600704193115 -2.500047206878662
-5.613486289978027 0.9122851490974426 -2.500047206878662
5.520268440246582 0.0 -2.500047206878662
5.502363204956055 0.44419920444488525 -2.500047206878662
5.236171722412109 1.74807608127594 -2.500047206878662
5.078525066375732 2.163749933242798 -2.500047206878662
4.887948989868164 2.5653905868530273 -2.500047206878662
4.665664196014404 2.9504003524780273 -2.500047206878662
4.413134574890137 3.3162596225738525 -2.500047206878662
3.822138547897339 3.9792773723602295 -2.4988226890563965
