ply
format ascii 1.0
element vertex 746
property float x
property float y
property float z
end_header
-4.341389179229736 -14.988203048706055 4.181153297424316
11.00644302368164 -13.480429649353027 4.663118839263916
-4.341252326965332 -14.987772941589355 3.996248722076416
-4.341130256652832 -14.987343788146973 3.8123974800109863
1.1778173446655273 -29.22884750366211 5.450995922088623
-20.61294937133789 -10.81851577758789 4.071558952331543
-4.340317249298096 -14.984511375427246 2.5506768226623535
-4.340202331542969 -14.984140396118164 2.373433828353882
1.1908373832702637 -29.552040100097656 4.49978494644165
-4.340087890625 -14.983739852905273 2.196795701980591
1.1952440738677979 -29.6612491607666 3.8454229831695557
-4.339875221252441 -14.9829683303833 1.8451491594314575
-4.339755535125732 -14.982587814331055 1.6700506210327148
-4.339530944824219 -14.981816291809082 1.3210833072662354
-4.339421272277832 -14.9814453125 1.1471258401870728
-4.339213848114014 -14.980722427368164 0.9734383821487427
-4.338986873626709 -14.979921340942383 0.8000036478042603
1.1866503953933716 -29.448055267333984 1.511812448501587
22.600971221923828 -16.9835147857666 1.1362584829330444
1.1952440738677979 -29.6612491607666 0.5346102714538574
22.1926212310791 -16.676660537719727 0.49993833899497986
-4.338071346282959 -14.976757049560547 0.10799071937799454
22.11048698425293 -16.614940643310547 0.1915530413389206
-4.337836742401123 -14.975966453552246 -0.06479400396347046
-4.337375164031982 -14.974384307861328 -0.41039595007896423
3.5674071311950684 -29.38021469116211 -1.4359792470932007
-25.46660614013672 -13.365907669067383 -1.7151150703430176
-4.336691856384277 -14.972021102905273 -0.9295321702957153
21.916362762451172 -16.46906280517578 -1.6348204612731934
-27.828466415405273 -6.859120845794678 -2.347599983215332
-27.186307907104492 -9.076123237609863 -2.347599983215332
-26.367826461791992 -11.23427677154541 -2.347599983215332
-24.250614166259766 -15.335126876831055 -2.350152015686035
-18.250030517578125 -22.35220718383789 -2.3635623455047607
-12.775752067565918 -18.50885772705078 -1.8421136140823364
-14.454277038574219 -25.035547256469727 -2.367847442626953
-4.336227893829346 -14.970419883728027 -1.2766056060791016
-5.797084808349609 -28.396024703979492 -2.3738436698913574
-1.1634032726287842 -28.86929702758789 -2.3665544986724854
1.1613280773162842 -28.8179874420166 -2.362339496612549
5.769106388092041 -28.258983612060547 -2.3623857498168945
5.948720455169678 -20.537479400634766 -1.751333475112915
10.225932121276855 -26.963523864746094 -2.3620269298553467
14.40848159790039 -24.95623016357422 -2.3603460788726807
16.35872459411621 -23.699735641479492 -2.358734607696533
19.914560317993164 -20.733251571655273 -2.3547134399414062
21.494808197021484 -19.042734146118164 -2.3521370887756348
24.224281311035156 -15.31850528717041 -2.347599983215332
25.37834358215332 -13.31956958770752 -2.347599983215332
27.186351776123047 -9.076132774353027 -2.347599983215332
-26.860143661499023 2.9296874345163815e-05 -2.5
-26.773054122924805 -2.1613378524780273 -2.5
-26.51231575012207 -4.308652400970459 -2.5
-23.924701690673828 -7.987226486206055 -2.347599983215332
-23.204416275024414 -9.886474609375 -2.347599983215332
-21.318023681640625 -13.48070240020752 -2.347599983215332
-18.879501342773438 -16.725770950317383 -2.347599983215332
-15.985021591186523 -19.578094482421875 -2.3524577617645264
-12.914831161499023 -18.710351943969727 -2.1160316467285156
-10.863303184509277 -22.893905639648438 -2.3585617542266846
-4.336000919342041 -14.969637870788574 -1.4505655765533447
-5.078503131866455 -24.87618064880371 -2.363098621368408
1.0191650390625 -25.290077209472656 -2.3557755947113037
5.062075138092041 -24.79574203491211 -2.3554580211639404
10.839836120605469 -22.844491958618164 -2.3534703254699707
14.347329139709473 -20.78569221496582 -2.350741147994995
17.4724063873291 -18.190711975097656 -2.347599983215332
21.318021774291992 -13.480683326721191 -2.347599983215332
22.333646774291992 -11.721601486206055 -2.347599983215332
25.412466049194336 -8.483925819396973 -2.493584632873535
26.5123291015625 -4.308681488037109 -2.5
-23.97759437561035 1.9531249563442543e-05 -2.5
-23.89983367919922 -1.9294042587280273 -2.5
-23.667089462280273 -3.846259593963623 -2.5
-22.74359130859375 -7.592929363250732 -2.5
-21.273202896118164 -9.063661575317383 -2.4109582901000977
-19.03023338317871 -12.033974647521973 -2.347599983215332
-16.8533878326416 -14.930781364440918 -2.347599983215332
-15.597331047058105 -16.238534927368164 -2.347599983215332
-14.24007511138916 -17.440927505493164 -2.347599983215332
-12.79049015045166 -18.53023338317871 -2.347599983215332
-11.25946044921875 -19.501972198486328 -2.347914457321167
-7.995536804199219 -21.082469940185547 -2.350917100906372
-2.7209129333496094 -22.408729553222656 -2.3535866737365723
4.508418083190918 -22.083721160888672 -2.3500328063964844
9.65237045288086 -20.341991424560547 -2.3475961685180664
12.790497779846191 -18.53023338317871 -2.347599983215332
15.597309112548828 -16.238515853881836 -2.347599983215332
18.00016975402832 -13.526240348815918 -2.347599983215332
19.03022003173828 -12.033964157104492 -2.347599983215332
20.718975067138672 -10.874150276184082 -2.4396965503692627
23.28086280822754 -5.738203048706055 -2.5
23.899858474731445 -1.9293944835662842 -2.5
-21.648883819580078 1.9531249563442543e-05 -2.5
-21.57868766784668 -1.7420018911361694 -2.5
-21.019805908203125 -5.180917739868164 -2.5
-19.916528701782227 -8.485625267028809 -2.5
-19.120758056640625 -10.035341262817383 -2.493689775466919
-17.312519073486328 -10.947763442993164 -2.3654303550720215
-16.252004623413086 -12.212597846984863 -2.347599983215332
-15.21660327911377 -13.480731964111328 -2.347599983215332
-14.08250904083252 -14.661455154418945 -2.347599983215332
-12.857091903686523 -15.7470703125 -2.347599983215332
-11.548280715942383 -16.7305850982666 -2.347599983215332
-7.208825588226318 -19.008094787597656 -2.347599983215332
-4.316635608673096 -14.902792930603027 -1.7917027473449707
-4.066337585449219 -19.918338775634766 -2.347599983215332
-2.4504101276397705 -20.180946350097656 -2.347599983215332
0.8185668587684631 -20.31267547607422 -2.347599983215332
2.4504148960113525 -20.180936813354492 -2.347599983215332
4.066352367401123 -19.918319702148438 -2.347599983215332
5.655934810638428 -19.52652359008789 -2.347599983215332
8.714961051940918 -18.366395950317383 -2.347599983215332
10.16457748413086 -17.6055850982666 -2.347599983215332
11.548280715942383 -16.730575561523438 -2.347599983215332
15.21660327911377 -13.480741500854492 -2.347599983215332
16.544111251831055 -12.432080268859863 -2.3897924423217773
19.169145584106445 -10.060722351074219 -2.5
19.916542053222656 -8.4856538772583 -2.5
20.534759521484375 -6.85549783706665 -2.5
-19.727977752685547 2.9296874345163815e-05 -2.5
-19.664003372192383 -1.587441325187683 -2.5
-19.154714584350586 -4.72122049331665 -2.5
-18.71270179748535 -6.247226238250732 -2.5
-18.149322509765625 -7.732705116271973 -2.5
-16.673891067504883 -10.543925285339355 -2.5
-15.501386642456055 -11.648534774780273 -2.4572014808654785
-13.866422653198242 -12.284589767456055 -2.347599983215332
-11.71627426147461 -14.34984302520752 -2.347599983215332
-10.523595809936523 -15.246073722839355 -2.347599983215332
-9.26266860961914 -16.043426513671875 -2.347599983215332
-7.941684246063232 -16.736757278442383 -2.347599983215332
-4.311657428741455 -14.885576248168945 -1.9638912677764893
-2.232988119125366 -18.39029312133789 -2.347599983215332
-0.7459423542022705 -18.510332107543945 -2.347599983215332
0.7459423542022705 -18.510313034057617 -2.347599983215332
3.7055370807647705 -18.15096664428711 -2.347599983215332
5.154077053070068 -17.793926239013672 -2.347599983215332
9.262678146362305 -16.043437957763672 -2.347599983215332
11.716286659240723 -14.349833488464355 -2.347599983215332
14.654067039489746 -12.982372283935547 -2.480944871902466
15.771390914916992 -11.851415634155273 -2.5
19.472524642944336 -3.16460919380188 -2.5
-16.666393280029297 -7.100869178771973 -2.5
-16.04096221923828 -8.4189453125 -2.5
-14.482733726501465 -10.883075714111328 -2.5
-12.240405082702637 -12.743613243103027 -2.4384381771087646
-10.760673522949219 -13.179511070251465 -2.347982406616211
-9.663740158081055 -14.000350952148438 -2.347599983215332
-8.505839347839355 -14.732548713684082 -2.347599983215332
-7.292778015136719 -15.369208335876465 -2.347599983215332
-4.306664943695068 -14.868349075317383 -2.1361589431762695
-3.402780771255493 -16.667890548706055 -2.347599983215332
-0.68499755859375 -16.997880935668945 -2.347599983215332
0.6849902272224426 -16.99789047241211 -2.347599983215332
3.402773380279541 -16.667890548706055 -2.347599983215332
6.032441139221191 -15.906210899353027 -2.347599983215332
7.292788028717041 -15.369218826293945 -2.347599983215332
8.505851745605469 -14.73256778717041 -2.347599983215332
12.548124313354492 -13.06396484375 -2.4997365474700928
13.560065269470215 -12.01317310333252 -2.5
15.311508178710938 -9.682401657104492 -2.5
16.666400909423828 -7.100878715515137 -2.5
18.05731964111328 -1.4577343463897705 -2.5
-16.743757247924805 9.765624781721272e-06 -2.5
-16.526920318603516 -2.6858787536621094 -2.5
-16.2572021484375 -4.007040977478027 -2.5
-15.882058143615723 -5.302216529846191 -2.5
-14.825854301452637 -7.781200885772705 -2.5
-14.151655197143555 -8.948954582214355 -2.5
-13.385663986206055 -10.05868148803711 -2.5
-12.532880783081055 -11.103144645690918 -2.5
-10.574148178100586 -12.950995445251465 -2.4963748455047607
-9.323686599731445 -13.507695198059082 -2.4506280422210693
-7.975151062011719 -13.813349723815918 -2.3815300464630127
-5.575470924377441 -14.701308250427246 -2.347599983215332
-4.301672458648682 -14.851113319396973 -2.308556079864502
-3.145021915435791 -15.405292510986328 -2.347599983215332
-0.633105456829071 -15.710302352905273 -2.347599983215332
0.6331030130386353 -15.710302352905273 -2.347599983215332
1.8952001333236694 -15.608407974243164 -2.347599983215332
3.145012140274048 -15.405302047729492 -2.347599983215332
4.374435901641846 -15.102265357971191 -2.347599983215332
6.871769905090332 -14.481943130493164 -2.3933708667755127
8.256032943725586 -14.299882888793945 -2.465409755706787
10.589518547058105 -12.969794273376465 -2.5
13.385683059692383 -10.058691024780273 -2.5
14.82586669921875 -7.781200885772705 -2.5
15.40392017364502 -6.562997817993164 -2.5
15.882064819335938 -5.302196979522705 -2.5
16.52693748474121 -2.6858885288238525 -2.5
16.68946647644043 -1.3473047018051147 -2.5
-15.561083793640137 2.9296874345163815e-05 -2.5
-15.510634422302246 -1.252138614654541 -2.5
-15.359572410583496 -2.496161937713623 -2.5
-15.108905792236328 -3.724013566970825 -2.5
-14.315874099731445 -6.099423885345459 -2.5
-13.77865219116211 -7.231581687927246 -2.5
-13.152074813842773 -8.316864967346191 -2.5
-12.440192222595215 -9.3482027053833 -2.5
-11.647639274597168 -10.318896293640137 -2.5
-10.779542922973633 -11.222684860229492 -2.5
-9.841527938842773 -12.053690910339355 -2.5
-6.651669979095459 -14.018095016479492 -2.4927852153778076
-5.401962757110596 -14.24380874633789 -2.4474122524261475
-1.778810977935791 -14.649882316589355 -2.3708958625793457
-0.5931713581085205 -14.719404220581055 -2.3666975498199463
5.504137992858887 -14.513193130493164 -2.4937009811401367
6.669846057891846 -14.05638599395752 -2.4995954036712646
8.839712142944336 -12.806523323059082 -2.5
10.779547691345215 -11.222695350646973 -2.5
13.152082443237305 -8.316864967346191 -2.5
13.778661727905273 -7.231591701507568 -2.5
14.315878868103027 -6.099423885345459 -2.5
14.760255813598633 -4.927695274353027 -2.5
-14.483925819396973 -1.1692577600479126 -2.5
-13.78322696685791 -4.601503849029541 -2.5
-13.368270874023438 -5.69567346572876 -2.5
-12.86660099029541 -6.752910137176514 -2.5
-12.281506538391113 -7.766357421875 -2.5
-11.616743087768555 -8.729413986206055 -2.5
-10.06600284576416 -10.47982406616211 -2.5
-9.190094947814941 -11.255820274353027 -2.5
-7.265524864196777 -12.584257125854492 -2.5
-5.152788162231445 -13.58675765991211 -2.5
-1.748867154121399 -14.40322208404541 -2.4962077140808105
-0.584118664264679 -14.494833946228027 -2.4957947731018066
1.7501146793365479 -14.413583755493164 -2.4980051517486572
5.152795314788818 -13.58675765991211 -2.5
6.229355335235596 -13.12807559967041 -2.5
9.19009780883789 -11.255820274353027 -2.5
13.783234596252441 -4.601503849029541 -2.5
14.342883110046387 -2.330937385559082 -2.5
-13.449230194091797 -2.1857030391693115 -2.5
-13.229741096496582 -3.2608494758605957 -2.5
-12.924449920654297 -4.314814567565918 -2.5
-10.198962211608887 -9.03548812866211 -2.5
-9.438838005065918 -9.826855659484863 -2.5
-8.61749267578125 -10.5545015335083 -2.5
-5.841228008270264 -12.310107231140137 -2.5
-4.831730842590332 -12.740214347839355 -2.5
-2.7254858016967773 -13.350302696228027 -2.5
0.5486474633216858 -13.614608764648438 -2.5
2.7254834175109863 -13.350292205810547 -2.5
5.841228008270264 -12.3101167678833 -2.5
6.812827110290527 -11.800175666809082 -2.5
7.740268230438232 -11.21371078491211 -2.5
9.438838005065918 -9.826865196228027 -2.5
10.892953872680664 -8.185517311096191 -2.5
11.516281127929688 -7.282460689544678 -2.5
12.535361289978027 -5.34084939956665 -2.5
13.449225425720215 -2.1857030391693115 -2.5
-12.823447227478027 2.9296874345163815e-05 -2.5
-12.781862258911133 -1.0318456888198853 -2.5
-12.657389640808105 -2.057021379470825 -2.5
-12.450810432434082 -3.068857431411743 -2.5
-12.163505554199219 -4.060761451721191 -2.5
-11.797307014465332 -5.026347637176514 -2.5
-11.354592323303223 -5.959335803985596 -2.5
-10.251608848571777 -7.703583717346191 -2.5
-8.883110046386719 -9.248291015625 -2.5
-6.4117112159729 -11.105429649353027 -2.5
-5.497321605682373 -11.585331916809082 -2.5
-4.547260761260986 -11.990117073059082 -2.5
-3.567695140838623 -12.317148208618164 -2.5
-1.545693278312683 -12.729941368103027 -2.5
1.545690894126892 -12.729941368103027 -2.5
2.565014600753784 -12.564287185668945 -2.5
3.5677146911621094 -12.317138671875 -2.5
5.497316837310791 -11.585341453552246 -2.5
6.411725997924805 -11.105429649353027 -2.5
7.284550666809082 -10.553485870361328 -2.5
10.8382568359375 -6.853691101074219 -2.5
11.797314643859863 -5.0263671875 -2.5
12.16350269317627 -4.060761451721191 -2.5
12.450822830200195 -3.06884765625 -2.5
12.657392501831055 -2.057021379470825 -2.5
12.781874656677246 -1.0318554639816284 -2.5
-12.068242073059082 -0.9742480516433716 -2.5
-11.950722694396973 -1.942177653312683 -2.5
-11.484420776367188 -3.834052562713623 -2.5
-10.720664024353027 -5.626630783081055 -2.5
-10.233149528503418 -6.471044540405273 -2.5
-9.67926025390625 -7.273496150970459 -2.5
-7.657338619232178 -9.378524780273438 -2.5
-6.877843856811523 -9.964286804199219 -2.5
-6.053747653961182 -10.485400199890137 -2.5
-2.421811580657959 -11.862812042236328 -2.5
2.421811580657959 -11.862812042236328 -2.5
6.053750038146973 -10.4854097366333 -2.5
7.657341003417969 -9.378535270690918 -2.5
8.387163162231445 -8.731952667236328 -2.5
9.062609672546387 -8.028759956359863 -2.5
10.233149528503418 -6.471044540405273 -2.5
10.720673561096191 -5.626650333404541 -2.5
11.13866138458252 -4.745732307434082 -2.5
-11.464506149291992 1.9531249563442543e-05 -2.5
-11.13137435913086 -2.7436327934265137 -2.5
-10.87450885772705 -3.630449056625366 -2.5
-10.151323318481445 -5.327802658081055 -2.5
-9.165226936340332 -6.88720703125 -2.5
-7.941747665405273 -8.268232345581055 -2.5
-7.250680923461914 -8.880468368530273 -2.5
-6.512582778930664 -9.435097694396973 -2.5
-5.732253074645996 -9.92855453491211 -2.5
-4.914753437042236 -10.357617378234863 -2.5
-2.2931933403015137 -11.23281192779541 -2.5
-1.3818895816802979 -11.3809175491333 -2.5
-0.4616381824016571 -11.455204963684082 -2.5
2.293203115463257 -11.23281192779541 -2.5
3.189631223678589 -11.011855125427246 -2.5
4.914755821228027 -10.357617378234863 -2.5
6.512587547302246 -9.435107231140137 -2.5
7.250685691833496 -8.88045883178711 -2.5
9.165234565734863 -6.88720703125 -2.5
9.689702033996582 -6.127392292022705 -2.5
10.547119140625 -4.493710994720459 -2.5
10.874518394470215 -3.630439281463623 -2.5
11.316054344177246 -1.8390331268310547 -2.5
-10.88370132446289 1.9531249563442543e-05 -2.5
-10.56744384765625 -2.6046385765075684 -2.5
-10.323578834533691 -3.4465136528015137 -2.5
-9.63704776763916 -5.05789041519165 -2.5
-9.198798179626465 -5.816953182220459 -2.5
-8.700902938842773 -6.538290977478027 -2.5
-7.539411544799805 -7.849345684051514 -2.5
-6.182648658752441 -8.957109451293945 -2.5
-5.441843032836914 -9.425556182861328 -2.5
-4.665751934051514 -9.832870483398438 -2.5
-3.028024911880493 -10.453984260559082 -2.5
-2.177016496658325 -10.66373062133789 -2.5
-1.311892032623291 -10.804335594177246 -2.5
-0.4382421672344208 -10.874862670898438 -2.5
0.438239723443985 -10.874862670898438 -2.5
3.859426259994507 -10.176435470581055 -2.5
6.182648658752441 -8.957098960876465 -2.5
6.883351802825928 -8.430556297302246 -2.5
10.01278018951416 -4.266035079956055 -2.5
10.323593139648438 -3.4465038776397705 -2.5
10.742758750915527 -1.7458691596984863 -2.5
10.84841251373291 -0.8757714629173279 -2.5
-10.32278060913086 -0.8333203196525574 -2.5
-10.055412292480469 -2.4784374237060547 -2.5
-9.823376655578613 -3.2795214653015137 -2.5
-7.174096584320068 -7.46902322769165 -2.5
-5.178175926208496 -8.968847274780273 -2.5
-2.8813109397888184 -9.947461128234863 -2.5
-2.071540594100952 -10.147050857543945 -2.5
-1.248315453529358 -10.280829429626465 -2.5
0.41701415181159973 -10.347949028015137 -2.5
1.2483227252960205 -10.280839920043945 -2.5
2.071537971496582 -10.147040367126465 -2.5
3.672416925430298 -9.683349609375 -2.5
8.279318809509277 -6.221484184265137 -2.5
9.527639389038086 -4.059335708618164 -2.5
9.82338809967041 -3.279531240463257 -2.5
10.055429458618164 -2.4784276485443115 -2.5
10.222248077392578 -1.6612695455551147 -2.5
-9.747406959533691 -1.5840624570846558 -2.5
-9.588339805603027 -2.3633105754852295 -2.5
-9.367074966430664 -3.127187490463257 -2.5
-7.894736289978027 -5.932499885559082 -2.5
-6.840859413146973 -7.122089862823486 -2.5
-6.245588302612305 -7.64944314956665 -2.5
-1.190332055091858 -9.8032808303833 -2.5
0.39764404296875 -9.867284774780273 -2.5
3.501833438873291 -9.23355484008789 -2.5
5.609811782836914 -8.127206802368164 -2.5
6.245588302612305 -7.64944314956665 -2.5
8.346515655517578 -5.278007507324219 -2.5
9.36708927154541 -3.1271777153015137 -2.5
9.588349342346191 -2.3633008003234863 -2.5
9.747419357299805 -1.5841113328933716 -2.5
-9.404008865356445 -0.7591601610183716 -2.5
-9.160449028015137 -2.2578418254852295 -2.5
-8.94906234741211 -2.987626791000366 -2.5
-7.974030494689941 -5.042460918426514 -2.5
-6.535573482513428 -6.804238319396973 -2.5
-5.966869831085205 -7.308085918426514 -2.5
-5.359462738037109 -7.764511585235596 -2.5
-3.3455541133880615 -8.821494102478027 -2.5
-1.8871557712554932 -9.243926048278809 -2.5
0.37989744544029236 -9.426942825317383 -2.5
1.1372168064117432 -9.365800857543945 -2.5
1.8871654272079468 -9.243926048278809 -2.5
3.3455591201782227 -8.821494102478027 -2.5
5.966877460479736 -7.308075904846191 -2.5
6.535581111907959 -6.804257869720459 -2.5
7.061906814575195 -6.256298542022705 -2.5
8.353933334350586 -4.384462833404541 -2.5
8.679640769958496 -3.6980466842651367 -2.5
8.949065208435059 -2.987617015838623 -2.5
9.160456657409668 -2.2578418254852295 -2.5
9.312431335449219 -1.5134081840515137 -2.5
-9.029272079467773 1.9531249563442543e-05 -2.5
-8.912355422973633 -1.448388695716858 -2.5
-8.56460189819336 -2.8592772483825684 -2.5
-6.254799842834473 -6.511933326721191 -2.5
-5.710524559020996 -6.994111061096191 -2.5
-3.870783567428589 -8.157500267028809 -2.5
-3.2018260955810547 -8.442509651184082 -2.5
-1.8060888051986694 -8.846776962280273 -2.5
-0.36357176303863525 -9.021933555603027 -2.5
1.0883593559265137 -8.9634370803833 -2.5
1.8060839176177979 -8.846786499023438 -2.5
3.2018308639526367 -8.442519187927246 -2.5
5.129218578338623 -7.43093729019165 -2.5
7.218403339385986 -5.424267292022705 -2.5
8.306750297546387 -3.5391600131988525 -2.5
8.56459903717041 -2.8592772483825684 -2.5
8.76690673828125 -2.160830020904541 -2.5
9.000001907348633 -0.7265429496765137 -2.5
-8.655153274536133 9.765624781721272e-06 -2.5
-8.403642654418945 -2.0713183879852295 -2.5
-8.209721565246582 -2.740800619125366 -2.5
-7.315248966217041 -4.625869274139404 -2.5
-6.919299125671387 -5.199511528015137 -2.5
-6.478474140167236 -5.739413738250732 -2.5
-5.473908424377441 -6.704316139221191 -2.5
-3.069157600402832 -8.092695236206055 -2.5
-1.7312426567077637 -8.480234146118164 -2.5
-0.3485082983970642 -8.648124694824219 -2.5
0.3485082983970642 -8.648124694824219 -2.5
1.0432616472244263 -8.592011451721191 -2.5
1.7312524318695068 -8.480224609375 -2.5
2.40802001953125 -8.313417434692383 -2.5
3.710405111312866 -7.819491863250732 -2.5
4.91668701171875 -7.123036861419678 -2.5
5.995639324188232 -6.242118835449219 -2.5
7.663759708404541 -4.02224588394165 -2.5
8.403656959533691 -2.0713086128234863 -2.5
8.627094268798828 -0.6964452862739563 -2.5
-8.281723022460938 -0.6685742139816284 -2.5
-8.067238807678223 -1.9883984327316284 -2.5
-7.643808364868164 -3.256708860397339 -2.5
-7.022417068481445 -4.440683364868164 -2.5
-6.219135761260986 -5.509657859802246 -2.5
-5.755620002746582 -5.99221658706665 -2.5
-2.946301221847534 -7.768730163574219 -2.5
-1.6619482040405273 -8.140761375427246 -2.5
-1.001499056816101 -8.248095512390137 -2.5
0.3345678746700287 -8.301933288574219 -2.5
2.3116209506988525 -7.980615139007568 -2.5
3.5618650913238525 -7.50646448135376 -2.5
5.254787445068359 -6.435937404632568 -2.5
5.755629539489746 -5.992236137390137 -2.5
7.022421836853027 -4.44070291519165 -2.5
7.356979846954346 -3.8612303733825684 -2.5
7.643820762634277 -3.256718635559082 -2.5
7.881088733673096 -2.6310839653015137 -2.5
8.201086044311523 -1.3327929973602295 -2.5
-7.98681116104126 9.765624781721272e-06 -2.5
-7.883395671844482 -1.2811620235443115 -2.5
-7.575783729553223 -2.5291404724121094 -2.5
-7.347704887390137 -3.130556583404541 -2.5
-7.071969985961914 -3.711660146713257 -2.5
-6.384999752044678 -4.798007488250732 -2.5
-5.532665729522705 -5.760097503662109 -2.5
-4.537028789520264 -6.573007583618164 -2.5
-1.5975561141967773 -7.825409889221191 -2.5
-0.9627099633216858 -7.928564071655273 -2.5
0.96270751953125 -7.92858362197876 -2.5
1.5975682735443115 -7.825390338897705 -2.5
3.423891544342041 -7.215683460235596 -2.5
4.537028789520264 -6.573007583618164 -2.5
5.532660961151123 -5.760107517242432 -2.5
6.385002136230469 -4.798007488250732 -2.5
6.750380516052246 -4.268671989440918 -2.5
7.754741191864014 -1.9113671779632568 -2.5
-7.686962604522705 1.9531249563442543e-05 -2.5
-7.662033557891846 -0.6185351610183716 -2.5
-7.463583946228027 -1.839599609375 -2.5
-7.291367053985596 -2.434208869934082 -2.5
-7.071850299835205 -3.0130271911621094 -2.5
-6.806471824645996 -3.5722949504852295 -2.5
-6.496940612792969 -4.108407974243164 -2.5
-5.753774166107178 -5.097392559051514 -2.5
-4.861581802368164 -5.954365253448486 -2.5
-3.8434836864471436 -6.657089710235596 -2.5
-3.295351505279541 -6.944785118103027 -2.5
-2.725837230682373 -7.187431335449219 -2.5
-2.1386375427246094 -7.383466720581055 -2.5
-0.9265551567077637 -7.630908012390137 -2.5
-0.3095166087150574 -7.680712699890137 -2.5
0.9265722632408142 -7.630918025970459 -2.5
1.5375927686691284 -7.53161096572876 -2.5
3.29534912109375 -6.944794654846191 -2.5
3.8434836864471436 -6.657089710235596 -2.5
4.861589431762695 -5.954355239868164 -2.5
5.324946403503418 -5.543847560882568 -2.5
6.145295143127441 -4.617870807647705 -2.5
6.496955394744873 -4.108417987823486 -2.5
6.806477069854736 -3.5723142623901367 -2.5
7.071860313415527 -3.0130271911621094 -2.5
7.291371822357178 -2.434208869934082 -2.5
7.66204309463501 -0.6185449361801147 -2.5
-7.382848739624023 -0.5960156321525574 -2.5
-7.310954570770264 -1.188134789466858 -2.5
-6.260219573974609 -3.9587109088897705 -2.5
-5.544120788574219 -4.911660194396973 -2.5
-4.684443473815918 -5.737392425537109 -2.5
-4.207582950592041 -6.095722675323486 -2.5
-1.4815648794174194 -7.257167816162109 -2.5
0.2982470691204071 -7.400859355926514 -2.5
1.4815599918365479 -7.257167816162109 -2.5
2.060727596282959 -7.114423751831055 -2.5
3.703444719314575 -6.414531230926514 -2.5
4.207590103149414 -6.09573221206665 -2.5
5.544130802154541 -4.911660194396973 -2.5
5.921374320983887 -4.449618816375732 -2.5
6.260226726531982 -3.9587109088897705 -2.5
6.558461666107178 -3.442138671875 -2.5
6.814172267913818 -2.9032323360443115 -2.5
7.02569055557251 -2.345507860183716 -2.5
-6.936977386474609 -1.709804654121399 -2.5
-6.776896953582764 -2.262460947036743 -2.5
-6.57287073135376 -2.8004393577575684 -2.5
-6.326222896575928 -3.320244073867798 -2.5
-6.038525104522705 -3.818535089492798 -2.5
-5.711694240570068 -4.292040824890137 -2.5
-5.347802639007568 -4.737734317779541 -2.5
-4.949228286743164 -5.152675628662109 -2.5
-4.518559455871582 -5.534238338470459 -2.5
-3.5722899436950684 -6.187382698059082 -2.5
-2.533505916595459 -6.68029260635376 -2.5
-1.9877417087554932 -6.862490177154541 -2.5
-1.429101586341858 -7.000185489654541 -2.5
0.8611865043640137 -7.092480182647705 -2.5
1.9877538681030273 -6.862499713897705 -2.5
2.53350830078125 -6.68029260635376 -2.5
3.0628318786621094 -6.454765319824219 -2.5
4.518564224243164 -5.534218788146973 -2.5
4.949238300323486 -5.152685642242432 -2.5
5.347809791564941 -4.737724304199219 -2.5
6.038539886474609 -3.8185253143310547 -2.5
6.326218128204346 -3.3202342987060547 -2.5
6.572880744934082 -2.800429582595825 -2.5
6.776906490325928 -2.262451171875 -2.5
6.936984539031982 -1.7097948789596558 -2.5
-6.898407936096191 1.9531249563442543e-05 -2.5
-6.80907678604126 -1.1065722703933716 -2.5
-6.697954177856445 -1.6508886814117432 -2.5
-6.346391677856445 -2.703935384750366 -2.5
-4.362865924835205 -5.343525409698486 -2.5
-3.449208974838257 -5.974189281463623 -2.5
-2.9573020935058594 -6.232363224029541 -2.5
-2.4462084770202637 -6.450087547302246 -2.5
-1.9192577600479126 -6.626035213470459 -2.5
-1.3798632621765137 -6.758984088897705 -2.5
-0.8315160870552063 -6.848085880279541 -2.5
-0.2777685523033142 -6.892812252044678 -2.5
1.3798511028289795 -6.758984088897705 -2.5
1.9192553758621216 -6.626035213470459 -2.5
2.9572997093200684 -6.232363224029541 -2.5
3.4492063522338867 -5.974189281463623 -2.5
3.9187474250793457 -5.67727518081665 -2.5
4.778698444366455 -4.975136756896973 -2.5
5.163537502288818 -4.57449197769165 -2.5
6.108249187469482 -3.2058398723602295 -2.5
6.876049518585205 -0.5550780892372131 -2.5
-6.645226955413818 -0.5364550948143005 -2.5
-6.473110198974609 -1.5954687595367432 -2.5
-6.323740005493164 -2.111161947250366 -2.5
-5.903195858001709 -3.098222494125366 -2.5
-5.634743690490723 -3.5631933212280273 -2.5
-5.329755783081055 -4.005048751831055 -2.5
-4.990192890167236 -4.420917987823486 -2.5
-3.3334155082702637 -5.773642539978027 -2.5
-1.8548314571380615 -6.403603553771973 -2.5
-0.8035986423492432 -6.618222713470459 -2.5
-0.26844725012779236 -6.661416053771973 -2.5
1.3335375785827637 -6.53209924697876 -2.5
2.3641014099121094 -6.233593463897705 -2.5
3.7871971130371094 -5.486699104309082 -2.5
4.618288516998291 -4.808125019073486 -2.5
4.990210056304932 -4.420917987823486 -2.5
5.329758167266846 -4.005048751831055 -2.5
6.323750019073486 -2.111161947250366 -2.5
6.580517292022705 -1.069433569908142 -2.5
6.6452317237854 -0.5364453196525574 -2.5
-6.365060806274414 -1.0344042778015137 -2.5
-6.261174201965332 -1.5432324409484863 -2.5
-6.11669921875 -2.042050838470459 -2.5
-5.932541370391846 -2.5276172161102295 -2.5
-5.709914207458496 -2.9967870712280273 -2.5
-5.450270652770996 -3.446523427963257 -2.5
-4.82681131362915 -4.276181697845459 -2.5
-4.467082500457764 -4.650702953338623 -2.5
-4.078356742858887 -4.995078086853027 -2.5
-3.663200616836548 -5.307050704956055 -2.5
-3.2242822647094727 -5.584619045257568 -2.5
-2.7644481658935547 -5.82595682144165 -2.5
-2.286696672439575 -6.029501914978027 -2.5
-1.794094204902649 -6.193954944610596 -2.5
-1.2898706197738647 -6.31823205947876 -2.5
-0.7772876024246216 -6.401523113250732 -2.5
-0.25965574383735657 -6.443320274353027 -2.5
2.2867040634155273 -6.029511451721191 -2.5
3.2242822647094727 -5.584609031677246 -2.5
4.078373908996582 -4.995097637176514 -2.5
4.826821327209473 -4.276181697845459 -2.5
5.155261039733887 -3.8739256858825684 -2.5
5.450265884399414 -3.446523427963257 -2.5
5.709921836853027 -2.9967870712280273 -2.5
5.932563304901123 -2.5276172161102295 -2.5
6.116706371307373 -2.042050838470459 -2.5
6.261183738708496 -1.5432324409484863 -2.5
6.365068435668945 -1.034423828125 -2.5
6.427656173706055 -0.5188866853713989 -2.5
-6.161579608917236 -1.0013476610183716 -2.5
-6.061022758483887 -1.4939062595367432 -2.5
-5.921154499053955 -1.9767773151397705 -2.5
-5.742895603179932 -2.4468066692352295 -2.5
-5.527382850646973 -2.9009861946105957 -2.5
-3.546086311340332 -5.137402057647705 -2.5
-3.121206045150757 -5.406084060668945 -2.5
-1.2486425638198853 -6.11624002456665 -2.5
-0.7524340748786926 -6.19689416885376 -2.5
0.25135740637779236 -6.237343788146973 -2.5
0.7524462938308716 -6.19689416885376 -2.5
1.2486474514007568 -6.116250038146973 -2.5
1.7367602586746216 -5.995956897735596 -2.5
2.2135961055755615 -5.836757659912109 -2.5
2.676084041595459 -5.639707088470459 -2.5
3.1212158203125 -5.406093597412109 -2.5
4.324277400970459 -4.502040863037109 -2.5
4.672522068023682 -4.139482498168945 -2.5
5.276032447814941 -3.336357355117798 -2.5
5.527387619018555 -2.900995969772339 -2.5
5.742900371551514 -2.4468164443969727 -2.5
-5.969062328338623 -0.9700487852096558 -2.5
-5.736152172088623 -1.9149999618530273 -2.5
-5.563459396362305 -2.370361328125 -2.5
-5.354684829711914 -2.8103418350219727 -2.5
-4.834528923034668 -3.6329100131988525 -2.5
-4.189165115356445 -4.361376762390137 -2.5
-3.8246312141418457 -4.684316158294678 -2.5
-2.592465877532959 -5.463496208190918 -2.5
-2.1444334983825684 -5.654384613037109 -2.5
-1.2096288204193115 -5.925146579742432 -2.5
-0.2435034066438675 -6.042460918426514 -2.5
0.24351073801517487 -6.042460918426514 -2.5
0.7289379835128784 -6.003271579742432 -2.5
2.1444334983825684 -5.654394626617432 -2.5
3.82464599609375 -4.684316158294678 -2.5
4.189172267913818 -4.361376762390137 -2.5
4.526530742645264 -4.010146617889404 -2.5
5.354692459106445 -2.81036114692688 -2.5
5.563461780548096 -2.370361328125 -2.5
5.736156940460205 -1.9149901866912842 -2.5
5.871665000915527 -1.4472265243530273 -2.5
6.027778148651123 -0.4866113066673279 -2.5
-5.862521648406982 1.9531249563442543e-05 -2.5
-5.843505859375 -0.4717382788658142 -2.5
-5.786599159240723 -0.9404003620147705 -2.5
-5.393398284912109 -2.297900438308716 -2.5
-4.388164043426514 -3.8875486850738525 -2.5
-4.061115741729736 -4.228046894073486 -2.5
-3.7077245712280273 -4.541132926940918 -2.5
-3.3302855491638184 -4.824746131896973 -2.5
-2.9312572479248047 -5.077089786529541 -2.5
-2.5132200717926025 -5.296484470367432 -2.5
-2.0788769721984863 -5.481543064117432 -2.5
-1.6310473680496216 -5.631044864654541 -2.5
-1.1726489067077637 -5.744042873382568 -2.5
-0.2360546886920929 -5.857763767242432 -2.5
0.23606444895267487 -5.857753753662109 -2.5
0.7066454887390137 -5.819755554199219 -2.5
2.0788841247558594 -5.481543064117432 -2.5
2.5132226943969727 -5.296494007110596 -2.5
2.931262254714966 -5.077079772949219 -2.5
3.7077269554138184 -4.541113376617432 -2.5
4.388161659240723 -3.8875584602355957 -2.5
5.1910080909729 -2.724433422088623 -2.5
5.393395900726318 -2.297900438308716 -2.5
5.786613464355469 -0.9404101371765137 -2.5
-5.035605430603027 -2.642880916595459 -2.5
-4.546445369720459 -3.4164257049560547 -2.5
-3.9395384788513184 -4.101493835449219 -2.5
-3.596730947494507 -4.405195236206055 -2.5
-3.230583429336548 -4.680312633514404 -2.5
-2.84350323677063 -4.925087928771973 -2.5
-2.4379637241363525 -5.137939453125 -2.5
-2.0166478157043457 -5.317451000213623 -2.5
-1.582216739654541 -5.462470531463623 -2.5
0.6855053305625916 -5.645556449890137 -2.5
1.58224356174469 -5.462480545043945 -2.5
2.0166380405426025 -5.317451000213623 -2.5
2.843515634536743 -4.925097465515137 -2.5
3.230597972869873 -4.680322170257568 -2.5
3.596735715866089 -4.405195236206055 -2.5
4.256801605224609 -3.771191358566284 -2.5
4.806628227233887 -3.0395116806030273 -2.5
5.035620212554932 -2.642880916595459 -2.5
5.39434814453125 -1.8008886575698853 -2.5
-5.520161151885986 0.0 -2.5
-5.502253532409668 -0.4441796839237213 -2.5
-5.359750747680664 -1.3210644721984863 -2.5
-5.078434944152832 -2.163710832595825 -2.5
-4.665585994720459 -2.950331926345825 -2.5
-4.413049221038818 -3.3161914348602295 -2.5
-3.4911961555480957 -4.275927543640137 -2.5
-3.13580060005188 -4.54299783706665 -2.5
-2.760077953338623 -4.780585765838623 -2.5
-2.366447687149048 -4.987187385559082 -2.5
-1.9574755430221558 -5.161425590515137 -2.5
-1.535803198814392 -5.302196979522705 -2.5
-1.104164958000183 -5.408593654632568 -2.5
-0.6653783917427063 -5.479902267456055 -2.5
0.22227539122104645 -5.515664100646973 -2.5
1.9574804306030273 -5.161435604095459 -2.5
2.366450071334839 -4.987187385559082 -2.5
2.760077953338623 -4.780595779418945 -2.5
3.491201162338257 -4.275937557220459 -2.5
3.8239524364471436 -3.981142520904541 -2.5
4.131908893585205 -3.6605467796325684 -2.5
4.66558837890625 -2.950322151184082 -2.5
5.236081600189209 -1.7480566501617432 -2.5
5.359758377075195 -1.321044921875 -2.5
-5.343876838684082 -0.431396484375 -2.5
-5.291840553283691 -0.85999995470047 -2.5
-5.205475807189941 -1.2830272912979126 -2.5
-5.085351467132568 -1.6977343559265137 -2.5
-4.932258129119873 -2.1014256477355957 -2.5
-4.531289100646973 -2.865410089492798 -2.5
-4.286025524139404 -3.220712900161743 -2.5
-3.7138891220092773 -3.8665525913238525 -2.5
-3.3907127380371094 -4.15286111831665 -2.5
-2.6806273460388184 -4.642997741699219 -2.5
-2.298332452774048 -4.843632698059082 -2.5
-1.4915844202041626 -5.149580001831055 -2.5
-1.0723828077316284 -5.252910137176514 -2.5
-0.6462231278419495 -5.322167873382568 -2.5
0.21588134765625 -5.356904029846191 -2.5
0.6462353467941284 -5.322167873382568 -2.5
1.0723828077316284 -5.252900123596191 -2.5
1.491601586341858 -5.149589538574219 -2.5
1.9011377096176147 -5.012861251831055 -2.5
2.298342227935791 -4.843632698059082 -2.5
3.0455541610717773 -4.412216663360596 -2.5
3.3907103538513184 -4.152851581573486 -2.5
3.713881731033325 -3.8665428161621094 -2.5
4.286032676696777 -3.2207324504852295 -2.5
4.531296253204346 -2.8653905391693115 -2.5
5.205490589141846 -1.2830175161361694 -2.5
5.343889236450195 -0.4314062297344208 -2.5
