ply
format ascii 1.0
element vertex 707
property float x
property float y
property float z
end_header
-16.3157958984375 -10.317489624023438 4.943961143493652
17.492862701416016 -18.21198272705078 -1.7869007587432861
-28.290205001831055 -4.597597599029541 -2.347599983215332
-27.828481674194336 -6.859120845794678 -2.347599983215332
-27.186323165893555 -9.076112747192383 -2.347599983215332
-18.79595184326172 -11.885839462280273 -1.8215371370315552
-23.05400848388672 -17.323993682861328 -2.362039089202881
-21.627178192138672 -19.160037994384766 -2.366626501083374
-20.030805587768555 -20.85429573059082 -2.368457317352295
-18.3116455078125 -22.427703857421875 -2.3715476989746094
-16.444549560546875 -23.823984146118164 -2.37109637260437
-9.274008750915527 -19.544559478759766 -1.7719433307647705
-10.256689071655273 -27.04472541809082 -2.369142770767212
-8.045424461364746 -27.776063919067383 -2.3686063289642334
3.4914891719818115 -28.754823684692383 -2.3725569248199463
5.794760704040527 -28.38459014892578 -2.372886896133423
8.058588981628418 -27.821474075317383 -2.372478723526001
8.698217391967773 -15.06576156616211 -1.4249120950698853
16.405864715576172 -23.76795768737793 -2.3655312061309814
18.240381240844727 -22.34037971496582 -2.3623178005218506
21.523218154907227 -19.067909240722656 -2.3552463054656982
19.3144474029541 -14.51381778717041 -1.9788928031921387
27.828529357910156 -6.859111309051514 -2.347599983215332
-26.86016082763672 0.0 -2.5
-26.773061752319336 -2.1613476276397705 -2.5
-23.924701690673828 -7.987236022949219 -2.347599983215332
-23.204423904418945 -9.886474609375 -2.347599983215332
-18.79595184326172 -11.885839462280273 -2.0698623657226562
-20.16415023803711 -15.152411460876465 -2.347599983215332
-18.8868350982666 -16.732284545898438 -2.348512887954712
-16.008481979370117 -19.60684585571289 -2.3559117317199707
-10.985395431518555 -19.027265548706055 -2.044924736022949
-10.867280006408691 -22.902353286743164 -2.359431743621826
-8.987553596496582 -23.698299407958984 -2.359008550643921
-7.050102233886719 -24.33982276916504 -2.3585405349731445
-3.0571141242980957 -25.17771339416504 -2.360619068145752
7.055307388305664 -24.35773468017578 -2.3602757453918457
7.301816463470459 -15.388232231140137 -1.58531653881073
8.54464340209961 -14.799736022949219 -1.5905777215957642
17.472431182861328 -18.190692901611328 -2.347599983215332
18.87950897216797 -16.725780487060547 -2.347599983215332
19.572120666503906 -12.37661075592041 -2.1553337574005127
22.33364486694336 -11.721571922302246 -2.347599983215332
23.20443344116211 -9.886474609375 -2.347599983215332
26.07965087890625 -6.428056716918945 -2.5
26.5123233795166 -4.308661937713623 -2.5
-23.899808883666992 -1.9293944835662842 -2.5
-23.280818939208984 -5.738212585449219 -2.5
-19.936830520629883 -10.463671684265137 -2.347599983215332
-18.65155792236328 -11.794530868530273 -2.3008861541748047
-18.00015640258789 -13.526259422302246 -2.347599983215332
-16.853384017944336 -14.93080997467041 -2.347599983215332
-15.59731388092041 -16.238525390625 -2.347599983215332
-14.240073204040527 -17.440937042236328 -2.347599983215332
-12.790472984313965 -18.53023338317871 -2.347599983215332
-9.663480758666992 -20.365360260009766 -2.3502955436706543
-7.996113300323486 -21.08405303955078 -2.3510918617248535
-4.511958122253418 -22.101102828979492 -2.351879835128784
-2.719531297683716 -22.39743995666504 -2.352400779724121
0.9086328148841858 -22.547069549560547 -2.35275936126709
2.7193994522094727 -22.39604377746582 -2.352254867553711
4.511860370635986 -22.10049819946289 -2.351818323135376
12.790497779846191 -18.530195236206055 -2.347599983215332
14.240107536315918 -17.440937042236328 -2.347599983215332
19.030223846435547 -12.033974647521973 -2.347599983215332
20.333703994750977 -10.6719331741333 -2.3943305015563965
22.04666519165039 -9.39321231842041 -2.4986166954040527
23.280824661254883 -5.738203048706055 -2.5
-21.578691482543945 -1.7420116662979126 -2.5
-21.36854362487793 -3.472724437713623 -2.5
-21.01980972290039 -5.180917739868164 -2.5
-19.916542053222656 -8.485644340515137 -2.5
-18.699066162109375 -9.814032554626465 -2.438694715499878
-15.216596603393555 -13.480751991271973 -2.347599983215332
-14.082514762878418 -14.661455154418945 -2.347599983215332
-12.85708999633789 -15.747079849243164 -2.347599983215332
-11.548271179199219 -16.730575561523438 -2.347599983215332
-10.164565086364746 -17.6055850982666 -2.347599983215332
-8.714956283569336 -18.366395950317383 -2.347599983215332
-5.65591287612915 -19.52654266357422 -2.347599983215332
-1.9325731992721558 -15.91600513458252 -1.8514652252197266
0.8185937404632568 -20.312685012817383 -2.347599983215332
2.450434446334839 -20.180936813354492 -2.347599983215332
4.066362380981445 -19.918338775634766 -2.347599983215332
5.655932426452637 -19.526533126831055 -2.347599983215332
7.301816463470459 -15.388232231140137 -1.9669283628463745
11.548307418823242 -16.730575561523438 -2.347599983215332
12.857104301452637 -15.7470703125 -2.347599983215332
15.216620445251465 -13.480731964111328 -2.347599983215332
16.355072021484375 -12.2900390625 -2.3624861240386963
18.243844985961914 -11.536699295043945 -2.4926774501800537
19.169158935546875 -10.060722351074219 -2.5
19.916534423828125 -8.485644340515137 -2.5
21.019817352294922 -5.180917739868164 -2.5
21.368549346923828 -3.472724437713623 -2.5
21.57869529724121 -1.7420116662979126 -2.5
-19.727983474731445 9.765624781721272e-06 -2.5
-19.66400909423828 -1.5874511003494263 -2.5
-19.15473175048828 -4.72122049331665 -2.5
-18.712718963623047 -6.247216701507568 -2.5
-13.866425514221191 -12.284608840942383 -2.347599983215332
-11.716283798217773 -14.34984302520752 -2.347599983215332
-10.52358341217041 -15.24608325958252 -2.347599983215332
-7.941674709320068 -16.73674774169922 -2.347599983215332
-3.7055320739746094 -18.150985717773438 -2.347599983215332
-1.9325731992721558 -15.91600513458252 -2.031742572784424
-0.6452685594558716 -16.011455535888672 -2.0306711196899414
5.15408182144165 -17.793935775756836 -2.347599983215332
6.569203853607178 -17.321502685546875 -2.347599983215332
7.301816463470459 -15.388232231140137 -2.1584465503692627
8.545512199401855 -14.80125904083252 -2.165834426879883
10.52362060546875 -15.246064186096191 -2.347599983215332
11.71629810333252 -14.349823951721191 -2.347599983215332
15.771401405334473 -11.851425170898438 -2.5
17.46827507019043 -9.168046951293945 -2.5
19.154727935791016 -4.721200942993164 -2.5
-18.116044998168945 9.765624781721272e-06 -2.5
-18.057310104370117 -1.4577441215515137 -2.5
-17.881460189819336 -2.906015634536743 -2.5
-17.589637756347656 -4.33547830581665 -2.5
-14.482733726501465 -10.883095741271973 -2.5
-12.074125289916992 -12.570497512817383 -2.40531325340271
-10.7589693069458 -13.177352905273438 -2.347599983215332
-7.292783260345459 -15.36922836303711 -2.347599983215332
-6.032402038574219 -15.906229972839355 -2.347599983215332
-3.402763605117798 -16.66790008544922 -2.347599983215332
-1.923622965812683 -15.842714309692383 -2.20233416557312
-0.6423388719558716 -15.938925743103027 -2.20133900642395
3.402783155441284 -16.66790008544922 -2.347599983215332
4.732954025268555 -16.34004783630371 -2.347599983215332
6.032441139221191 -15.906210899353027 -2.347599983215332
8.505854606628418 -14.732558250427246 -2.347599983215332
9.703344345092773 -14.05770492553711 -2.3572187423706055
15.31151294708252 -9.682412147521973 -2.5
16.040983200073242 -8.418954849243164 -2.5
17.881412506103516 -2.9059178829193115 -2.5
-16.743743896484375 -9.765624781721272e-06 -2.5
-16.689462661743164 -1.3473047018051147 -2.5
-16.257211685180664 -4.007050514221191 -2.5
-15.88206958770752 -5.302216529846191 -2.5
-15.403905868530273 -6.56298828125 -2.5
-14.825854301452637 -7.781230449676514 -2.5
-14.151655197143555 -8.948965072631836 -2.5
-13.385673522949219 -10.058691024780273 -2.5
-12.532865524291992 -11.10317325592041 -2.5
-11.598803520202637 -12.075634956359863 -2.5
-10.563105583190918 -12.937460899353027 -2.493767023086548
-7.921098232269287 -13.719765663146973 -2.365389585494995
-6.740346431732178 -14.204999923706055 -2.347599983215332
-5.575453758239746 -14.701308250427246 -2.347599983215332
-4.374413967132568 -15.10228443145752 -2.347599983215332
1.8952099084854126 -15.608417510986328 -2.347599983215332
3.14501953125 -15.405312538146973 -2.347599983215332
5.575483322143555 -14.701308250427246 -2.347599983215332
6.86865234375 -14.475351333618164 -2.3922793865203857
8.244170188903809 -14.27928638458252 -2.461857318878174
9.50173282623291 -13.76561450958252 -2.4974207878112793
10.589530944824219 -12.969775199890137 -2.5
13.385673522949219 -10.05868148803711 -2.5
14.825868606567383 -7.781210899353027 -2.5
16.25721549987793 -4.007040977478027 -2.5
16.52692985534668 -2.6858885288238525 -2.5
16.689464569091797 -1.347314476966858 -2.5
-15.561088562011719 0.0 -2.5
-15.10891056060791 -3.724013566970825 -2.5
-14.31588363647461 -6.099433422088623 -2.5
-13.778661727905273 -7.231611251831055 -2.5
-9.841537475585938 -12.0537109375 -2.5
-7.770683288574219 -13.459257125854492 -2.4968369007110596
-6.626772403717041 -13.965643882751465 -2.483456611633301
-5.383203029632568 -14.1943941116333 -2.4389212131500244
-4.165575981140137 -14.381288528442383 -2.4054272174835205
-1.777929663658142 -14.642617225646973 -2.3697197437286377
-0.5932372808456421 -14.721152305603027 -2.3669772148132324
1.7942821979522705 -14.777118682861328 -2.3914880752563477
5.504281997680664 -14.513593673706055 -2.4937665462493896
6.669658184051514 -14.0559663772583 -2.499521255493164
7.780561447143555 -13.476288795471191 -2.5
8.8397216796875 -12.806513786315918 -2.5
9.841557502746582 -12.053690910339355 -2.5
11.647645950317383 -10.318915367126465 -2.5
13.152084350585938 -8.316864967346191 -2.5
13.778674125671387 -7.231591701507568 -2.5
14.31588077545166 -6.099433422088623 -2.5
15.10891342163086 -3.724013566970825 -2.5
15.35958194732666 -2.496161937713623 -2.5
15.510631561279297 -1.2521483898162842 -2.5
-14.483940124511719 -1.1692675352096558 -2.5
-14.342875480651855 -2.330937385559082 -2.5
-14.108808517456055 -3.4775195121765137 -2.5
-13.783231735229492 -4.601513385772705 -2.5
-11.616738319396973 -8.729423522949219 -2.5
-10.8766450881958 -9.63588809967041 -2.5
-8.254584312438965 -11.95882797241211 -2.5
-7.265507698059082 -12.584257125854492 -2.5
-6.229340553283691 -13.12807559967041 -2.5
-5.152763366699219 -13.586776733398438 -2.5
-1.748779296875 -14.402558326721191 -2.4960901737213135
-0.5841162204742432 -14.49501895904541 -2.4958224296569824
0.584301769733429 -14.499101638793945 -2.4965295791625977
4.042797565460205 -13.957343101501465 -2.5
6.2293701171875 -13.12807559967041 -2.5
10.876649856567383 -9.635869026184082 -2.5
12.866616249084473 -6.752900123596191 -2.5
14.342880249023438 -2.330947160720825 -2.5
14.483940124511719 -1.1692675352096558 -2.5
-13.625673294067383 -9.765624781721272e-06 -2.5
-13.581493377685547 -1.0964257717132568 -2.5
-12.535326957702637 -5.340800762176514 -2.5
-11.51626968383789 -7.282451152801514 -2.5
-9.438833236694336 -9.826865196228027 -2.5
-8.617494583129883 -10.554521560668945 -2.5
-6.812827110290527 -11.800185203552246 -2.5
-5.841220378875732 -12.3101167678833 -2.5
-0.5486376881599426 -13.614608764648438 -2.5
0.5486669540405273 -13.614608764648438 -2.5
1.6424022912979126 -13.526308059692383 -2.5
2.7254881858825684 -13.350302696228027 -2.5
8.617505073547363 -10.554511070251465 -2.5
10.198965072631836 -9.03548812866211 -2.5
10.892939567565918 -8.185517311096191 -2.5
11.516288757324219 -7.282451152801514 -2.5
12.064936637878418 -6.332158088684082 -2.5
12.535344123840332 -5.340810298919678 -2.5
12.924455642700195 -4.314814567565918 -2.5
13.229731559753418 -3.2608397006988525 -2.5
13.449228286743164 -2.185722589492798 -2.5
-12.823447227478027 9.765624781721272e-06 -2.5
-12.657377243041992 -2.057021379470825 -2.5
-12.450815200805664 -3.06884765625 -2.5
-11.797308921813965 -5.0263671875 -2.5
-11.354589462280273 -5.959355354309082 -2.5
-10.25161075592041 -7.703583717346191 -2.5
-9.598481178283691 -8.503524780273438 -2.5
-8.8831148147583 -9.248300552368164 -2.5
-8.11013126373291 -9.933115005493164 -2.5
-5.497309684753418 -11.585341453552246 -2.5
-3.567690372467041 -12.317148208618164 -2.5
-0.5163427591323853 -12.8130464553833 -2.5
0.5163623094558716 -12.813027381896973 -2.5
1.5457079410552979 -12.729941368103027 -2.5
3.5677146911621094 -12.317148208618164 -2.5
4.54727029800415 -11.990126609802246 -2.5
6.411733150482178 -11.105420112609863 -2.5
7.284565448760986 -10.553476333618164 -2.5
8.883124351501465 -9.248291015625 -2.5
12.1635103225708 -4.060771465301514 -2.5
12.657384872436523 -2.057021379470825 -2.5
-12.068242073059082 -0.9742480516433716 -2.5
-11.950727462768555 -1.942177653312683 -2.5
-11.484414100646973 -3.8340721130371094 -2.5
-11.138656616210938 -4.745732307434082 -2.5
-10.720659255981445 -5.626640319824219 -2.5
-10.233144760131836 -6.471054553985596 -2.5
-3.823500871658325 -3.387333869934082 -1.0547491312026978
-6.053744792938232 -10.485419273376465 -2.5
-3.368520498275757 -11.62948226928711 -2.5
-1.459389567375183 -12.019227981567383 -2.5
-0.4875146448612213 -12.097695350646973 -2.5
0.48753416538238525 -12.097695350646973 -2.5
1.4594042301177979 -12.019227981567383 -2.5
6.053774356842041 -10.4854097366333 -2.5
7.657358169555664 -9.378524780273438 -2.5
8.387182235717773 -8.731963157653809 -2.5
9.062602043151855 -8.028759956359863 -2.5
10.233154296875 -6.471044540405273 -2.5
11.75570011138916 -2.89751935005188 -2.5
12.068259239196777 -0.9742480516433716 -2.5
-10.151318550109863 -5.327831745147705 -2.5
-9.689697265625 -6.127402305603027 -2.5
-3.5378904342651367 -3.1342968940734863 -1.0306967496871948
-3.297744035720825 -3.4333202838897705 -1.0381039381027222
-4.914751052856445 -10.357626914978027 -2.5
-3.1896142959594727 -11.01187515258789 -2.5
-1.3818895816802979 -11.380927085876465 -2.5
1.3819042444229126 -11.3809175491333 -2.5
2.2931981086730957 -11.23282241821289 -2.5
3.189638614654541 -11.011855125427246 -2.5
4.914770603179932 -10.357606887817383 -2.5
7.250693321228027 -8.880449295043945 -2.5
9.165224075317383 -6.887216567993164 -2.5
9.689697265625 -6.127392292022705 -2.5
10.547119140625 -4.493710994720459 -2.5
10.874516487121582 -3.630439281463623 -2.5
11.427350997924805 -0.9225097298622131 -2.5
-10.848402976989746 -0.8757714629173279 -2.5
-10.323583602905273 -3.4465136528015137 -2.5
-10.01278305053711 -4.266044616699219 -2.5
-3.6741552352905273 -2.7609570026397705 -1.0556837320327759
-3.140185594558716 -3.269277334213257 -1.0412606000900269
-3.02935528755188 -3.7103025913238525 -1.1002514362335205
-5.441840648651123 -9.425556182861328 -2.5
-4.665756702423096 -9.832890510559082 -2.5
-3.8594090938568115 -10.176445007324219 -2.5
-3.028022289276123 -10.453993797302246 -2.5
-2.177006721496582 -10.663749694824219 -2.5
-1.3118798732757568 -10.804335594177246 -2.5
-0.438232421875 -10.874862670898438 -2.5
2.177016496658325 -10.663740158081055 -2.5
3.0280418395996094 -10.453984260559082 -2.5
6.182656288146973 -8.957109451293945 -2.5
6.883364200592041 -8.430556297302246 -2.5
7.53942346572876 -7.849345684051514 -2.5
8.700898170471191 -6.538310527801514 -2.5
9.198803901672363 -5.816962718963623 -2.5
9.637041091918945 -5.057900428771973 -2.5
10.012787818908691 -4.266044616699219 -2.5
10.567450523376465 -2.6046483516693115 -2.5
10.742768287658691 -1.7458593845367432 -2.5
10.848417282104492 -0.875781238079071 -2.5
-10.222235679626465 -1.6612695455551147 -2.5
-10.055415153503418 -2.478447198867798 -2.5
-9.170092582702637 -4.812831878662109 -2.5
-3.56023907661438 -2.675351619720459 -1.0750410556793213
-3.006049633026123 -3.129628896713257 -1.0475350618362427
-5.883066177368164 -8.523115158081055 -2.5
-4.439697265625 -9.356464385986328 -2.5
-3.6724071502685547 -9.683368682861328 -2.5
-1.248315453529358 -10.28084945678711 -2.5
-0.4169970750808716 -10.347949028015137 -2.5
0.4170263707637787 -10.347949028015137 -2.5
1.248329997062683 -10.280839920043945 -2.5
2.8813281059265137 -9.947461128234863 -2.5
4.439702033996582 -9.3564453125 -2.5
6.549843788146973 -8.022069931030273 -2.5
7.174111366271973 -7.46902322769165 -2.5
7.751855373382568 -6.867528915405273 -2.5
8.753090858459473 -5.535107135772705 -2.5
9.170097351074219 -4.812831878662109 -2.5
9.527636528015137 -4.059345722198486 -2.5
9.823383331298828 -3.2795214653015137 -2.5
10.055424690246582 -2.4784374237060547 -2.5
-9.875297546386719 0.0 -2.5
-9.747416496276855 -1.5841113328933716 -2.5
-9.58834457397461 -2.3633203506469727 -2.5
-3.506708860397339 -2.635126829147339 -1.110457181930542
-3.131411075592041 -2.7741894721984863 -1.0590870380401611
-2.899355411529541 -3.018544912338257 -1.0595736503601074
-5.609809398651123 -8.127216339111328 -2.5
-4.937641620635986 -8.552265167236328 -2.5
-2.7474706172943115 -9.4854097366333 -2.5
-1.9752978086471558 -9.675732612609863 -2.5
2.747499942779541 -9.485390663146973 -2.5
4.233471393585205 -8.921835899353027 -2.5
4.937661170959473 -8.552255630493164 -2.5
5.609828948974609 -8.127197265625 -2.5
6.245610237121582 -7.649453163146973 -2.5
7.391782283782959 -6.548534870147705 -2.5
8.744150161743164 -4.589277267456055 -2.5
9.085078239440918 -3.870790958404541 -2.5
9.367084503173828 -3.1271777153015137 -2.5
9.58834457397461 -2.3633203506469727 -2.5
9.84328556060791 -0.794628918170929 -2.5
-9.312421798706055 -1.5134081840515137 -2.5
-3.480776309967041 -2.6156346797943115 -1.1537340879440308
-3.061220645904541 -2.7120115756988525 -1.083709716796875
-2.691088914871216 -3.2959861755371094 -1.1275112628936768
-4.044536113739014 -8.523691177368164 -2.5
-2.6248583793640137 -9.062108993530273 -2.5
-1.1372021436691284 -9.365800857543945 -2.5
-0.3798877000808716 -9.426933288574219 -2.5
0.3799121081829071 -9.426942825317383 -2.5
1.137231469154358 -9.36581039428711 -2.5
1.8871679306030273 -9.243926048278809 -2.5
2.624872922897339 -9.06209945678711 -2.5
3.3455662727355957 -8.821503639221191 -2.5
6.535590648651123 -6.804257869720459 -2.5
7.061909198760986 -6.256298542022705 -2.5
7.542421817779541 -5.667773246765137 -2.5
8.353925704956055 -4.384472370147705 -2.5
9.312426567077637 -1.5134081840515137 -2.5
9.404008865356445 -0.75916987657547 -2.5
-9.029276847839355 0.0 -2.5
-8.999995231628418 -0.7265527248382568 -2.5
-8.912348747253418 -1.4483983516693115 -2.5
-8.766894340515137 -2.1608495712280273 -2.5
-4.533588886260986 -2.379404306411743 -1.4176275730133057
-3.927236318588257 -2.4834375381469727 -1.286529541015625
-3.4546289443969727 -2.5959863662719727 -1.1964656114578247
-3.0234813690185547 -2.6785740852355957 -1.1183980703353882
-2.7564990520477295 -2.869824171066284 -1.1017532348632812
-2.519477367401123 -3.650097608566284 -1.2280045747756958
-4.514633655548096 -7.819570064544678 -2.5
-3.870781183242798 -8.157500267028809 -2.5
-2.5121045112609863 -8.672782897949219 -2.5
-1.8060790300369263 -8.846796989440918 -2.5
-1.088344693183899 -8.9634370803833 -2.5
0.3635839819908142 -9.021963119506836 -2.5
2.512099504470825 -8.672782897949219 -2.5
4.514653205871582 -7.819570064544678 -2.5
5.710532188415527 -6.994111061096191 -2.5
6.254814147949219 -6.511923789978027 -2.5
6.758530139923096 -5.987509727478027 -2.5
7.631459712982178 -4.825829982757568 -2.5
7.995028972625732 -4.196093559265137 -2.5
8.564604759216309 -2.8592772483825684 -2.5
8.766908645629883 -2.1608495712280273 -2.5
9.000004768371582 -0.7265429496765137 -2.5
-8.6551513671875 0.0 -2.5
-8.543061256408691 -1.388369083404541 -2.5
-8.403647422790527 -2.0713281631469727 -2.5
-3.895561456680298 -2.4633984565734863 -1.3313146829605103
-3.428334951400757 -2.576230525970459 -1.2386868000030518
-3.0012011528015137 -2.6588377952575684 -1.1581439971923828
-2.5556347370147705 -3.1300878524780273 -1.1671884059906006
-4.327573299407959 -7.495585918426514 -2.5
-3.069145441055298 -8.092714309692383 -2.5
-2.408012628555298 -8.313427925109863 -2.5
-1.043251872062683 -8.592041015625 -2.5
-0.34849119186401367 -8.648134231567383 -2.5
1.731264591217041 -8.480234146118164 -2.5
2.408027172088623 -8.313427925109863 -2.5
3.7104101181030273 -7.819491863250732 -2.5
4.916694164276123 -7.123056411743164 -2.5
6.91930627822876 -5.199511528015137 -2.5
7.315258502960205 -4.625878810882568 -2.5
8.627094268798828 -0.6964452862739563 -2.5
-8.067231178283691 -1.9884082078933716 -2.5
-3.8641843795776367 -2.4435644149780273 -1.37566339969635
-2.985908031463623 -2.6452929973602295 -1.200295090675354
-2.6483006477355957 -2.7571775913238525 -1.1503099203109741
-2.501596689224243 -3.063896417617798 -1.1901484727859497
-3.5618650913238525 -7.506474494934082 -2.5
-1.001499056816101 -8.248095512390137 -2.5
-0.33455565571784973 -8.301942825317383 -2.5
0.33457517623901367 -8.301942825317383 -2.5
1.0015087127685547 -8.248095512390137 -2.5
2.946303606033325 -7.768740177154541 -2.5
4.154350280761719 -7.195527076721191 -2.5
5.254799842834473 -6.435937404632568 -2.5
6.219140529632568 -5.509657859802246 -2.5
6.642319202423096 -4.991366863250732 -2.5
7.881088733673096 -2.631103515625 -2.5
8.067251205444336 -1.9883984327316284 -2.5
-7.98681116104126 0.0 -2.5
-7.960917949676514 -0.6426757574081421 -2.5
-7.754735946655273 -1.911376953125 -2.5
-7.575780868530273 -2.5291600227355957 -2.5
-7.347700119018555 -3.130566358566284 -2.5
-4.342270374298096 -2.279003858566284 -1.5350276231765747
-3.8325390815734863 -2.4235546588897705 -1.419378638267517
-2.9721875190734863 -2.633134603500366 -1.2429276704788208
-2.340341806411743 -3.390556573867798 -1.2895762920379639
-2.2143359184265137 -3.8353514671325684 -1.3862457275390625
-2.832158088684082 -7.467812538146973 -2.5
-0.9627099633216858 -7.92858362197876 -2.5
-0.3216015696525574 -7.980351448059082 -2.5
1.5975829362869263 -7.825390338897705 -2.5
2.2220799922943115 -7.671474456787109 -2.5
2.832167863845825 -7.46780252456665 -2.5
3.993417978286743 -6.91677713394165 -2.5
5.532670974731445 -5.760097503662109 -2.5
5.978222370147705 -5.296230316162109 -2.5
6.384994983673096 -4.798017501831055 -2.5
6.7503662109375 -4.268681526184082 -2.5
7.347709655761719 -3.130556583404541 -2.5
7.575786113739014 -2.529179573059082 -2.5
7.754731178283691 -1.911376953125 -2.5
7.883388519287109 -1.2811717987060547 -2.5
7.960917949676514 -0.6426659822463989 -2.5
-7.686957836151123 -9.765624781721272e-06 -2.5
-7.662040710449219 -0.6185449361801147 -2.5
-7.291362285614014 -2.434208869934082 -2.5
-7.071840763092041 -3.0130271911621094 -2.5
-3.350834846496582 -2.5179882049560547 -1.3631712198257446
-2.958510637283325 -2.6210057735443115 -1.2854630947113037
-2.5947265625 -2.701406240463257 -1.2181938886642456
-2.286137580871582 -3.3120508193969727 -1.3088531494140625
-3.2953367233276367 -6.944785118103027 -2.5
-2.1386473178863525 -7.383456707000732 -2.5
-1.5375878810882568 -7.53161096572876 -2.5
-0.9265576004981995 -7.630937099456787 -2.5
-0.30952146649360657 -7.680732250213623 -2.5
0.30952146649360657 -7.680732250213623 -2.5
0.9265576004981995 -7.630927562713623 -2.5
2.1386570930480957 -7.383456707000732 -2.5
3.8434910774230957 -6.657089710235596 -2.5
4.86160135269165 -5.954355239868164 -2.5
5.324951171875 -5.543828010559082 -2.5
5.753774166107178 -5.097392559051514 -2.5
6.145283222198486 -4.617890357971191 -2.5
6.4969482421875 -4.108417987823486 -2.5
7.587426662445068 -1.2330663204193115 -2.5
7.662040710449219 -0.6185449361801147 -2.5
-7.406869888305664 0.0 -2.5
-7.310961723327637 -1.1881542205810547 -2.5
-7.025688171386719 -2.345517635345459 -2.5
-6.814174652099609 -2.903251886367798 -2.5
-2.944838762283325 -2.6089062690734863 -1.3279119729995728
-2.581367015838623 -2.687490224838257 -1.2577484846115112
-2.357001781463623 -2.8868064880371094 -1.2578872442245483
-2.104936361312866 -3.645869016647339 -1.4209372997283936
-2.6265087127685547 -6.925556659698486 -2.5
-2.060722589492798 -7.114433288574219 -2.5
-1.4815673828125 -7.257187366485596 -2.5
-0.8927978277206421 -7.352860927581787 -2.5
0.8928076028823853 -7.352860927581787 -2.5
1.4815624952316284 -7.257177352905273 -2.5
4.6844482421875 -5.737402439117432 -2.5
5.130927562713623 -5.341855525970459 -2.5
5.544126033782959 -4.911669731140137 -2.5
6.558476448059082 -3.442138671875 -2.5
6.814179420471191 -2.903251886367798 -2.5
7.025693416595459 -2.345517635345459 -2.5
7.310961723327637 -1.1881444454193115 -2.5
7.382856369018555 -0.5960058569908142 -2.5
-6.776904106140137 -2.2624707221984863 -2.5
-6.57287073135376 -2.8004491329193115 -2.5
-4.240493297576904 -2.2255859375 -1.6757638454437256
-3.718984365463257 -2.351747989654541 -1.5396896600723267
-2.931205987930298 -2.5968260765075684 -1.3702852725982666
-2.3151562213897705 -2.8355565071105957 -1.2809183597564697
-2.189589738845825 -3.17217755317688 -1.3487379550933838
-1.846923828125 -3.892324209213257 -1.5075323581695557
-2.533496141433716 -6.68029260635376 -2.5
-1.9877489805221558 -6.862499713897705 -2.5
-0.28768065571784973 -7.13878870010376 -2.5
0.8611962795257568 -7.092490196228027 -2.5
1.4290966987609863 -7.000195026397705 -2.5
4.058583736419678 -5.8798828125 -2.5
4.949233055114746 -5.152685642242432 -2.5
5.711684226989746 -4.292050838470459 -2.5
6.326225280761719 -3.320253849029541 -2.5
6.936982154846191 -1.709814429283142 -2.5
7.052074909210205 -1.1460644006729126 -2.5
-6.898403167724609 0.0 -2.5
-6.876029968261719 -0.5550976395606995 -2.5
-6.809072017669678 -1.1065820455551147 -2.5
-6.543388366699219 -2.184501886367798 -2.5
-3.2664647102355957 -2.45458984375 -1.4807500839233398
-2.9175829887390137 -2.5847558975219727 -1.4125930070877075
-2.554750919342041 -2.6597752571105957 -1.3365299701690674
-2.2645263671875 -2.773554563522339 -1.2976174354553223
-2.143002986907959 -3.104687452316284 -1.3671540021896362
-1.3798534870147705 -6.759003639221191 -2.5
-0.8315136432647705 -6.848105430603027 -2.5
-0.2777685523033142 -6.892812252044678 -2.5
0.2777685523033142 -6.892812252044678 -2.5
2.957289934158325 -6.232372760772705 -2.5
3.4492039680480957 -5.974199295043945 -2.5
3.9187450408935547 -5.67727518081665 -2.5
4.362871170043945 -5.34353494644165 -2.5
5.163530349731445 -4.57449197769165 -2.5
5.514877796173096 -4.144169807434082 -2.5
5.830463886260986 -3.6869726181030273 -2.5
6.108237266540527 -3.2058496475219727 -2.5
6.543403148651123 -2.184501886367798 -2.5
6.80908203125 -1.1065722703933716 -2.5
-6.645224571228027 -0.5364648103713989 -2.5
-6.133359432220459 -2.6131932735443115 -2.5
-3.234492063522339 -2.4305663108825684 -1.5171869993209839
-2.892778158187866 -2.5627832412719727 -1.4492309093475342
-1.927490234375 -3.338515520095825 -1.445585012435913
-1.8548290729522705 -6.403623104095459 -2.5
-0.8036083579063416 -6.618232250213623 -2.5
0.8035986423492432 -6.618242263793945 -2.5
4.216415882110596 -5.164169788360596 -2.5
6.133364200592041 -2.613173723220825 -2.5
6.323740005493164 -2.1111717224121094 -2.5
6.473124980926514 -1.5954785346984863 -2.5
6.580512523651123 -1.069423794746399 -2.5
6.645229339599609 -0.5364550948143005 -2.5
-6.448559284210205 0.0 -2.5
-6.116703987121582 -2.042060613632202 -2.5
-4.168749809265137 -2.187939405441284 -1.8252252340316772
-3.202885627746582 -2.406806468963623 -1.5532135963439941
-2.8618602752685547 -2.535390615463257 -1.4822722673416138
-2.2072362899780273 -2.703378915786743 -1.3530158996582031
-1.88064444065094 -3.2573728561401367 -1.4581882953643799
-1.6737256050109863 -3.5273046493530273 -1.5136144161224365
-1.4528613090515137 -3.8309080600738525 -1.588399887084961
-1.2898778915405273 -6.31823205947876 -2.5
-0.777294933795929 -6.401552677154541 -2.5
-0.2596533000469208 -6.443329811096191 -2.5
0.25965818762779236 -6.443329811096191 -2.5
0.777294933795929 -6.401542663574219 -2.5
1.2898730039596558 -6.318242073059082 -2.5
1.7941014766693115 -6.193954944610596 -2.5
2.286689519882202 -6.029521465301514 -2.5
2.7644481658935547 -5.82595682144165 -2.5
3.2242822647094727 -5.584619045257568 -2.5
3.663203001022339 -5.307060241699219 -2.5
4.826821327209473 -4.276191234588623 -2.5
5.709926605224609 -2.9967968463897705 -2.5
5.932553768157959 -2.5276172161102295 -2.5
6.365058422088623 -1.034423828125 -2.5
-6.242421627044678 0.0 -2.5
-6.222182273864746 -0.5022948980331421 -2.5
-6.161581993103027 -1.0013476610183716 -2.5
-5.742895603179932 -2.4468164443969727 -2.5
-3.62066388130188 -2.2895703315734863 -1.7156203985214233
-2.8313379287719727 -2.508349657058716 -1.5148906707763672
-2.506791830062866 -2.609853506088257 -1.4492559432983398
-1.6229784488677979 -3.420361280441284 -1.51619553565979
-1.4050633907318115 -3.7048728466033936 -1.5868663787841797
-1.2486376762390137 -6.116259574890137 -2.5
0.25136229395866394 -6.237363338470459 -2.5
0.7524365186691284 -6.196904182434082 -2.5
1.2486474514007568 -6.116269588470459 -2.5
1.7367479801177979 -5.995956897735596 -2.5
3.546098470687866 -5.137412071228027 -2.5
3.947993040084839 -4.835410118103027 -2.5
5.27603006362915 -3.336357355117798 -2.5
5.527387619018555 -2.900995969772339 -2.5
6.06103515625 -1.4939062595367432 -2.5
6.161591529846191 -1.0013476610183716 -2.5
6.222187519073486 -0.5023144483566284 -2.5
-6.027768611907959 -0.4866113066673279 -2.5
-5.969062328338623 -0.9700683355331421 -2.5
-5.736162185668945 -1.9150097370147705 -2.5
-5.563461780548096 -2.370371103286743 -2.5
-2.801196336746216 -2.4816503524780273 -1.5471032857894897
-2.334301710128784 -2.4302635192871094 -1.3930631875991821
-2.173417806625366 -2.6619529724121094 -1.4206711053848267
-1.9686230421066284 -2.8520312309265137 -1.432641625404358
-1.5825097560882568 -3.3350682258605957 -1.5260683298110962
-1.3613183498382568 -3.5895116329193115 -1.5870473384857178
-0.7289404273033142 -6.003281116485596 -2.5
-0.2435009777545929 -6.042470455169678 -2.5
0.728930652141571 -6.003281116485596 -2.5
1.209633708000183 -5.92516565322876 -2.5
1.6824902296066284 -5.808603286743164 -2.5
2.1444334983825684 -5.654394626617432 -2.5
2.592475414276123 -5.463505744934082 -2.5
3.824638605117798 -4.684316158294678 -2.5
4.526528358459473 -4.010146617889404 -2.5
4.834531307220459 -3.6329197883605957 -2.5
5.354692459106445 -2.810351610183716 -2.5
5.736162185668945 -1.9150097370147705 -2.5
5.969067096710205 -0.9700585603713989 -2.5
6.027773380279541 -0.4866113066673279 -2.5
-5.862519264221191 -9.765624781721272e-06 -2.5
-5.843510627746582 -0.4717382788658142 -2.5
-5.786596775054932 -0.9404199123382568 -2.5
-5.393388748168945 -2.297900438308716 -2.5
-4.154848575592041 -2.1806347370147705 -2.000983953475952
-3.142582893371582 -2.361503839492798 -1.6763182878494263
-1.9313915967941284 -2.798105478286743 -1.4498701095581055
-0.7066454887390137 -5.819775104522705 -2.5
-0.23606444895267487 -5.857763767242432 -2.5
0.23605956137180328 -5.857773303985596 -2.5
0.7066406011581421 -5.819775104522705 -2.5
2.5132176876068115 -5.296494007110596 -2.5
4.686743259429932 -3.521865129470825 -2.5
5.191000938415527 -2.724443197250366 -2.5
5.692162990570068 -1.4029881954193115 -2.5
5.786611080169678 -0.9404101371765137 -2.5
-5.6685791015625 -0.4576171636581421 -2.5
-5.613379001617432 -0.9122558236122131 -2.5
-5.394340515136719 -1.800878882408142 -2.5
-4.154848575592041 -2.1806347370147705 -2.062731981277466
-3.1377928256988525 -2.357900381088257 -1.7254087924957275
-2.741030216217041 -2.428339719772339 -1.6097970008850098
-1.7106395959854126 -2.9629199504852295 -1.5039926767349243
-1.5078612565994263 -3.177744150161743 -1.5462167263031006
-1.2920947074890137 -3.406982421875 -1.6017918586730957
-1.137548804283142 -5.572099685668945 -2.5
-0.22898925840854645 -5.682392597198486 -2.5
2.0166454315185547 -5.317451000213623 -2.5
2.843510627746582 -4.925107479095459 -2.5
3.230600595474243 -4.680331707000732 -2.5
3.596733331680298 -4.405195236206055 -2.5
3.9395360946655273 -4.101493835449219 -2.5
5.035605430603027 -2.642900228500366 -2.5
5.521772384643555 -1.360986351966858 -2.5
-5.520155906677246 9.765624781721272e-06 -2.5
-5.502260684967041 -0.4441894292831421 -2.5
-5.448681354522705 -0.885498046875 -2.5
-5.359750747680664 -1.3210644721984863 -2.5
-5.236073970794678 -1.7480566501617432 -2.5
-5.078427791595459 -2.163710832595825 -2.5
-3.1329638957977295 -2.3542773723602295 -1.7748277187347412
-2.4072020053863525 -2.506162166595459 -1.5737682580947876
-1.8750194311141968 -2.716435432434082 -1.494844675064087
-1.4735790491104126 -3.1054980754852295 -1.5567402839660645
-1.2629590034484863 -3.330156087875366 -1.6129952669143677
-1.104164958000183 -5.408603191375732 -2.5
-0.6653759479522705 -5.479902267456055 -2.5
-0.22227539122104645 -5.515673637390137 -2.5
1.1041698455810547 -5.408603191375732 -2.5
2.760082960128784 -4.780595779418945 -2.5
4.413051605224609 -3.3161914348602295 -2.5
4.665580749511719 -2.950331926345825 -2.5
5.359760761260986 -1.3210644721984863 -2.5
-5.361274242401123 0.0 -2.5
-5.291845798492432 -0.8600097298622131 -2.5
-5.08535623550415 -1.6977343559265137 -2.5
-4.932255744934082 -2.101435422897339 -2.5
-3.59814453125 -2.275331974029541 -1.9851627349853516
-3.12957501411438 -2.3517186641693115 -1.825449824333191
-2.735224485397339 -2.4232029914855957 -1.7039927244186401
-2.385258674621582 -2.4833202362060547 -1.6056387424468994
-1.4405858516693115 -3.035966634750366 -1.5669876337051392
-1.2346923351287842 -3.255605459213257 -1.6236257553100586
-1.0723925828933716 -5.252919673919678 -2.5
-0.6462255716323853 -5.322167873382568 -2.5
-0.21587401628494263 -5.356914043426514 -2.5
0.6462353467941284 -5.322177410125732 -2.5
1.0723974704742432 -5.252919673919678 -2.5
1.4915966987609863 -5.149589538574219 -2.5
3.3907177448272705 -4.15286111831665 -2.5
3.713881731033325 -3.8665623664855957 -2.5
4.012959003448486 -3.555185556411743 -2.5
4.286020278930664 -3.2207422256469727 -2.5
4.531293869018555 -2.865410089492798 -2.5
4.932246208190918 -2.101435422897339 -2.5
5.205478191375732 -1.2830370664596558 -2.5
