ply
format ascii 1.0
element vertex 767
property float x
property float y
property float z
end_header
-19.29774284362793 -17.096323013305664 5.997457027435303
-11.744790077209473 -10.404951095581055 3.4671826362609863
-19.306537628173828 -17.104110717773438 5.400460720062256
-11.413724899291992 -8.57686996459961 2.824475049972534
-19.3325138092041 -17.127119064331055 3.637148857116699
-19.3367862701416 -17.130897521972656 3.3464884757995605
-11.45438003540039 -14.029081344604492 2.3461198806762695
-19.345327377319336 -17.13848114013672 2.767010450363159
-19.34957504272461 -17.142236709594727 2.4782979488372803
-19.35806655883789 -17.149755477905273 1.9020781517028809
5.093364238739014 -24.948925018310547 1.8727591037750244
-13.963393211364746 -24.1852970123291 1.7430202960968018
-19.366533279418945 -17.157255172729492 1.3272204399108887
-13.965463638305664 -24.18891143798828 1.432761788368225
-13.965468406677246 -24.18891143798828 1.1228759288787842
5.093188285827637 -24.948036193847656 1.02338707447052
-13.965468406677246 -24.18891143798828 0.8127581477165222
-19.379207611083984 -17.16849136352539 0.4662661552429199
-19.383426666259766 -17.172222137451172 0.1793542504310608
-19.387670516967773 -17.17599105834961 -0.1076383963227272
14.673684120178223 -6.251870155334473 -0.0662812814116478
-19.391889572143555 -17.17972183227539 -0.3947798013687134
-13.965468406677246 -24.18891143798828 -0.42561203241348267
12.990431785583496 -6.81790018081665 -0.22355590760707855
-19.39613151550293 -17.183490753173828 -0.682147204875946
-13.965468406677246 -24.18891143798828 -0.7353726029396057
-19.40886688232422 -17.194765090942383 -1.5462937355041504
-13.965468406677246 -24.18891143798828 -1.6656157970428467
13.234333038330078 -9.944951057434082 -0.9871963262557983
12.370361328125 -6.492465496063232 -0.8331129550933838
3.56329345703125 -9.395625114440918 -0.7110612392425537
17.596847534179688 -15.58944320678711 -1.6635541915893555
12.223053932189941 -7.729394435882568 -1.023352026939392
12.243247032165527 -6.425746917724609 -0.9784287810325623
14.200968742370605 -6.050463676452637 -1.092293381690979
21.62552261352539 -7.219663143157959 -1.6132906675338745
-18.70374870300293 -16.570087432861328 -2.046722888946533
-19.854408264160156 -20.67061996459961 -2.347599983215332
-18.166635513305664 -22.250106811523438 -2.3527660369873047
-16.355175018310547 -23.694549560546875 -2.3582234382629395
-9.757577896118164 -20.563701629638672 -1.8643370866775513
-10.264384269714355 -27.064960479736328 -2.3709146976470947
-8.063188552856445 -27.837303161621094 -2.373828411102295
-5.802329063415527 -28.421688079833984 -2.3759889602661133
-3.4986987113952637 -28.81434440612793 -2.3774678707122803
-1.1690967082977295 -29.01089859008789 -2.3781604766845703
1.1690990924835205 -29.01089859008789 -2.3781604766845703
2.4700682163238525 -20.343074798583984 -1.678503394126892
8.06259536743164 -27.8353214263916 -2.3736579418182373
12.389360427856445 -26.110057830810547 -2.3671789169311523
14.424327850341797 -24.983661651611328 -2.362942695617676
10.759145736694336 -15.58730411529541 -1.5513421297073364
12.323942184448242 -10.918066024780273 -1.3485870361328125
12.905436515808105 -9.697802543640137 -1.3222476243972778
11.998175621032715 -7.587192058563232 -1.1627551317214966
12.10168170928955 -6.351449966430664 -1.1194534301757812
21.395519256591797 -7.142875671386719 -1.847550630569458
24.837514877319336 -6.121909141540527 -2.0952823162078857
-26.773056030273438 -2.1613476276397705 -2.5
-26.51230812072754 -4.308686256408691 -2.5
-24.710790634155273 -10.528290748596191 -2.5
-20.16414451599121 -15.152377128601074 -2.347599983215332
-12.631552696228027 -21.878480911254883 -2.351353883743286
-5.077475547790527 -24.87107276916504 -2.362614631652832
-3.0613768100738525 -25.21271514892578 -2.3639001846313477
-1.0229320526123047 -25.38394546508789 -2.3645200729370117
2.4836864471435547 -20.455204010009766 -1.9178435802459717
5.077373027801514 -24.87056541442871 -2.362565755844116
7.056388854980469 -24.361494064331055 -2.3606393337249756
3.515146493911743 -9.268686294555664 -0.9226357936859131
10.846894264221191 -22.8593692779541 -2.3550021648406982
15.952014923095703 -19.537675857543945 -2.347599983215332
17.472410202026367 -18.19072723388672 -2.347599983215332
12.642104148864746 -9.499921798706055 -1.4718492031097412
11.846518516540527 -6.217534065246582 -1.245245099067688
21.31340980529785 -7.115463733673096 -2.091367244720459
26.07964324951172 -6.428066253662109 -2.5
26.5123233795166 -4.308681488037109 -2.5
-23.89981460571289 -1.9293993711471558 -2.5
-22.743608474731445 -7.592929363250732 -2.5
-22.058866500854492 -9.398407936096191 -2.5
-21.231082916259766 -11.142924308776855 -2.5
-20.265605926513672 -12.815195083618164 -2.5
-19.150419235229492 -14.390604972839355 -2.497617244720459
-14.240062713623047 -17.440927505493164 -2.347599983215332
-7.98647928237915 -21.058597564697266 -2.348254919052124
-3.718925714492798 -18.216543197631836 -1.9385079145431519
-2.7206053733825684 -22.40620994567871 -2.3533225059509277
4.512548923492432 -22.103862762451172 -2.3521769046783447
11.257951736450195 -19.49933624267578 -2.347599983215332
14.240070343017578 -17.440927505493164 -2.347599983215332
15.597296714782715 -16.238534927368164 -2.347599983215332
11.432592391967773 -10.128397941589355 -1.5925076007843018
12.724421501159668 -9.561781883239746 -1.6595304012298584
11.671332359313965 -6.125586032867432 -1.374320387840271
14.205265998840332 -6.052294731140137 -1.6099261045455933
23.28082275390625 -5.738222599029541 -2.5
23.667064666748047 -3.8462791442871094 -2.5
-21.648895263671875 4.882812390860636e-06 -2.5
-21.36854362487793 -3.4727392196655273 -2.5
-19.91653823852539 -8.485644340515137 -2.5
-19.169145584106445 -10.060751914978027 -2.5
-18.297426223754883 -11.570605278015137 -2.5
-17.30706024169922 -13.005410194396973 -2.5
-16.193817138671875 -14.346488952636719 -2.4983649253845215
-11.548285484313965 -16.730581283569336 -2.347599983215332
-10.164589881896973 -17.6055850982666 -2.347599983215332
-3.2681150436401367 -16.00833511352539 -1.886762022972107
-2.4504148960113525 -20.18095588684082 -2.347599983215332
0.8185741901397705 -20.312694549560547 -2.347599983215332
4.066362380981445 -19.9183349609375 -2.347599983215332
8.71496295928955 -18.366395950317383 -2.347599983215332
10.164596557617188 -17.605581283569336 -2.347599983215332
12.85708999633789 -15.747084617614746 -2.347599983215332
14.143085479736328 -14.724531173706055 -2.357698917388916
11.286137580871582 -9.998652458190918 -1.7412121295928955
12.670710563659668 -9.521415710449219 -1.8302804231643677
11.640446662902832 -6.109375 -1.5181220769882202
14.222102165222168 -6.059467792510986 -1.7852123975753784
21.019813537597656 -5.180932521820068 -2.5
21.368547439575195 -3.472734212875366 -2.5
21.578691482543945 -1.7420165538787842 -2.5
-19.727983474731445 4.882812390860636e-06 -2.5
-19.664012908935547 -1.5874462127685547 -2.5
-19.472503662109375 -3.164604425430298 -2.5
-18.712718963623047 -6.24722146987915 -2.5
-17.4682559967041 -9.168066024780273 -2.5
-16.67389678955078 -10.543940544128418 -2.5
-14.7666015625 -13.082070350646973 -2.5
-13.666054725646973 -14.227866172790527 -2.5
-10.523608207702637 -15.246073722839355 -2.347599983215332
-7.941674709320068 -16.736753463745117 -2.347599983215332
-6.569189071655273 -17.321523666381836 -2.347599983215332
-4.612563610076904 -15.924433708190918 -2.1009509563446045
-3.268120050430298 -16.00833511352539 -2.070476531982422
-0.7459399104118347 -18.51034164428711 -2.347599983215332
0.7459399104118347 -18.510345458984375 -2.347599983215332
2.232988119125366 -18.39029312133789 -2.347599983215332
3.7055516242980957 -18.150981903076172 -2.347599983215332
5.154079437255859 -17.7939395904541 -2.347599983215332
12.014689445495605 -14.71532154083252 -2.4073922634124756
13.666051864624023 -14.227875709533691 -2.5
11.205915451049805 -9.927573204040527 -1.8971707820892334
12.67251205444336 -9.522772789001465 -2.0087802410125732
11.215192794799805 -7.092065334320068 -1.6815499067306519
11.64178466796875 -6.110077857971191 -1.6661328077316284
19.472511291503906 -3.1645946502685547 -2.5
19.66401481628418 -1.5874364376068115 -2.5
-18.05730438232422 -1.4577343463897705 -2.5
-17.881454467773438 -2.9060301780700684 -2.5
-17.183734893798828 -5.736777305603027 -2.5
-16.66639518737793 -7.100898265838623 -2.5
-16.04097557067871 -8.4189453125 -2.5
-15.311508178710938 -9.682416915893555 -2.5
-14.482758522033691 -10.883075714111328 -2.5
-11.457406997680664 -14.032782554626465 -2.5
-10.14981460571289 -14.704545974731445 -2.465679407119751
-7.292783260345459 -15.369223594665527 -2.347599983215332
-4.586904048919678 -15.835859298706055 -2.275163412094116
-3.249943733215332 -15.919296264648438 -2.2421627044677734
-2.050534725189209 -16.887664794921875 -2.347599983215332
-0.6849902272224426 -16.99789047241211 -2.347599983215332
0.6849926710128784 -16.997905731201172 -2.347599983215332
2.050534725189209 -16.887664794921875 -2.347599983215332
3.505446672439575 -9.243104934692383 -1.3641903400421143
7.29278564453125 -15.36922836303711 -2.347599983215332
8.505849838256836 -14.73256778717041 -2.347599983215332
10.14980697631836 -14.704530715942383 -2.46567702293396
11.457414627075195 -14.032787322998047 -2.5
11.192697525024414 -7.077836990356445 -1.8274972438812256
17.18373680114746 -5.736772537231445 -2.5
17.589637756347656 -4.335464000701904 -2.5
17.881454467773438 -2.9060254096984863 -2.5
-16.257211685180664 -4.007050514221191 -2.5
-15.882064819335938 -5.302211761474609 -2.5
-14.825859069824219 -7.781210899353027 -2.5
-12.532880783081055 -11.10317325592041 -2.5
-11.5988130569458 -12.075634956359863 -2.5
-8.358930587768555 -14.478095054626465 -2.496134042739868
-6.980410099029541 -14.710922241210938 -2.431210517883301
-1.8952099084854126 -15.608417510986328 -2.347599983215332
-0.6331030130386353 -15.710307121276855 -2.347599983215332
0.633105456829071 -15.710307121276855 -2.347599983215332
1.8952075242996216 -15.608417510986328 -2.347599983215332
3.5052294731140137 -9.242533683776855 -1.4759074449539185
8.358932495117188 -14.478105545043945 -2.496134042739868
9.51153564453125 -13.7798433303833 -2.5
11.598800659179688 -12.07564926147461 -2.5
11.198381423950195 -7.081430435180664 -1.9782814979553223
11.685561180114746 -6.13305139541626 -1.970469355583191
15.403914451599121 -6.562993049621582 -2.5
16.689464569091797 -1.347314476966858 -2.5
-15.510629653930664 -1.2521483898162842 -2.5
-15.359575271606445 -2.4961767196655273 -2.5
-15.108905792236328 -3.7240185737609863 -2.5
-14.760249137878418 -4.927695274353027 -2.5
-14.31588363647461 -6.099423885345459 -2.5
-13.778656959533691 -7.231601238250732 -2.5
-13.152074813842773 -8.316869735717773 -2.5
-11.647636413574219 -10.318910598754883 -2.5
-10.779550552368164 -11.222684860229492 -2.5
-8.839712142944336 -12.806523323059082 -2.5
-7.780551433563232 -13.476303100585938 -2.5
-5.507832050323486 -14.52293872833252 -2.4953739643096924
-3.003955125808716 -14.714340209960938 -2.412724018096924
-0.5933080911636353 -14.722763061523438 -2.367236852645874
0.5933080911636353 -14.72276782989502 -2.367237091064453
3.003957509994507 -14.714350700378418 -2.4127237796783447
6.670922756195068 -14.058676719665527 -2.5
9.841540336608887 -12.053695678710938 -2.5
10.77953815460205 -11.222695350646973 -2.5
12.177648544311523 -7.70068359375 -2.3147776126861572
-14.531054496765137 4.882812390860636e-06 -2.5
-14.483935356140137 -1.1692675352096558 -2.5
-14.10879898071289 -3.4775145053863525 -2.5
-12.86661148071289 -6.752904891967773 -2.5
-12.281503677368164 -7.766357421875 -2.5
-11.616747856140137 -8.729418754577637 -2.5
-10.876649856567383 -9.635873794555664 -2.5
-10.066020011901855 -10.479833602905273 -2.5
-9.19009780883789 -11.255829811096191 -2.5
-8.254590034484863 -11.958823204040527 -2.5
-6.229355335235596 -13.128090858459473 -2.5
-2.9065868854522705 -14.237397193908691 -2.5
-0.5841332674026489 -14.49514102935791 -2.495845317840576
2.9065966606140137 -14.23739242553711 -2.5
4.042800426483154 -13.957338333129883 -2.5
7.26553201675415 -12.58426284790039 -2.5
8.254582405090332 -11.958818435668945 -2.5
10.066010475158691 -10.479833602905273 -2.5
10.876652717590332 -9.635878562927246 -2.5
13.368270874023438 -5.695688247680664 -2.5
13.78323745727539 -4.601513385772705 -2.5
14.342880249023438 -2.330947160720825 -2.5
14.483932495117188 -1.1692675352096558 -2.5
-12.924448013305664 -4.3148193359375 -2.5
-10.198959350585938 -9.035492897033691 -2.5
-9.4388427734375 -9.82686996459961 -2.5
-8.617494583129883 -10.554526329040527 -2.5
-6.812836647033691 -11.800175666809082 -2.5
-5.841220378875732 -12.310126304626465 -2.5
-4.831733226776123 -12.74022388458252 -2.5
-3.790908098220825 -13.087699890136719 -2.5
-2.7254858016967773 -13.35030746459961 -2.5
-0.5486499071121216 -13.6146240234375 -2.5
2.7254834175109863 -13.35030746459961 -2.5
3.790903329849243 -13.087699890136719 -2.5
3.5365843772888184 -9.325209617614746 -1.8298746347427368
6.812836647033691 -11.800180435180664 -2.5
7.740265846252441 -11.21371078491211 -2.5
8.617497444152832 -10.554506301879883 -2.5
10.198962211608887 -9.035492897033691 -2.5
10.8929443359375 -8.185517311096191 -2.5
11.516279220581055 -7.282460689544678 -2.5
12.535341262817383 -5.340800762176514 -2.5
13.229736328125 -3.2608397006988525 -2.5
13.449220657348633 -2.185722589492798 -2.5
13.581486701965332 -1.096411108970642 -2.5
-12.823447227478027 0.0 -2.5
-12.657387733459473 -2.0570311546325684 -2.5
-12.450819969177246 -3.068862199783325 -2.5
-12.163505554199219 -4.060771465301514 -2.5
-11.797308921813965 -5.026362419128418 -2.5
-8.8831148147583 -9.248300552368164 -2.5
-4.547258377075195 -11.990131378173828 -2.5
-0.5163427591323853 -12.813051223754883 -2.5
2.5650219917297363 -12.564291954040527 -2.5
3.5677075386047363 -12.317152976989746 -2.5
6.411725997924805 -11.10543441772461 -2.5
8.883112907409668 -9.248300552368164 -2.5
9.59848403930664 -8.503520011901855 -2.5
10.838249206542969 -6.853691101074219 -2.5
11.797308921813965 -5.026357173919678 -2.5
12.163505554199219 -4.060776233673096 -2.5
12.657389640808105 -2.0570311546325684 -2.5
12.781865119934082 -1.0318554639816284 -2.5
-12.107514381408691 4.882812390860636e-06 -2.5
-11.755688667297363 -2.897529125213623 -2.5
-11.484414100646973 -3.834062337875366 -2.5
-11.13866138458252 -4.745732307434082 -2.5
-10.233149528503418 -6.471054553985596 -2.5
-9.062602043151855 -8.028764724731445 -2.5
-7.657338619232178 -9.378535270690918 -2.5
-6.877846717834473 -9.964282035827637 -2.5
-6.053750038146973 -10.4854097366333 -2.5
-5.190390586853027 -10.938539505004883 -2.5
-4.293383598327637 -11.320717811584473 -2.5
-3.368520498275757 -11.629487037658691 -2.5
-1.4594018459320068 -12.019238471984863 -2.5
0.4875219762325287 -12.09769058227539 -2.5
1.4593993425369263 -12.019243240356445 -2.5
6.053761959075928 -10.4854097366333 -2.5
7.657341003417969 -9.378535270690918 -2.5
9.679262161254883 -7.273496150970459 -2.5
10.233146667480469 -6.471054553985596 -2.5
10.720670700073242 -5.626635551452637 -2.5
11.138664245605469 -4.745732307434082 -2.5
11.950719833374023 -1.9421825408935547 -2.5
-11.13137149810791 -2.743647336959839 -2.5
-10.874516487121582 -3.630449056625366 -2.5
-10.151323318481445 -5.327831745147705 -2.5
-9.689692497253418 -6.127397537231445 -2.5
-8.581303596496582 -7.602382659912109 -2.5
-7.941747665405273 -8.268237113952637 -2.5
-7.250678539276123 -8.880473136901855 -2.5
-5.732255935668945 -9.928559303283691 -2.5
-3.189631223678589 -11.011869430541992 -2.5
-1.38189697265625 -11.380922317504883 -2.5
-0.46162840723991394 -11.455219268798828 -2.5
0.46163085103034973 -11.455209732055664 -2.5
2.293200731277466 -11.23282241821289 -2.5
3.518183469772339 -9.276689529418945 -2.1635050773620605
4.914753437042236 -10.357622146606445 -2.5
5.732260704040527 -9.928559303283691 -2.5
6.512587547302246 -9.435102462768555 -2.5
7.250678539276123 -8.880477905273438 -2.5
7.941742897033691 -8.268241882324219 -2.5
8.581311225891113 -7.602377891540527 -2.5
9.68969440460205 -6.127387523651123 -2.5
10.151320457458496 -5.327817440032959 -2.5
10.547119140625 -4.493705749511719 -2.5
10.874504089355469 -3.630439281463623 -2.5
-10.883706092834473 0.0 -2.5
-10.848407745361328 -0.8757714629173279 -2.5
-10.567436218261719 -2.6046483516693115 -2.5
-10.323583602905273 -3.4465184211730957 -2.5
-9.637041091918945 -5.057909965515137 -2.5
-8.70089340209961 -6.538295745849609 -2.5
-8.146567344665527 -7.217231273651123 -2.5
-7.539403915405273 -7.849345684051514 -2.5
-5.441850662231445 -9.425565719604492 -2.5
-3.8594114780426025 -10.176440238952637 -2.5
-3.0280394554138184 -10.453993797302246 -2.5
-2.1770238876342773 -10.663744926452637 -2.5
-1.3118871450424194 -10.804349899291992 -2.5
1.3118896484375 -10.804349899291992 -2.5
3.0280370712280273 -10.453998565673828 -2.5
6.182651042938232 -8.957109451293945 -2.5
8.146567344665527 -7.217221736907959 -2.5
8.700896263122559 -6.538300514221191 -2.5
9.198796272277832 -5.816967487335205 -2.5
9.637041091918945 -5.057900428771973 -2.5
10.323588371276855 -3.4465184211730957 -2.5
-9.823378562927246 -3.2795262336730957 -2.5
-9.170092582702637 -4.812836647033691 -2.5
-7.751845359802246 -6.867534160614014 -2.5
-7.174106121063232 -7.469033241271973 -2.5
-6.549824237823486 -8.022085189819336 -2.5
-5.88308572769165 -8.523115158081055 -2.5
-4.439687252044678 -9.356459617614746 -2.5
-3.672414541244507 -9.683359146118164 -2.5
-2.8813207149505615 -9.947465896606445 -2.5
-0.41700682044029236 -10.347953796386719 -2.5
0.41700682044029236 -10.3479585647583 -2.5
1.2483227252960205 -10.28084945678711 -2.5
2.071540594100952 -10.14706039428711 -2.5
3.5008764266967773 -9.231054306030273 -2.383226156234741
4.439687252044678 -9.356454849243164 -2.5
7.751840591430664 -6.867538928985596 -2.5
8.279314041137695 -6.221494197845459 -2.5
8.75308609008789 -5.535121917724609 -2.5
9.527636528015137 -4.059340953826904 -2.5
9.823378562927246 -3.2795214653015137 -2.5
10.055415153503418 -2.478442430496216 -2.5
10.222246170043945 -1.6612744331359863 -2.5
-9.8753023147583 9.765624781721272e-06 -2.5
-9.843276023864746 -0.794628918170929 -2.5
-9.747416496276855 -1.5841113328933716 -2.5
-9.588339805603027 -2.3633203506469727 -2.5
-9.085078239440918 -3.87078595161438 -2.5
-8.744140625 -4.589277267456055 -2.5
-8.346508979797363 -5.278017520904541 -2.5
-7.894736289978027 -5.932514667510986 -2.5
-7.391767501831055 -6.548540115356445 -2.5
-6.245585918426514 -7.649462699890137 -2.5
-5.609814167022705 -8.127211570739746 -2.5
-4.93765115737915 -8.552265167236328 -2.5
-4.233461856842041 -8.921845436096191 -2.5
-3.501833438873291 -9.233564376831055 -2.5
-2.747485399246216 -9.485404968261719 -2.5
-0.3976367115974426 -9.867289543151855 -2.5
0.3976367115974426 -9.867294311523438 -2.5
1.1903393268585205 -9.803300857543945 -2.5
1.9753148555755615 -9.675732612609863 -2.5
3.5018310546875 -9.233564376831055 -2.5
4.93765115737915 -8.552255630493164 -2.5
5.609811782836914 -8.127206802368164 -2.5
6.245588302612305 -7.649457931518555 -2.5
6.840856552124023 -7.122089862823486 -2.5
8.346506118774414 -5.278012752532959 -2.5
9.085078239440918 -3.870781183242798 -2.5
9.367084503173828 -3.127187490463257 -2.5
9.58834457397461 -2.3633153438568115 -2.5
-9.404004096984863 -0.75916987657547 -2.5
-9.312426567077637 -1.5134228467941284 -2.5
-9.160449028015137 -2.2578516006469727 -2.5
-8.353920936584473 -4.384482383728027 -2.5
-7.061903953552246 -6.256293773651123 -2.5
-5.966869831085205 -7.308085918426514 -2.5
-5.359467506408691 -7.764516353607178 -2.5
-3.3455541133880615 -8.821503639221191 -2.5
-2.624870538711548 -9.06209945678711 -2.5
-1.8871606588363647 -9.24393081665039 -2.5
-0.379890114068985 -9.426947593688965 -2.5
0.37989988923072815 -9.426958084106445 -2.5
3.3455615043640137 -8.821508407592773 -2.5
4.717302322387695 -8.170595169067383 -2.5
5.966867446899414 -7.308090686798096 -2.5
6.535575866699219 -6.804262638092041 -2.5
7.061896800994873 -6.256298542022705 -2.5
7.97402811050415 -5.042465686798096 -2.5
9.404006004333496 -0.75916987657547 -2.5
-9.029281616210938 0.0 -2.5
-7.995028972625732 -4.196117877960205 -2.5
-6.758510589599609 -5.987514495849609 -2.5
-5.710522174835205 -6.994121074676514 -2.5
-5.129213809967041 -7.430947303771973 -2.5
-3.870783567428589 -8.15750503540039 -2.5
-3.2018260955810547 -8.442519187927246 -2.5
-2.5121068954467773 -8.6727876663208 -2.5
-1.8060888051986694 -8.8468017578125 -2.5
-1.0883617401123047 -8.963452339172363 -2.5
-0.36357176303863525 -9.021957397460938 -2.5
1.80609130859375 -8.846796989440918 -2.5
3.2018260955810547 -8.442519187927246 -2.5
3.870781183242798 -8.157514572143555 -2.5
5.129216194152832 -7.430947303771973 -2.5
5.710522174835205 -6.994121074676514 -2.5
6.254797458648682 -6.511938095092773 -2.5
7.218388557434082 -5.424262523651123 -2.5
7.631454944610596 -4.825844764709473 -2.5
7.995028972625732 -4.196117877960205 -2.5
8.56459903717041 -2.8592822551727295 -2.5
8.766899108886719 -2.1608495712280273 -2.5
9.0 -0.7265527248382568 -2.5
-8.655156135559082 4.882812390860636e-06 -2.5
-8.627089500427246 -0.6964501738548279 -2.5
-7.962563514709473 -3.392529249191284 -2.5
-6.919301509857178 -5.199521541595459 -2.5
-6.478476524353027 -5.739428520202637 -2.5
-1.7312573194503784 -8.480238914489746 -2.5
-1.0432641506195068 -8.592050552368164 -2.5
0.3485058546066284 -8.648134231567383 -2.5
1.0432616472244263 -8.592050552368164 -2.5
3.069155216217041 -8.092719078063965 -2.5
3.710392951965332 -7.819506645202637 -2.5
4.327580451965332 -7.495580673217773 -2.5
4.916689395904541 -7.123046875 -2.5
5.473913669586182 -6.704320907592773 -2.5
6.478471755981445 -5.739423751831055 -2.5
6.919301509857178 -5.199506759643555 -2.5
7.315248966217041 -4.625888347625732 -2.5
7.66375732421875 -4.022250652313232 -2.5
7.962563514709473 -3.392534017562866 -2.5
8.543070793151855 -1.3883837461471558 -2.5
8.627087593078613 -0.6964501738548279 -2.5
-8.30868148803711 0.0 -2.5
-8.067235946655273 -1.9883984327316284 -2.5
-7.356967449188232 -3.8612401485443115 -2.5
-7.022411823272705 -4.440712928771973 -2.5
-6.642309188842773 -4.991376876831055 -2.5
-5.254780292510986 -6.435946941375732 -2.5
-4.719862937927246 -6.837904930114746 -2.5
-4.154338359832764 -7.195522308349609 -2.5
-3.5618627071380615 -7.506489276885986 -2.5
-2.946296215057373 -7.768744945526123 -2.5
0.33455321192741394 -8.301942825317383 -2.5
1.001499056816101 -8.248095512390137 -2.5
2.946296215057373 -7.768740177154541 -2.5
6.219133377075195 -5.50967264175415 -2.5
6.642312049865723 -4.991372108459473 -2.5
7.022404670715332 -4.44070291519165 -2.5
7.356965065002441 -3.8612353801727295 -2.5
7.643813133239746 -3.256718635559082 -2.5
7.881086349487305 -2.6310839653015137 -2.5
8.201081275939941 -1.3328124284744263 -2.5
8.281733512878418 -0.6685693264007568 -2.5
-7.98681116104126 9.765624781721272e-06 -2.5
-7.960917949676514 -0.6426708698272705 -2.5
-7.754726409912109 -1.9113720655441284 -2.5
-6.750370979309082 -4.2686767578125 -2.5
-5.051222801208496 -6.186630725860596 -2.5
-3.99340558052063 -6.916781902313232 -2.5
-3.423884153366089 -7.21569299697876 -2.5
-2.832163095474243 -7.467792987823486 -2.5
-2.2220752239227295 -7.671483993530273 -2.5
-0.96270751953125 -7.928578853607178 -2.5
0.9627050757408142 -7.928569316864014 -2.5
1.5975658893585205 -7.825409889221191 -2.5
2.2220702171325684 -7.671479225158691 -2.5
2.832158088684082 -7.46780252456665 -2.5
3.993408203125 -6.916787147521973 -2.5
5.53265380859375 -5.760107517242432 -2.5
5.978215217590332 -5.296235084533691 -2.5
6.384999752044678 -4.798012733459473 -2.5
7.071967601776123 -3.7116551399230957 -2.5
-7.686967372894287 0.0 -2.5
-7.463593482971191 -1.8396142721176147 -2.5
-7.291367053985596 -2.434213876724243 -2.5
-7.071845531463623 -3.0130321979522705 -2.5
-5.753774166107178 -5.097402095794678 -2.5
-4.861581802368164 -5.954360008239746 -2.5
-3.295344114303589 -6.944789886474609 -2.5
-2.725834846496582 -7.187436580657959 -2.5
-0.9265649318695068 -7.630918025970459 -2.5
-0.30952146649360657 -7.680727481842041 -2.5
0.3095190227031708 -7.680732250213623 -2.5
0.9265649318695068 -7.630927562713623 -2.5
1.5375927686691284 -7.5316162109375 -2.5
2.1386449337005615 -7.383466720581055 -2.5
3.8434813022613525 -6.657109260559082 -2.5
4.366694450378418 -6.326250076293945 -2.5
4.861589431762695 -5.954360008239746 -2.5
5.324946403503418 -5.543857097625732 -2.5
5.753769397735596 -5.097392559051514 -2.5
6.496938228607178 -4.108413219451904 -2.5
7.291364669799805 -2.434208869934082 -2.5
7.463593482971191 -1.8396142721176147 -2.5
-7.310956954956055 -1.188149333000183 -2.5
-6.814174652099609 -2.903247117996216 -2.5
-6.558461666107178 -3.442143440246582 -2.5
-4.684440612792969 -5.737402439117432 -2.5
-4.207585334777832 -6.095727443695068 -2.5
-1.4815673828125 -7.257182598114014 -2.5
-0.2982446253299713 -7.400868892669678 -2.5
0.2982446253299713 -7.400864124298096 -2.5
1.4815673828125 -7.257187366485596 -2.5
3.1752660274505615 -6.691742897033691 -2.5
5.13092041015625 -5.341855525970459 -2.5
5.544126033782959 -4.911669731140137 -2.5
5.921369552612305 -4.449624061584473 -2.5
6.260212421417236 -3.9587254524230957 -2.5
7.025693416595459 -2.345517635345459 -2.5
7.382856369018555 -0.5960058569908142 -2.5
-6.936977386474609 -1.7098193168640137 -2.5
-6.572880744934082 -2.8004345893859863 -2.5
-6.326210975646973 -3.320258617401123 -2.5
-5.347797870635986 -4.737734317779541 -2.5
-4.949233055114746 -5.152695178985596 -2.5
-4.05859375 -5.879887580871582 -2.5
-3.5722973346710205 -6.187392234802246 -2.5
-1.9877513647079468 -6.862504959106445 -2.5
-1.429103970527649 -7.000195026397705 -2.5
-0.8611865043640137 -7.092499732971191 -2.5
-0.2876830995082855 -7.1387939453125 -2.5
0.2876855432987213 -7.1387939453125 -2.5
1.429103970527649 -7.000205039978027 -2.5
1.9877489805221558 -6.862504959106445 -2.5
2.533503293991089 -6.680312156677246 -2.5
3.0628294944763184 -6.454790115356445 -2.5
3.5722973346710205 -6.187397480010986 -2.5
4.058591365814209 -5.87987756729126 -2.5
4.518557071685791 -5.534228324890137 -2.5
4.949225902557373 -5.152699947357178 -2.5
5.347802639007568 -4.737734317779541 -2.5
6.038535118103027 -3.81853985786438 -2.5
6.5728759765625 -2.8004345893859863 -2.5
6.9369797706604 -1.709814429283142 -2.5
7.052065372467041 -1.1460692882537842 -2.5
7.121423244476318 -0.5748974680900574 -2.5
-6.898412704467773 -4.882812390860636e-06 -2.5
-6.80907678604126 -1.1065869331359863 -2.5
-6.697954177856445 -1.6509032249450684 -2.5
-6.543393611907959 -2.184501886367798 -2.5
-6.346396446228027 -2.7039451599121094 -2.5
-6.108237266540527 -3.2058544158935547 -2.5
-5.830463886260986 -3.686967611312866 -2.5
-5.514884948730469 -4.144169807434082 -2.5
-5.163535118103027 -4.57449197769165 -2.5
-4.778698444366455 -4.975151062011719 -2.5
-4.362865924835205 -5.343544960021973 -2.5
-3.4492063522338867 -5.974199295043945 -2.5
-1.9192577600479126 -6.626049518585205 -2.5
-0.8315111994743347 -6.848105430603027 -2.5
0.8315111994743347 -6.848110198974609 -2.5
1.9192577600479126 -6.626054763793945 -2.5
2.4462108612060547 -6.450121879577637 -2.5
2.957292318344116 -6.232378005981445 -2.5
3.4492063522338867 -5.974194049835205 -2.5
3.9187450408935547 -5.677285194396973 -2.5
4.362865924835205 -5.343544960021973 -2.5
4.778693675994873 -4.975151062011719 -2.5
5.514882564544678 -4.144160270690918 -2.5
5.830466270446777 -3.686962842941284 -2.5
6.543393611907959 -2.184506893157959 -2.5
6.697954177856445 -1.6509032249450684 -2.5
6.80907678604126 -1.1065771579742432 -2.5
-6.666840553283691 -4.882812390860636e-06 -2.5
-6.645229339599609 -0.5364599227905273 -2.5
-6.580502986907959 -1.0694384574890137 -2.5
-5.634746074676514 -3.5631980895996094 -2.5
-4.9902024269104 -4.420937538146973 -2.5
-4.618281364440918 -4.808144569396973 -2.5
-4.216411113739014 -5.164174556732178 -2.5
-3.7872021198272705 -5.486703872680664 -2.5
-2.8580174446105957 -6.023159027099609 -2.5
-2.3640966415405273 -6.233608245849609 -2.5
-1.3335424661636353 -6.532109260559082 -2.5
-0.8036010265350342 -6.618232250213623 -2.5
0.26844480633735657 -6.661435604095459 -2.5
0.8035986423492432 -6.618232250213623 -2.5
4.216415882110596 -5.164160251617432 -2.5
4.618278503417969 -4.808144569396973 -2.5
4.9902024269104 -4.420932292938232 -2.5
5.329755783081055 -4.005048751831055 -2.5
5.634746074676514 -3.5631980895996094 -2.5
5.90319299697876 -3.0982322692871094 -2.5
6.58050537109375 -1.0694433450698853 -2.5
-6.448559284210205 0.0 -2.5
-6.365058422088623 -1.0344189405441284 -2.5
-4.826813697814941 -4.276186466217041 -2.5
-3.663200616836548 -5.307065486907959 -2.5
-3.2242796421051025 -5.584619045257568 -2.5
-2.7644457817077637 -5.82595682144165 -2.5
-2.286694288253784 -6.029511451721191 -2.5
-1.794103980064392 -6.19396448135376 -2.5
-0.25965818762779236 -6.443334579467773 -2.5
0.25965574383735657 -6.443329811096191 -2.5
0.7772900462150574 -6.401547908782959 -2.5
1.794103980064392 -6.19396448135376 -2.5
2.286691904067993 -6.029511451721191 -2.5
5.155256271362305 -3.873915910720825 -2.5
5.450263500213623 -3.446537971496582 -2.5
5.709921836853027 -2.9967968463897705 -2.5
5.932548522949219 -2.5276172161102295 -2.5
6.11669921875 -2.042050838470459 -2.5
6.261178970336914 -1.54324209690094 -2.5
6.427653789520264 -0.5188964605331421 -2.5
-6.161586761474609 -1.0013574361801147 -2.5
-6.061025142669678 -1.4939160346984863 -2.5
-5.742900371551514 -2.4468212127685547 -2.5
-5.527390003204346 -2.900995969772339 -2.5
-4.672516822814941 -4.139492034912109 -2.5
-4.324277400970459 -4.502045631408691 -2.5
-3.947988271713257 -4.835410118103027 -2.5
-3.5461010932922363 -5.137416839599609 -2.5
-3.121208429336548 -5.406098365783691 -2.5
-1.7367528676986694 -5.995961666107178 -2.5
-0.75244140625 -6.196904182434082 -2.5
1.7367479801177979 -5.995956897735596 -2.5
2.2135937213897705 -5.836762428283691 -2.5
2.676076650619507 -5.639721393585205 -2.5
3.546098470687866 -5.137412071228027 -2.5
3.947988271713257 -4.835414886474609 -2.5
4.324272155761719 -4.502050876617432 -2.5
4.990456581115723 -3.750077962875366 -2.5
5.527390003204346 -2.900991201400757 -2.5
5.742900371551514 -2.4468164443969727 -2.5
6.222179889678955 -0.5022997856140137 -2.5
-6.047372817993164 -4.882812390860636e-06 -2.5
-6.027763366699219 -0.4866113066673279 -2.5
-5.736152172088623 -1.9150097370147705 -2.5
-5.354687213897705 -2.810356378555298 -2.5
-5.111178874969482 -3.232119083404541 -2.5
-4.834531307220459 -3.6329100131988525 -2.5
-3.8246335983276367 -4.684330940246582 -2.5
-3.435305118560791 -4.976894378662109 -2.5
-3.023688793182373 -5.2371826171875 -2.5
-2.1444287300109863 -5.654389381408691 -2.5
-1.6824877262115479 -5.808613300323486 -2.5
-1.209633708000183 -5.925160884857178 -2.5
-0.2435034066438675 -6.042470455169678 -2.5
1.6824877262115479 -5.808613300323486 -2.5
2.144421339035034 -5.654394626617432 -2.5
2.592463254928589 -5.463505744934082 -2.5
3.023686408996582 -5.2371826171875 -2.5
3.43530011177063 -4.976889610290527 -2.5
3.824636220932007 -4.684326171875 -2.5
5.354684829711914 -2.810351610183716 -2.5
5.563461780548096 -2.370366096496582 -2.5
5.871650218963623 -1.447231411933899 -2.5
6.027763366699219 -0.4866113066673279 -2.5
-5.862519264221191 0.0 -2.5
-5.786596775054932 -0.9404150247573853 -2.5
-5.692158222198486 -1.4030028581619263 -2.5
-5.560815334320068 -1.8564696311950684 -2.5
-5.393395900726318 -2.297910213470459 -2.5
-4.686745643615723 -3.5218701362609863 -2.5
-3.7077221870422363 -4.541142463684082 -2.5
-3.3302905559539795 -4.824755668640137 -2.5
-2.931262254714966 -5.077094554901123 -2.5
-1.6310571432113647 -5.631054401397705 -2.5
-1.1726561784744263 -5.744038105010986 -2.5
1.1726537942886353 -5.744042873382568 -2.5
1.6310546398162842 -5.631054401397705 -2.5
2.5132129192352295 -5.296498775482178 -2.5
2.9312572479248047 -5.077094554901123 -2.5
3.3302905559539795 -4.824760437011719 -2.5
3.7077245712280273 -4.5411376953125 -2.5
4.388156414031982 -3.887568235397339 -2.5
4.686745643615723 -3.521860361099243 -2.5
5.190998554229736 -2.7244482040405273 -2.5
5.560810565948486 -1.8564696311950684 -2.5
5.692165374755859 -1.40298330783844 -2.5
-5.687021255493164 0.0 -2.5
-5.6685791015625 -0.45762205123901367 -2.5
-5.613373756408691 -0.9122655987739563 -2.5
-5.521765232086182 -1.361000895500183 -2.5
-5.39434814453125 -1.8009033203125 -2.5
-4.54644775390625 -3.4164304733276367 -2.5
-4.256796836853027 -3.771196126937866 -2.5
-3.596730947494507 -4.405195236206055 -2.5
-2.843513011932373 -4.925102233886719 -2.5
-2.437978506088257 -5.137944221496582 -2.5
-2.0166478157043457 -5.317455768585205 -2.5
-1.5822339057922363 -5.462494850158691 -2.5
-1.1375536918640137 -5.572089672088623 -2.5
-0.685498058795929 -5.645561218261719 -2.5
1.137551188468933 -5.572094440460205 -2.5
1.5822290182113647 -5.462490081787109 -2.5
3.230595588684082 -4.680331707000732 -2.5
3.596730947494507 -4.405200004577637 -2.5
3.9395360946655273 -4.101493835449219 -2.5
4.546450138092041 -3.416435480117798 -2.5
5.231947898864746 -2.229116201400757 -2.5
5.521767616271973 -1.3609960079193115 -2.5
-5.359748363494873 -1.321069359779358 -2.5
-5.236071586608887 -1.7480566501617432 -2.5
-4.887858867645264 -2.5653467178344727 -2.5
-4.66558837890625 -2.9503369331359863 -2.5
-4.413049221038818 -3.3161914348602295 -2.5
-3.4911985397338867 -4.275942325592041 -2.5
-3.135807991027832 -4.543007850646973 -2.5
-2.760077953338623 -4.780595779418945 -2.5
-1.9574755430221558 -5.161445140838623 -2.5
-1.5358080863952637 -5.302211761474609 -2.5
-1.1041723489761353 -5.40859842300415 -2.5
-0.6653808355331421 -5.479907035827637 -2.5
-0.22227294743061066 -5.515678405761719 -2.5
0.22227294743061066 -5.515678405761719 -2.5
1.1041772365570068 -5.408593654632568 -2.5
1.535805583000183 -5.302211761474609 -2.5
2.366450071334839 -4.987187385559082 -2.5
3.135807991027832 -4.54299783706665 -2.5
4.131894588470459 -3.6605420112609863 -2.5
4.887856483459473 -2.5653369426727295 -2.5
5.078432559967041 -2.1637158393859863 -2.5
5.236071586608887 -1.7480566501617432 -2.5
5.359750747680664 -1.3210644721984863 -2.5
5.502260684967041 -0.4441796839237213 -2.5
-5.361269474029541 -4.882812390860636e-06 -2.5
-5.343883991241455 -0.4314013719558716 -2.5
-5.291840553283691 -0.8600048422813416 -2.5
-5.20547342300415 -1.2830419540405273 -2.5
-4.747165203094482 -2.491503953933716 -2.5
-4.531291484832764 -2.86541485786438 -2.5
-4.012966156005859 -3.55517578125 -2.5
-3.713881731033325 -3.8665623664855957 -2.5
-3.3907055854797363 -4.15286111831665 -2.5
-2.6806347370147705 -4.642997741699219 -2.5
-2.298334836959839 -4.843637466430664 -2.5
-1.491601586341858 -5.149589538574219 -2.5
-0.21587646007537842 -5.356918811798096 -2.5
1.072390079498291 -5.252919673919678 -2.5
1.9011279344558716 -5.012876033782959 -2.5
2.298332452774048 -4.843647480010986 -2.5
2.6806395053863525 -4.642992973327637 -2.5
3.045549154281616 -4.412246227264404 -2.5
3.713876962661743 -3.8665623664855957 -2.5
4.012966156005859 -3.555180549621582 -2.5
4.286025524139404 -3.2207372188568115 -2.5
4.531289100646973 -2.865410089492798 -2.5
4.747165203094482 -2.4914989471435547 -2.5
4.932255744934082 -2.101435422897339 -2.5
5.085358619689941 -1.6977392435073853 -2.5
5.205478191375732 -1.2830419540405273 -2.5
5.343881607055664 -0.431396484375 -2.5
