ply
format ascii 1.0
element vertex 827
property float x
property float y
property float z
end_header
25.91313362121582 11.04052734375 7.547343730926514
24.135116577148438 12.667070388793945 7.303563594818115
-12.230561256408691 21.1839542388916 6.554333209991455
-15.140986442565918 15.763437271118164 5.856603145599365
-19.243026733398438 12.168535232543945 6.100580215454102
-22.634033203125 11.879228591918945 6.84930944442749
24.268320083618164 12.736991882324219 7.019296169281006
-14.02847671508789 17.18177604675293 5.680790424346924
-15.257186889648438 15.884413719177246 5.640726089477539
-16.758216857910156 14.846484184265137 5.733909606933594
-19.243022918701172 12.16854476928711 5.830940246582031
-22.634002685546875 11.879228591918945 6.54658842086792
23.053739547729492 17.32373046875 7.045845985412598
-13.040956497192383 18.89306640625 5.6090617179870605
-17.60311508178711 15.595009803771973 5.746068000793457
-19.172494888305664 14.407187461853027 5.859630584716797
23.82581901550293 12.504735946655273 6.259316444396973
-11.893027305603027 25.06401824951172 6.453461647033691
-16.77181625366211 17.461307525634766 5.6320414543151855
-18.53241729736328 16.41828155517578 5.7594428062438965
-20.250019073486328 15.216903686523438 5.89229154586792
-19.243026733398438 12.168535232543945 5.296204566955566
24.50794792175293 12.862753868103027 6.116034030914307
23.088945388793945 14.600556373596191 6.036416530609131
18.261844635009766 16.178592681884766 5.391088008880615
-11.893027305603027 25.06401824951172 6.1302170753479
-13.8950777053833 20.13045310974121 5.4049553871154785
-15.733309745788574 19.26982307434082 5.497016429901123
-17.4879150390625 18.206865310668945 5.578371047973633
-21.532899856567383 16.180917739868164 5.951748371124268
-19.243022918701172 12.16854476928711 5.030930519104004
-24.794355392456055 13.013056755065918 6.187501907348633
25.397724151611328 10.82094669342041 5.780142784118652
24.374481201171875 12.79271411895752 5.763552188873291
22.846073150634766 14.446982383728027 5.659509181976318
15.603134155273438 16.24458885192871 4.715988636016846
-11.893027305603027 25.06401824951172 5.808548927307129
-16.498516082763672 20.20703125 5.46189546585083
-23.106279373168945 17.363222122192383 6.051513671875
25.245643615722656 10.756142616271973 5.428826808929443
23.007265090942383 14.54891586303711 5.385282039642334
-11.893027305603027 25.06401824951172 5.488377094268799
-13.258524894714355 22.96444320678711 5.245933532714844
-17.330175399780273 21.22563362121582 5.420979976654053
-19.243026733398438 12.168535232543945 4.50417947769165
24.827499389648438 13.030467987060547 5.224886894226074
23.06418800354004 14.584901809692383 5.08504581451416
15.617167472839355 16.259180068969727 4.20100212097168
-11.893027305603027 25.064037322998047 5.1696062088012695
23.41120147705078 14.80434513092041 4.844584941864014
-12.43715763092041 26.21076202392578 5.074141025543213
-14.605365753173828 25.297210693359375 5.108924865722656
-16.7696533203125 24.295028686523438 5.163136005401611
-19.243022918701172 12.16854476928711 3.9820549488067627
24.755361557006836 10.547245979309082 4.399562835693359
24.004140853881836 15.179296493530273 4.643550395965576
-16.437225341796875 14.562118530273438 3.5904529094696045
-19.243026733398438 12.168535232543945 3.7225139141082764
24.904531478881836 10.610800743103027 4.118618488311768
-15.140986442565918 15.763437271118164 3.325406312942505
-17.956981658935547 13.49379825592041 3.4174108505249023
-19.243026733398438 12.168535232543945 3.463926315307617
28.173837661743164 9.405800819396973 4.182797908782959
23.998319625854492 12.5952730178833 3.816706418991089
-13.040946960449219 18.893035888671875 3.232851982116699
-14.02847671508789 17.18177604675293 3.123652219772339
-16.437236785888672 14.562129020690918 3.0924713611602783
-17.956981658935547 13.49379825592041 3.163156747817993
25.832948684692383 11.006366729736328 3.6374523639678955
-12.230551719665527 21.183940887451172 3.1686742305755615
-13.040946960449219 18.893035888671875 2.973804235458374
-14.02847671508789 17.18177604675293 2.873354434967041
-15.140986442565918 15.763437271118164 2.831360340118408
-16.437236785888672 14.562129020690918 2.844672679901123
-12.23055648803711 21.183940887451172 2.8934452533721924
-13.040946960449219 18.893047332763672 2.7155022621154785
-14.02847671508789 17.181766510009766 2.623776912689209
-15.140986442565918 15.763437271118164 2.585430860519409
-17.956972122192383 13.493788719177246 2.6569604873657227
-19.243026733398438 12.16854476928711 2.6931376457214355
-22.634002685546875 11.879218101501465 3.0236637592315674
-11.893022537231445 25.06401252746582 2.9702610969543457
-12.230551719665527 21.18392562866211 2.6189329624176025
-13.040946960449219 18.893047332763672 2.457872152328491
-15.140986442565918 15.763437271118164 2.3401410579681396
-22.634002685546875 11.879218101501465 2.736798048019409
24.350595474243164 15.398398399353027 2.7620794773101807
-11.893017768859863 25.064022064208984 2.659665584564209
-12.230551719665527 21.18392562866211 2.3450751304626465
-13.040946960449219 18.893035888671875 2.200855016708374
-15.492587089538574 16.129491806030273 2.1440961360931396
-11.893017768859863 25.06399917602539 2.3497276306152344
-12.230551719665527 21.18392562866211 2.071798086166382
-13.09169864654541 18.966562271118164 1.951951503753662
-15.110713005065918 18.50728416442871 2.023641586303711
-20.493417739868164 18.155580520629883 2.3189306259155273
-19.243032455444336 12.168535232543945 1.9283727407455444
-11.893017768859863 25.06399917602539 2.040372371673584
-12.38720703125 21.45525360107422 1.8220763206481934
-16.808706283569336 20.586942672729492 1.9546765089035034
-19.78834342956543 20.601863861083984 2.1009347438812256
-19.243026733398438 12.168535232543945 1.6744829416275024
-11.893012046813965 25.063993453979492 1.7315202951431274
-13.719975471496582 23.763681411743164 1.712634801864624
-18.58797264099121 22.76616096496582 1.834387183189392
-19.243017196655273 12.16854476928711 1.167913794517517
28.4268741607666 9.490283012390137 1.2045165300369263
-19.243026733398438 12.168535232543945 0.9150729179382324
-19.243026733398438 12.168535232543945 0.6624670028686523
28.42600440979004 9.489999771118164 0.5397055149078369
28.38591766357422 9.4766206741333 -0.1243632510304451
28.38591766357422 9.4766206741333 -0.4560179114341736
-21.503734588623047 19.0506534576416 -0.7562652230262756
28.39011573791504 9.478007316589355 -1.1199114322662354
-15.336064338684082 15.966523170471191 -0.8283727765083313
-16.437225341796875 14.562118530273438 -0.8216816782951355
-17.95697784423828 13.493788719177246 -0.8404632210731506
-19.243026733398438 12.168535232543945 -0.851912796497345
-12.123480796813965 25.549686431884766 -1.372133493423462
-15.140975952148438 15.763427734375 -1.0604952573776245
-19.243026733398438 12.16854476928711 -1.1046608686447144
-15.140975952148438 15.763427734375 -1.3034145832061768
-16.437225341796875 14.562118530273438 -1.309543251991272
-13.040946960449219 18.893041610717773 -1.624467134475708
-15.140975952148438 15.763427734375 -1.5466556549072266
-16.437225341796875 14.562118530273438 -1.5539281368255615
16.281513214111328 23.587846755981445 -2.347599983215332
14.330668449401855 24.821430206298828 -2.347599983215332
12.286874771118164 25.894100189208984 -2.347599983215332
3.454765558242798 28.45237159729004 -2.347599983215332
1.154091715812683 28.63809585571289 -2.347599983215332
-5.7330322265625 28.082138061523438 -2.347599983215332
-7.974091529846191 27.52971649169922 -2.347599983215332
-13.980688095092773 24.215253829956055 -2.290266275405884
-16.437225341796875 14.562118530273438 -1.7986990213394165
-19.243017196655273 12.168535232543945 -1.8648651838302612
-22.63399314880371 11.879218101501465 -2.0937352180480957
-27.186357498168945 9.076132774353027 -2.347599983215332
-23.580535888671875 1.9036132097244263 -1.9377226829528809
26.773056030273438 2.1613378524780273 -2.5
16.229705810546875 4.00027322769165 -1.5557801723480225
22.701932907104492 14.355839729309082 -2.5
21.473154067993164 16.136024475097656 -2.5
15.468710899353027 16.104639053344727 -2.0783822536468506
15.952011108398438 19.537675857543945 -2.347599983215332
14.32815933227539 20.757919311523438 -2.347599983215332
10.812797546386719 22.787519454956055 -2.347599983215332
7.017475605010986 24.226932525634766 -2.347599983215332
5.045214653015137 24.713016510009766 -2.347599983215332
1.0156298875808716 25.202308654785156 -2.347599983215332
-10.81283187866211 22.787504196166992 -2.347599983215332
-14.02847671508789 17.181766510009766 -2.0645198822021484
-15.140975952148438 15.763427734375 -2.03434681892395
-16.437236785888672 14.562129020690918 -2.043911933898926
-23.20442771911621 9.886465072631836 -2.347599983215332
-23.924707412719727 7.987226486206055 -2.347599983215332
-26.512319564819336 4.308671951293945 -2.5
23.89981460571289 1.9293944835662842 -2.5
16.100507736206055 3.9684178829193115 -1.7289429903030396
17.287206649780273 5.771337985992432 -1.9002279043197632
21.23111343383789 11.142949104309082 -2.5
20.265625 12.815204620361328 -2.5
17.947490692138672 15.900087356567383 -2.5
15.42733383178711 16.061552047729492 -2.3220129013061523
14.240097045898438 17.440956115722656 -2.347599983215332
12.790488243103027 18.530214309692383 -2.347599983215332
11.25795841217041 19.499340057373047 -2.347599983215332
6.264316082000732 21.626928329467773 -2.347599983215332
-2.7140233516693115 22.35171890258789 -2.347599983215332
-7.984257698059082 21.05274772644043 -2.347599983215332
-11.257978439331055 19.499324798583984 -2.347599983215332
-14.02847671508789 17.181766510009766 -2.312713861465454
-19.03023338317871 12.033984184265137 -2.347599983215332
-19.936845779418945 10.463632583618164 -2.347599983215332
-20.714168548583984 8.825469017028809 -2.347599983215332
-23.58049774169922 1.90359365940094 -2.4665985107421875
21.578691482543945 1.7420116662979126 -2.5
16.066102981567383 3.9599413871765137 -1.9108279943466187
17.304941177368164 5.777235984802246 -2.1067848205566406
17.307050704956055 13.005399703979492 -2.5
11.548291206359863 16.7305850982666 -2.347599983215332
10.164579391479492 17.6055850982666 -2.347599983215332
7.208818435668945 19.00810432434082 -2.347599983215332
5.655966758728027 19.52654266357422 -2.347599983215332
4.066391468048096 19.918338775634766 -2.347599983215332
2.450429677963257 20.18096160888672 -2.347599983215332
-2.450434446334839 20.180965423583984 -2.347599983215332
-7.208837509155273 19.008113861083984 -2.347599983215332
-8.714975357055664 18.366392135620117 -2.347599983215332
-12.857050895690918 15.747098922729492 -2.347599983215332
-15.2166109085083 13.480722427368164 -2.347599983215332
-16.252012252807617 12.212597846984863 -2.347599983215332
-17.18202018737793 10.865234375 -2.347599983215332
-18.000595092773438 9.44742202758789 -2.347599983215332
-19.282962799072266 6.437597274780273 -2.347599983215332
-21.36854362487793 3.472734212875366 -2.5
-21.578691482543945 1.7420018911361694 -2.5
16.08833885192871 3.9654197692871094 -2.099787712097168
18.712705612182617 6.247206687927246 -2.5
18.149335861206055 7.732705116271973 -2.5
17.46826171875 9.16805648803711 -2.5
16.67389678955078 10.5439453125 -2.5
14.809969902038574 11.128954887390137 -2.347599983215332
12.832968711853027 13.360546112060547 -2.347599983215332
11.716259956359863 14.349833488464355 -2.347599983215332
7.94167947769165 16.736757278442383 -2.347599983215332
6.569194316864014 17.321514129638672 -2.347599983215332
5.154096603393555 17.793949127197266 -2.347599983215332
3.705561399459839 18.150970458984375 -2.347599983215332
0.7459521293640137 18.510351181030273 -2.347599983215332
-3.705561399459839 18.150981903076172 -2.347599983215332
-6.569174766540527 17.321533203125 -2.347599983215332
-7.941655158996582 16.736757278442383 -2.347599983215332
-9.262675285339355 16.043426513671875 -2.347599983215332
-11.716254234313965 14.34984302520752 -2.347599983215332
-12.83297348022461 13.360546112060547 -2.347599983215332
-14.809975624084473 11.1289644241333 -2.347599983215332
-17.04296875 7.261327743530273 -2.347599983215332
-17.571990966796875 5.866376876831055 -2.347599983215332
-17.987051010131836 4.433398246765137 -2.347599983215332
-19.664012908935547 1.58743155002594 -2.5
18.11605453491211 0.0 -2.5
18.05730438232422 1.4577441215515137 -2.5
17.881454467773438 2.9060351848602295 -2.5
16.111181259155273 3.9710447788238525 -2.289870023727417
16.040956497192383 8.418964385986328 -2.5
14.378114700317383 9.092167854309082 -2.347599983215332
13.599872589111328 10.219648361206055 -2.347599983215332
12.7334566116333 11.280839920043945 -2.347599983215332
10.758964538574219 13.177352905273438 -2.347599983215332
8.505868911743164 14.73256778717041 -2.347599983215332
7.292860984802246 15.36922836303711 -2.347599983215332
6.032739162445068 15.90623950958252 -2.347599983215332
4.732954025268555 16.34004783630371 -2.347599983215332
3.4027440547943115 16.66790008544922 -2.347599983215332
0.684985339641571 16.997909545898438 -2.347599983215332
-0.6850048899650574 16.997909545898438 -2.347599983215332
-2.050527334213257 16.887676239013672 -2.347599983215332
-3.4027976989746094 16.667909622192383 -2.347599983215332
-4.732944011688232 16.34004783630371 -2.347599983215332
-7.292797565460205 15.36922836303711 -2.347599983215332
-9.663564682006836 14.000361442565918 -2.347599983215332
-10.758959770202637 13.177352905273438 -2.347599983215332
-11.784419059753418 12.268877029418945 -2.347599983215332
-12.733437538146973 11.280858993530273 -2.347599983215332
-15.063115119934082 7.905722618103027 -2.347599983215332
-16.136220932006836 5.387050628662109 -2.347599983215332
-17.509374618530273 4.315663814544678 -2.488591194152832
16.743749618530273 0.0 -2.5
16.689462661743164 1.3473241329193115 -2.5
16.526933670043945 2.6858885288238525 -2.5
16.257205963134766 4.007040977478027 -2.5
13.28896427154541 8.403456687927246 -2.347599983215332
12.569677352905273 9.445497512817383 -2.347599983215332
11.768877029418945 10.426318168640137 -2.347599983215332
8.931718826293945 12.939804077148438 -2.347599983215332
6.740361213684082 14.205009460449219 -2.347599983215332
4.374330997467041 15.102274894714355 -2.347599983215332
3.1450536251068115 15.405312538146973 -2.347599983215332
-0.6331347227096558 15.71029281616211 -2.347599983215332
-1.8952147960662842 15.608417510986328 -2.347599983215332
-3.145029306411743 15.405312538146973 -2.347599983215332
-5.575498104095459 14.701308250427246 -2.347599983215332
-7.861533164978027 13.616581916809082 -2.347599983215332
-9.943974494934082 12.179160118103027 -2.347599983215332
-10.89174747467041 11.339521408081055 -2.347599983215332
-11.768872261047363 10.426318168640137 -2.347599983215332
-12.56969165802002 9.445508003234863 -2.347599983215332
-13.28897476196289 8.403417587280273 -2.347599983215332
-14.464892387390137 6.162909984588623 -2.347599983215332
-14.913896560668945 4.978984355926514 -2.347599983215332
-16.235185623168945 4.001611232757568 -2.496609687805176
-16.526933670043945 2.6858885288238525 -2.5
15.561083793640137 9.765624781721272e-06 -2.5
15.108915328979492 3.724013566970825 -2.5
14.76025390625 4.927695274353027 -2.5
12.93871021270752 6.790751934051514 -2.347599983215332
12.35033130645752 7.809873104095459 -2.347599983215332
10.122431755065918 10.538554191589355 -2.347599983215332
7.306249618530273 12.65478515625 -2.347599983215332
5.181660175323486 13.662919998168945 -2.347599983215332
2.923046827316284 14.317187309265137 -2.347599983215332
1.7614208459854126 14.50594711303711 -2.347599983215332
0.5884814262390137 14.600634574890137 -2.347599983215332
-0.588330090045929 14.600634574890137 -2.347599983215332
-2.922929525375366 14.317177772521973 -2.347599983215332
-4.065380573272705 14.03555679321289 -2.347599983215332
-10.122343063354492 10.538564682006836 -2.347599983215332
-11.68185043334961 8.778329849243164 -2.347599983215332
-13.860478401184082 4.627295017242432 -2.347599983215332
-15.108915328979492 3.724003791809082 -2.5
-15.359580039978027 2.496161937713623 -2.5
14.531044960021973 0.0 -2.5
14.342880249023438 2.330947160720825 -2.5
13.368270874023438 5.695683479309082 -2.5
9.452383041381836 9.84097671508789 -2.347599983215332
8.629862785339355 10.569677352905273 -2.347599983215332
6.822607040405273 11.817118644714355 -2.347599983215332
5.849599361419678 12.327802658081055 -2.347599983215332
4.838671684265137 12.758515357971191 -2.347599983215332
3.7963476181030273 13.1065034866333 -2.347599983215332
1.6447558403015137 13.545751571655273 -2.347599983215332
0.5494384765625 13.63418960571289 -2.347599983215332
-1.6447656154632568 13.545761108398438 -2.347599983215332
-5.849609375 12.327812194824219 -2.347599983215332
-6.82262659072876 11.817118644714355 -2.347599983215332
-7.751386642456055 11.229804039001465 -2.347599983215332
-10.213613510131836 9.04848575592041 -2.347599983215332
-11.532821655273438 7.292929649353027 -2.347599983215332
-14.483930587768555 1.1692577600479126 -2.5
13.44921875 2.1857128143310547 -2.5
13.22972583770752 3.2608494758605957 -2.5
12.924433708190918 4.314804553985596 -2.5
12.535341262817383 5.340810298919678 -2.5
6.578876972198486 4.943701267242432 -1.5098940134048462
5.48513650894165 11.559697151184082 -2.347599983215332
3.559814453125 12.28988265991211 -2.347599983215332
2.5593504905700684 12.53646469116211 -2.347599983215332
1.542275309562683 12.701766967773438 -2.347599983215332
0.5152001976966858 12.784687042236328 -2.347599983215332
-1.5422850847244263 12.701766967773438 -2.347599983215332
-4.537187576293945 11.963574409484863 -2.347599983215332
-7.268422603607178 10.53011703491211 -2.347599983215332
-9.577226638793945 8.484697341918945 -2.347599983215332
-10.228910446166992 7.686532974243164 -2.347599983215332
-7.637631893157959 4.829736232757568 -1.658005952835083
-11.329463005065918 5.946152210235596 -2.347599983215332
-13.449228286743164 2.1857128143310547 -2.5
12.823436737060547 0.0 -2.5
12.781865119934082 1.0318652391433716 -2.5
12.65738296508789 2.0570311546325684 -2.5
12.450819969177246 3.0688672065734863 -2.5
12.163505554199219 4.060771465301514 -2.5
11.79556655883789 5.025615215301514 -2.4996306896209717
10.6624116897583 5.596074104309082 -2.347599983215332
9.013359069824219 7.985146522521973 -2.347599983215332
8.341591835021973 8.684550285339355 -2.347599983215332
6.840478420257568 9.91015625 -2.347599983215332
6.02086877822876 10.428446769714355 -2.347599983215332
5.162207126617432 10.879111289978027 -2.347599983215332
4.270058631896973 11.259218215942383 -2.347599983215332
3.350224494934082 11.56630802154541 -2.347599983215332
1.4514696598052979 11.953954696655273 -2.347599983215332
0.4848681390285492 12.03197193145752 -2.347599983215332
-0.4848730266094208 12.031962394714355 -2.347599983215332
-1.4514843225479126 11.953925132751465 -2.347599983215332
-2.4086620807647705 11.798378944396973 -2.347599983215332
-3.350224494934082 11.566298484802246 -2.347599983215332
-4.270058631896973 11.259218215942383 -2.347599983215332
-6.840487957000732 9.91015625 -2.347599983215332
-9.013359069824219 7.985175609588623 -2.347599983215332
-9.62667465209961 7.233983993530273 -2.347599983215332
-7.607411861419678 4.810644626617432 -1.7547597885131836
-11.07814884185791 4.719951152801514 -2.347599983215332
-12.450819969177246 3.06884765625 -2.5
-12.781865119934082 1.0318750143051147 -2.5
12.10750961303711 0.0 -2.5
12.068242073059082 0.9742382764816284 -2.5
11.950712203979492 1.942177653312683 -2.5
11.755682945251465 2.897509813308716 -2.5
11.484414100646973 3.8340721130371094 -2.5
11.132665634155273 4.743173599243164 -2.498654365539551
9.609335899353027 6.076581954956055 -2.347599983215332
7.19054651260376 8.806825637817383 -2.347599983215332
3.1631834506988525 10.92055606842041 -2.347599983215332
2.274179697036743 11.139667510986328 -2.347599983215332
-1.3704442977905273 11.286542892456055 -2.347599983215332
-3.1631884574890137 10.92055606842041 -2.347599983215332
-4.031669616699219 10.630615234375 -2.347599983215332
-4.873999118804932 10.271728515625 -2.347599983215332
-6.458588600158691 9.356864929199219 -2.347599983215332
-9.089223861694336 6.83010721206665 -2.347599983215332
-7.598271369934082 4.804853439331055 -1.8562875986099243
-11.4818696975708 3.833203077316284 -2.499444007873535
-11.75570297241211 2.897509813308716 -2.5
-12.068251609802246 0.9742480516433716 -2.5
11.131376266479492 2.7436327934265137 -2.5
10.87451171875 3.630439281463623 -2.5
9.532499313354492 5.003036975860596 -2.347599983215332
8.058183670043945 7.138974666595459 -2.347599983215332
6.115576267242432 8.85995101928711 -2.347599983215332
5.3828125 9.323320388793945 -2.347599983215332
2.1534080505371094 10.548075675964355 -2.347599983215332
-2.1534178256988525 10.548066139221191 -2.347599983215332
-3.8175487518310547 10.066044807434082 -2.347599983215332
-4.615151405334473 9.72622013092041 -2.347599983215332
-5.382822036743164 9.323320388793945 -2.347599983215332
-7.457626819610596 7.764199256896973 -2.347599983215332
-8.606508255004883 6.467382431030273 -2.347599983215332
-9.532509803771973 5.003046989440918 -2.347599983215332
-11.316049575805664 1.8390429019927979 -2.5
-11.427343368530273 0.9225097298622131 -2.5
10.88370132446289 9.765624781721272e-06 -2.5
10.848398208618164 0.8757714629173279 -2.5
10.742753982543945 1.7458593845367432 -2.5
10.567431449890137 2.6046483516693115 -2.5
8.638036727905273 5.462363243103027 -2.347599983215332
6.46373987197876 7.916650295257568 -2.347599983215332
5.110116958618164 8.85097599029541 -2.347599983215332
2.843447208404541 9.8167085647583 -2.347599983215332
1.2319238185882568 10.145712852478027 -2.347599983215332
0.4115234315395355 10.211953163146973 -2.347599983215332
-0.4115332067012787 10.211942672729492 -2.347599983215332
-2.044316291809082 10.013700485229492 -2.347599983215332
-3.624140501022339 9.556093215942383 -2.347599983215332
-4.381337642669678 9.233476638793945 -2.347599983215332
-5.805761814117432 8.411084175109863 -2.347599983215332
-6.463730335235596 7.916640281677246 -2.347599983215332
-7.649955749511719 6.777265548706055 -2.347599983215332
-8.17049789428711 6.139726638793945 -2.347599983215332
-7.584692001342773 4.796259880065918 -2.061326265335083
-9.049565315246582 4.749579906463623 -2.347599983215332
-9.963994026184082 4.245254039764404 -2.4878180027008057
-10.323588371276855 3.446523427963257 -2.5
-10.84841251373291 0.8757714629173279 -2.5
10.222246170043945 1.6612792015075684 -2.5
9.527636528015137 4.059335708618164 -2.5
8.219501495361328 5.197704792022705 -2.347599983215332
6.736767292022705 7.013720512390137 -2.347599983215332
6.150546550750732 7.533056259155273 -2.347599983215332
4.169033050537109 8.786093711853027 -2.347599983215332
3.44854474067688 9.093066215515137 -2.347599983215332
2.7056639194488525 9.341073989868164 -2.347599983215332
1.172216773033142 9.65414047241211 -2.347599983215332
0.39158201217651367 9.717167854309082 -2.347599983215332
-0.3916015625 9.717147827148438 -2.347599983215332
-1.9452733993530273 9.528495788574219 -2.347599983215332
-2.705678701400757 9.341064453125 -2.347599983215332
-3.448549747467041 9.093056678771973 -2.347599983215332
-4.862519264221191 8.422128677368164 -2.347599983215332
-6.150551795959473 7.533066272735596 -2.347599983215332
-7.578788757324219 4.792539119720459 -2.164602041244507
-10.322772979736328 0.8333300352096558 -2.5
9.588339805603027 2.3633203506469727 -2.5
8.21109390258789 4.309511661529541 -2.347599983215332
6.578866958618164 4.943710803985596 -2.083310842514038
6.941162109375 6.149325847625732 -2.347599983215332
5.864853382110596 7.183154106140137 -2.347599983215332
5.267841815948486 7.631786823272705 -2.347599983215332
4.636650085449219 8.030927658081055 -2.347599983215332
3.2883496284484863 8.670683860778809 -2.347599983215332
1.8548924922943115 9.085898399353027 -2.347599983215332
1.117773413658142 9.205693244934082 -2.347599983215332
-2.580009698867798 8.907187461853027 -2.347599983215332
-4.636655330657959 8.03091812133789 -2.347599983215332
-5.267846584320068 7.631757736206055 -2.347599983215332
-5.864858150482178 7.183144569396973 -2.347599983215332
-6.941171646118164 6.149335861206055 -2.347599983215332
-9.080121994018555 3.8686816692352295 -2.4986379146575928
-9.36708927154541 3.127197265625 -2.5
-9.747421264648438 1.5841211080551147 -2.5
-9.843280792236328 0.794628918170929 -2.5
9.434598922729492 0.0 -2.5
9.404004096984863 0.7591601610183716 -2.5
9.160439491271973 2.2578418254852295 -2.5
8.679638862609863 3.6980466842651367 -2.5
8.145712852478027 4.275205135345459 -2.4376869201660156
7.487929344177246 4.735087871551514 -2.347599983215332
6.137167930603027 6.389472484588623 -2.347599983215332
5.603125095367432 6.862597465515137 -2.347599983215332
5.032753944396973 7.291201114654541 -2.347599983215332
4.429736137390137 7.672529220581055 -2.347599983215332
2.4648633003234863 8.50967788696289 -2.347599983215332
1.7721190452575684 8.680419921875 -2.347599983215332
-0.35673826932907104 8.852285385131836 -2.347599983215332
-2.4648633003234863 8.509696960449219 -2.347599983215332
-3.1416211128234863 8.2837495803833 -2.347599983215332
-3.797988176345825 8.004091262817383 -2.347599983215332
-4.429731369018555 7.672538757324219 -2.347599983215332
-5.603134632110596 6.862587928771973 -2.347599983215332
-7.0826416015625 5.322275161743164 -2.347599983215332
-7.487939357757568 4.735077857971191 -2.347599983215332
8.999990463256836 0.7265527248382568 -2.5
8.7669038772583 2.1608593463897705 -2.5
8.56459903717041 2.8592870235443115 -2.5
7.166249752044678 4.531660079956055 -2.347599983215332
6.578866958618164 4.943710803985596 -2.278513193130493
6.346513748168945 5.622529029846191 -2.347599983215332
4.239423751831055 7.342909812927246 -2.347599983215332
3.006640672683716 7.927870750427246 -2.347599983215332
2.358964681625366 8.144072532653809 -2.347599983215332
-1.6960009336471558 8.307509422302246 -2.347599983215332
-2.3589696884155273 8.144091606140137 -2.347599983215332
-3.006640672683716 7.927870750427246 -2.347599983215332
-3.63482403755188 7.660214900970459 -2.347599983215332
-4.239433288574219 7.342919826507568 -2.347599983215332
-5.362411975860596 6.567763328552246 -2.347599983215332
-5.873510837554932 6.114970684051514 -2.347599983215332
-7.972997665405273 4.184560298919678 -2.4931089878082275
-9.0 0.7265625 -2.5
8.655146598815918 9.765624781721272e-06 -2.5
8.40365219116211 2.0713086128234863 -2.5
8.209726333618164 2.7408103942871094 -2.5
7.962558269500732 3.392529249191284 -2.5
6.869306564331055 4.343905925750732 -2.347599983215332
5.630136489868164 5.86160135269165 -2.347599983215332
5.140224456787109 6.295634746551514 -2.347599983215332
3.484208822250366 7.342832088470459 -2.347599983215332
2.882070302963257 7.599384784698486 -2.347599983215332
2.261220693588257 7.806640625 -2.347599983215332
1.6257128715515137 7.963290691375732 -2.347599983215332
0.32725584506988525 8.120956420898438 -2.347599983215332
-0.9796777367591858 8.068281173706055 -2.347599983215332
-1.6257226467132568 7.963281154632568 -2.347599983215332
-3.4842138290405273 7.342832088470459 -2.347599983215332
-4.61697244644165 6.688827991485596 -2.347599983215332
-5.140219688415527 6.295624732971191 -2.347599983215332
-6.083544731140137 5.389550685882568 -2.347599983215332
-6.497499942779541 4.882558345794678 -2.347599983215332
-6.869311332702637 4.343896389007568 -2.347599983215332
-7.65123987197876 4.015673637390137 -2.495915174484253
-7.962568283081055 3.3925390243530273 -2.5
-8.403661727905273 2.0713086128234863 -2.5
-8.627089500427246 0.6964550614356995 -2.5
8.30868148803711 9.765624781721272e-06 -2.5
8.281728744506836 0.6685742139816284 -2.5
7.881083965301514 2.631093740463257 -2.5
7.643818378448486 3.256708860397339 -2.5
7.351992130279541 3.858632802963257 -2.49830961227417
4.432148456573486 6.421073913574219 -2.347599983215332
3.3447265625 7.048876762390137 -2.347599983215332
2.7666990756988525 7.295175552368164 -2.347599983215332
2.170703172683716 7.494130611419678 -2.347599983215332
1.560644507408142 7.644511699676514 -2.347599983215332
-0.9404589533805847 7.745302677154541 -2.347599983215332
-2.170712947845459 7.494130611419678 -2.347599983215332
-5.404770374298096 5.626972675323486 -2.347599983215332
-5.840019226074219 5.173808574676514 -2.347599983215332
-6.237402439117432 4.687089920043945 -2.347599983215332
-6.699526309967041 4.236523151397705 -2.385053873062134
-8.20108413696289 1.3328124284744263 -2.5
-8.281728744506836 0.6685839891433716 -2.5
7.575780868530273 2.5291600227355957 -2.5
6.649150371551514 4.204677581787109 -2.462512493133545
5.995771408081055 4.505527019500732 -2.347599983215332
5.613789081573486 4.973388671875 -2.347599983215332
5.195390701293945 5.408974647521973 -2.347599983215332
4.260458946228027 6.172333717346191 -2.347599983215332
2.6595115661621094 7.012578010559082 -2.347599983215332
2.086611270904541 7.203847408294678 -2.347599983215332
0.9040234088897705 7.445253849029541 -2.347599983215332
0.30199217796325684 7.493857383728027 -2.347599983215332
-0.9040234088897705 7.445263385772705 -2.347599983215332
-1.5001952648162842 7.348378658294678 -2.347599983215332
-2.086611270904541 7.203837871551514 -2.347599983215332
-2.6595213413238525 7.01256799697876 -2.347599983215332
-3.215165853500366 6.775820255279541 -2.347599983215332
-4.743300437927246 5.809492111206055 -2.347599983215332
-5.195395469665527 5.408974647521973 -2.347599983215332
-5.613779067993164 4.973388671875 -2.347599983215332
-7.071977615356445 3.7116503715515137 -2.5
-7.347709655761719 3.130566358566284 -2.5
-7.575786113739014 2.529179573059082 -2.5
7.662040710449219 0.6185644268989563 -2.5
7.463593482971191 1.8396093845367432 -2.5
7.291367053985596 2.4342284202575684 -2.5
6.806464672088623 3.5723142623901367 -2.5
6.102382659912109 3.8589062690734863 -2.3481690883636475
5.000331878662109 5.205898284912109 -2.347599983215332
4.56521463394165 5.591386795043945 -2.347599983215332
2.5596580505371094 6.74929666519165 -2.347599983215332
2.0082714557647705 6.933369159698486 -2.347599983215332
0.8700780868530273 7.165741920471191 -2.347599983215332
-0.29066404700279236 7.21251916885376 -2.347599983215332
-0.8700878620147705 7.165741920471191 -2.347599983215332
-2.0082812309265137 6.93337869644165 -2.347599983215332
-2.5596678256988525 6.74929666519165 -2.347599983215332
-3.0944628715515137 6.521445274353027 -2.347599983215332
-3.60918927192688 6.251298904418945 -2.347599983215332
-4.100502967834473 5.940595626831055 -2.347599983215332
-5.403027057647705 4.786669731140137 -2.347599983215332
-5.770673751831055 4.336396217346191 -2.347599983215332
-7.071845531463623 3.0130369663238525 -2.5
-7.29137659072876 2.434218645095825 -2.5
-7.463593482971191 1.83962881565094 -2.5
-7.587421894073486 1.233095645904541 -2.5
7.406874656677246 0.0 -2.5
7.382861137390137 0.5960156321525574 -2.5
6.814169883728027 2.9032421112060547 -2.5
6.558456897735596 3.442138671875 -2.5
5.561757564544678 4.179384708404541 -2.3481690883636475
4.81814432144165 5.016220569610596 -2.347599983215332
3.477675676345825 6.023505687713623 -2.347599983215332
2.981699228286743 6.283827781677246 -2.347599983215332
1.3912500143051147 6.814785003662109 -2.347599983215332
0.2800585925579071 6.94970703125 -2.347599983215332
-1.391259789466858 6.814794540405273 -2.347599983215332
-1.9351073503494263 6.680742263793945 -2.347599983215332
-2.9817090034484863 6.283818244934082 -2.347599983215332
-3.951103448867798 5.724140644073486 -2.347599983215332
-6.252158164978027 3.953623056411743 -2.496781349182129
-6.558456897735596 3.442148447036743 -2.5
-7.191640377044678 1.7725878953933716 -2.5
-7.382861137390137 0.5960156321525574 -2.5
7.121425628662109 0.574902355670929 -2.5
6.936972618103027 1.709804654121399 -2.5
6.776894569396973 2.2624707221984863 -2.5
6.57287073135376 2.800429582595825 -2.5
6.326220512390137 3.320253849029541 -2.5
5.671806335449219 3.5866308212280273 -2.3481690883636475
5.021796703338623 4.448925495147705 -2.347599983215332
4.243105411529541 5.196865081787109 -2.347599983215332
3.8111815452575684 5.521454811096191 -2.347599983215332
2.3790624141693115 6.27306604385376 -2.347599983215332
1.8665820360183716 6.444179534912109 -2.347599983215332
-1.3419921398162842 6.573486328125 -2.347599983215332
-1.8665820360183716 6.444169998168945 -2.347599983215332
-4.243105411529541 5.196884632110596 -2.347599983215332
-5.609677791595459 4.215400218963623 -2.4553475379943848
-6.326220512390137 3.320253849029541 -2.5
-6.57287073135376 2.8004393577575684 -2.5
-6.776904106140137 2.262460947036743 -2.5
-6.936982154846191 1.709814429283142 -2.5
-7.052070140838623 1.1460741758346558 -2.5
-7.121435165405273 0.5749120712280273 -2.5
6.876035213470459 0.5550976395606995 -2.5
6.809072017669678 1.1065722703933716 -2.5
6.346396446228027 2.7039451599121094 -2.5
6.108242034912109 3.2058591842651367 -2.5
4.848769187927246 4.295644283294678 -2.347599983215332
4.096904277801514 5.017802715301514 -2.347599983215332
3.6798534393310547 5.331191062927246 -2.347599983215332
3.238945245742798 5.610009670257568 -2.347599983215332
1.295751929283142 6.346972465515137 -2.347599983215332
0.2608398497104645 6.472636699676514 -2.347599983215332
-0.7808300852775574 6.430654048919678 -2.347599983215332
-1.295751929283142 6.346972465515137 -2.347599983215332
-1.8022656440734863 6.222118854522705 -2.347599983215332
-2.2970898151397705 6.056943416595459 -2.347599983215332
-3.6798534393310547 5.331201076507568 -2.347599983215332
-4.096904277801514 5.017812252044678 -2.347599983215332
-4.848769187927246 4.295634746551514 -2.347599983215332
-5.500839710235596 4.133623123168945 -2.493635892868042
-5.830468654632568 3.6869726181030273 -2.5
-6.346396446228027 2.703935384750366 -2.5
-6.543398380279541 2.184511661529541 -2.5
-6.697958946228027 1.6508984565734863 -2.5
-6.809072017669678 1.106601595878601 -2.5
6.666835784912109 0.0 -2.5
6.645224571228027 0.5364550948143005 -2.5
6.133359432220459 2.613173723220825 -2.5
5.542040824890137 3.504570245742798 -2.45886492729187
4.721405982971191 4.182802677154541 -2.3653366565704346
3.9593846797943115 4.849365234375 -2.347599983215332
3.556328058242798 5.152235984802246 -2.347599983215332
2.6837987899780273 5.655995845794678 -2.347599983215332
1.7417577505111694 6.013261795043945 -2.347599983215332
0.7546191215515137 6.214785099029541 -2.347599983215332
0.2520800828933716 6.255351543426514 -2.347599983215332
-0.7546191215515137 6.214785099029541 -2.347599983215332
-1.2522460222244263 6.133925437927246 -2.347599983215332
-1.7417675256729126 6.013261795043945 -2.347599983215332
-2.219980478286743 5.853613376617432 -2.347599983215332
-2.6837987899780273 5.655995845794678 -2.347599983215332
-3.9593749046325684 4.849374771118164 -2.347599983215332
-4.336757659912109 4.515038967132568 -2.347599983215332
-4.767646312713623 4.223759651184082 -2.3885045051574707
-5.321025371551514 3.998486280441284 -2.495903491973877
-5.634746074676514 3.5632128715515137 -2.5
-5.903203010559082 3.0982322692871094 -2.5
-6.323750019073486 2.1111814975738525 -2.5
-6.473124980926514 1.5954785346984863 -2.5
-6.580507755279541 1.0694531202316284 -2.5
6.448564529418945 0.0 -2.5
6.365058422088623 1.0344140529632568 -2.5
6.261181354522705 1.54324209690094 -2.5
5.709921836853027 2.9967968463897705 -2.5
5.068076133728027 3.808417797088623 -2.457719564437866
4.194765567779541 4.36721658706665 -2.347599983215332
3.8297460079193115 4.690585613250732 -2.347599983215332
1.6847362518310547 5.816367149353027 -2.347599983215332
-0.2438378781080246 6.050546646118164 -2.347599983215332
-2.147294759750366 5.661962985992432 -2.347599983215332
-2.5959277153015137 5.470810413360596 -2.347599983215332
-3.0277342796325684 5.244179725646973 -2.347599983215332
-3.439892530441284 4.983534812927246 -2.347599983215332
-3.8297460079193115 4.690585613250732 -2.347599983215332
-4.194765567779541 4.36721658706665 -2.347599983215332
-5.450263500213623 3.446533203125 -2.5
-5.709931373596191 2.9967968463897705 -2.5
-6.11669921875 2.042050838470459 -2.5
-6.427656173706055 0.5188964605331421 -2.5
6.242421627044678 9.765624781721272e-06 -2.5
6.061025142669678 1.4939160346984863 -2.5
5.921152114868164 1.9767773151397705 -2.5
5.742900371551514 2.4468164443969727 -2.5
5.527382850646973 2.900995969772339 -2.5
4.932207107543945 3.706308603286743 -2.470813274383545
3.7073240280151367 4.540654182434082 -2.347599983215332
1.6308789253234863 5.630449295043945 -2.347599983215332
1.1725292205810547 5.743417739868164 -2.347599983215332
0.7065722346305847 5.819150447845459 -2.347599983215332
0.23603515326976776 5.857128620147705 -2.347599983215332
-0.7065820097923279 5.819150447845459 -2.347599983215332
-1.63088858127594 5.630449295043945 -2.347599983215332
-2.9309473037719727 5.076542854309082 -2.347599983215332
-3.3299314975738525 4.82424783706665 -2.347599983215332
-3.7073240280151367 4.540644645690918 -2.347599983215332
-4.065683364868164 4.232831954956055 -2.3504981994628906
-4.660664081573486 4.128984451293945 -2.4936556816101074
-4.990458965301514 3.7500877380371094 -2.5
-5.527402400970459 2.900995969772339 -2.5
-6.06103515625 1.4939160346984863 -2.5
-6.161581993103027 1.001367211341858 -2.5
-6.222177505493164 0.5023242235183716 -2.5
6.047372817993164 9.765624781721272e-06 -2.5
6.027753829956055 0.4866113066673279 -2.5
5.736142635345459 1.9150195121765137 -2.5
5.563457012176514 2.3703808784484863 -2.5
5.354687213897705 2.810351610183716 -2.5
4.795800685882568 3.60381817817688 -2.479968547821045
4.425214767456055 3.92041015625 -2.4440438747406006
3.9911131858825684 4.155185222625732 -2.3818023204803467
3.591484308242798 4.398779392242432 -2.347599983215332
2.839365243911743 4.917929649353027 -2.347599983215332
2.4344236850738525 5.130449295043945 -2.347599983215332
1.579921841621399 5.454521179199219 -2.347599983215332
0.6844921708106995 5.637333869934082 -2.347599983215332
-1.579921841621399 5.454521179199219 -2.347599983215332
-2.4344334602355957 5.130449295043945 -2.347599983215332
-2.839365243911743 4.917919635772705 -2.347599983215332
-3.591484308242798 4.398788928985596 -2.347599983215332
-4.834531307220459 3.6329100131988525 -2.5
-5.354687213897705 2.810370922088623 -2.5
-5.563466548919678 2.370371103286743 -2.5
-5.871660232543945 1.4472265243530273 -2.5
-5.969062328338623 0.9700683355331421 -2.5
-6.027773380279541 0.48662108182907104 -2.5
5.862519264221191 9.765624781721272e-06 -2.5
5.692158222198486 1.4029979705810547 -2.5
5.560810565948486 1.85647451877594 -2.5
5.393388748168945 2.297910213470459 -2.5
5.191005706787109 2.7244627475738525 -2.5
4.658740043640137 3.500800609588623 -2.485058307647705
4.312411785125732 3.8204686641693115 -2.4568426609039307
3.9255175590515137 4.086884498596191 -2.4165234565734863
1.9521484375 5.147402286529541 -2.347599983215332
1.5316308736801147 5.287792682647705 -2.347599983215332
1.101171851158142 5.393886566162109 -2.347599983215332
0.66357421875 5.465009689331055 -2.347599983215332
-0.2216796875 5.500683307647705 -2.347599983215332
-0.66357421875 5.464999675750732 -2.347599983215332
-1.1011816263198853 5.393896579742432 -2.347599983215332
-1.9521582126617432 5.147402286529541 -2.347599983215332
-3.127275228500366 4.530644416809082 -2.347599983215332
-3.4817090034484863 4.264316082000732 -2.347599983215332
-4.037880897521973 4.203876972198486 -2.4856979846954346
-5.191005706787109 2.724443197250366 -2.5
-5.560810565948486 1.8564647436141968 -2.5
-5.69216775894165 1.4029881954193115 -2.5
-5.786611080169678 0.9404296875 -2.5
-5.843505859375 0.4717382788658142 -2.5
5.687021255493164 0.0 -2.5
5.613379001617432 0.9122558236122131 -2.5
5.521767616271973 1.3609960079193115 -2.5
5.394335746765137 1.8009082078933716 -2.5
5.035605430603027 2.642900228500366 -2.5
3.4121580123901367 4.179130554199219 -2.3717031478881836
3.0336620807647705 4.39501953125 -2.347599983215332
2.670166015625 4.624873161315918 -2.347599983215332
1.8937108516693115 4.993300437927246 -2.347599983215332
0.6437011361122131 5.301415920257568 -2.347599983215332
0.2150292992591858 5.336015701293945 -2.347599983215332
-0.21503905951976776 5.336005687713623 -2.347599983215332
-0.6437109112739563 5.301415920257568 -2.347599983215332
-1.068212866783142 5.232411861419678 -2.347599983215332
-1.485781192779541 5.129511833190918 -2.347599983215332
-1.8937108516693115 4.993300437927246 -2.347599983215332
-2.289355516433716 4.824746131896973 -2.347599983215332
-3.444892406463623 4.219228267669678 -2.394460678100586
-3.93047833442688 4.09207010269165 -2.4942493438720703
-4.256308555603027 3.770761728286743 -2.499709367752075
-4.546454906463623 3.416435480117798 -2.5
-4.806611061096191 3.0395214557647705 -2.5
-5.231943130493164 2.229120969772339 -2.5
-5.394345760345459 1.8009082078933716 -2.5
-5.521777153015137 1.3609960079193115 -2.5
-5.66857385635376 0.45762693881988525 -2.5
5.520165920257568 9.765624781721272e-06 -2.5
5.502255916595459 0.4441894292831421 -2.5
5.448671817779541 0.885498046875 -2.5
5.236073970794678 1.7480664253234863 -2.5
5.078427791595459 2.1637206077575684 -2.5
4.887861251831055 2.5653514862060547 -2.5
4.665585994720459 2.950331926345825 -2.5
4.097089767456055 3.629716634750366 -2.478933811187744
3.7437009811401367 3.897597551345825 -2.4475319385528564
2.944648265838623 4.266064167022705 -2.347599983215332
2.5918262004852295 4.489179611206055 -2.347599983215332
2.2221875190734863 4.683173656463623 -2.347599983215332
1.8381445407867432 4.846806526184082 -2.347599983215332
1.4421874284744263 4.978993892669678 -2.347599983215332
1.036865234375 5.078896522521973 -2.347599983215332
0.6248242259025574 5.145869255065918 -2.347599983215332
-0.20873045921325684 5.179452896118164 -2.347599983215332
-1.0368750095367432 5.078896522521973 -2.347599983215332
-1.4421874284744263 4.978984355926514 -2.347599983215332
-1.8381445407867432 4.846796989440918 -2.347599983215332
-2.944658041000366 4.266054630279541 -2.347599983215332
-3.434999942779541 4.207118988037109 -2.4597580432891846
-3.818183422088623 3.9751462936401367 -2.4962260723114014
-4.887861251831055 2.5653319358825684 -2.5
-5.078437328338623 2.1637206077575684 -2.5
-5.359755516052246 1.3210644721984863 -2.5
-5.448681354522705 0.8854882717132568 -2.5
5.361259460449219 9.765624781721272e-06 -2.5
5.205478191375732 1.2830370664596558 -2.5
5.085361003875732 1.6977441310882568 -2.5
4.932255744934082 2.101435422897339 -2.5
3.986884593963623 3.5320701599121094 -2.4837517738342285
3.653740167617798 3.803945302963257 -2.4595131874084473
1.785244107246399 4.707294940948486 -2.347599983215332
1.40066397190094 4.835673809051514 -2.347599983215332
1.0070116519927979 4.932695388793945 -2.347599983215332
0.6068359017372131 4.997744083404541 -2.347599983215332
-0.6068456768989563 4.997744083404541 -2.347599983215332
-1.400673747062683 4.835673809051514 -2.347599983215332
-1.7852343320846558 4.70730447769165 -2.347599983215332
-2.1582324504852295 4.548378944396973 -2.347599983215332
-2.5172362327575684 4.359951019287109 -2.347599983215332
-2.860585927963257 4.144277095794678 -2.3481690883636475
-3.7110838890075684 3.863642454147339 -2.4981112480163574
-4.01296854019165 3.555185556411743 -2.5
-4.531298637390137 2.865419864654541 -2.5
-4.932265281677246 2.101454973220825 -2.5
-5.205488204956055 1.2830370664596558 -2.5
-5.291845798492432 0.8600195050239563 -2.5
