ply
format ascii 1.0
element vertex 688
property float x
property float y
property float z
end_header
-8.312426567077637 -28.69788932800293 1.5326119661331177
-23.583642959594727 -12.37767505645752 -1.8847081661224365
6.970361232757568 -14.689716339111328 -1.1505606174468994
19.393123626708984 -17.180849075317383 -1.8333712816238403
-27.82851219177246 -6.859140396118164 -2.347599983215332
-27.186302185058594 -9.076162338256836 -2.347599983215332
-23.361738204956055 -9.95352554321289 -2.079958438873291
-23.583637237548828 -12.377665519714355 -2.1815755367279053
-24.242122650146484 -15.32982349395752 -2.3493285179138184
-22.972118377685547 -17.262451171875 -2.3536486625671387
-21.54346466064453 -19.08584976196289 -2.3574655055999756
-18.253211975097656 -22.356142044067383 -2.3639748096466064
-14.459887504577637 -25.045272827148438 -2.3687667846679688
-12.404433250427246 -26.141796112060547 -2.3700575828552246
-3.4930419921875 -28.76778221130371 -2.3736255168914795
1.1670653820037842 -28.95978546142578 -2.3739678859710693
5.797695159912109 -28.398963928222656 -2.3740882873535156
6.970361232757568 -14.689716339111328 -1.3317898511886597
19.906606674194336 -20.724979400634766 -2.3537697792053223
21.490766525268555 -19.039169311523438 -2.351691722869873
26.367835998535156 -11.234257698059082 -2.347599983215332
-26.86015510559082 -2.9296874345163815e-05 -2.5
-26.773054122924805 -2.1613476276397705 -2.5
-26.5123233795166 -4.308691501617432 -2.5
-23.924701690673828 -7.987255573272705 -2.347599983215332
-23.20441436767578 -9.886493682861328 -2.347599983215332
-22.333635330200195 -11.721611022949219 -2.347599983215332
-18.879501342773438 -16.725770950317383 -2.347599983215332
-10.862167358398438 -22.891571044921875 -2.3583195209503174
-8.991140365600586 -23.707704544067383 -2.359945058822632
-5.075348854064941 -24.86075210571289 -2.36163330078125
-1.0217993259429932 -25.356239318847656 -2.361937999725342
1.0218944549560547 -25.357431411743164 -2.3620498180389404
3.05877423286438 -25.191171646118164 -2.361879825592041
5.074882507324219 -24.858417510986328 -2.3614108562469482
7.056333065032959 -24.361278533935547 -2.3606197834014893
8.9893798828125 -23.702987670898438 -2.359476327896118
6.970361232757568 -14.689716339111328 -1.5133546590805054
13.240893363952637 -19.18270492553711 -2.1694536209106445
17.4724063873291 -18.19072151184082 -2.347599983215332
18.879501342773438 -16.72579002380371 -2.347599983215332
20.16415023803711 -15.152362823486328 -2.347599983215332
21.318031311035156 -13.48070240020752 -2.347599983215332
25.070228576660156 -8.369647979736328 -2.4600019454956055
26.079647064208984 -6.428046703338623 -2.5
26.77305030822754 -2.161328077316284 -2.5
-23.899843215942383 -1.9293944835662842 -2.5
-23.667089462280273 -3.8462986946105957 -2.5
-22.743593215942383 -7.592948913574219 -2.5
-21.611108779907227 -9.207636833190918 -2.449254035949707
-19.030208587646484 -12.034013748168945 -2.347599983215332
-18.00018310546875 -13.52626895904541 -2.347599983215332
-9.658857345581055 -20.35564422607422 -2.349175453186035
-4.512954235076904 -22.105966567993164 -2.352396249771118
-2.7201757431030273 -22.402685165405273 -2.352952480316162
-0.9087621569633484 -22.55120086669922 -2.35318660736084
4.512109279632568 -22.101728439331055 -2.3519484996795654
6.273422718048096 -21.65835952758789 -2.351008415222168
7.991479396820068 -21.071767807006836 -2.3497188091278076
6.970361232757568 -14.689716339111328 -1.6952886581420898
18.00016975402832 -13.526249885559082 -2.347599983215332
19.030229568481445 -12.033984184265137 -2.347599983215332
20.402875900268555 -10.708242416381836 -2.4024782180786133
23.280858993530273 -5.738212585449219 -2.5
23.66709327697754 -3.8462791442871094 -2.5
23.899818420410156 -1.929384708404541 -2.5
-21.648889541625977 -2.9296874345163815e-05 -2.5
-21.019819259643555 -5.18093729019165 -2.5
-20.534759521484375 -6.855536937713623 -2.5
-19.916532516479492 -8.4856538772583 -2.5
-16.25200653076172 -12.212607383728027 -2.347599983215332
-15.216606140136719 -13.480741500854492 -2.347599983215332
-11.54827880859375 -16.730594635009766 -2.347599983215332
-10.16458511352539 -17.605594635009766 -2.347599983215332
-7.208808422088623 -19.008113861083984 -2.347599983215332
-2.4504027366638184 -20.18095588684082 -2.347599983215332
11.548295974731445 -16.730575561523438 -2.347599983215332
12.857094764709473 -15.7470703125 -2.347599983215332
15.216606140136719 -13.480731964111328 -2.347599983215332
16.33223533630371 -12.272871017456055 -2.3591880798339844
19.16914939880371 -10.060742378234863 -2.5
21.019804000854492 -5.180898189544678 -2.5
-19.664012908935547 -1.58743155002594 -2.5
-19.15471649169922 -4.721240043640137 -2.5
-18.149337768554688 -7.732705116271973 -2.5
-17.4682559967041 -9.16805648803711 -2.5
-16.67388153076172 -10.5439453125 -2.5
-15.696550369262695 -11.795205116271973 -2.4881372451782227
-13.99663257598877 -12.399921417236328 -2.369642496109009
-12.83297061920166 -13.360527038574219 -2.347599983215332
-10.523598670959473 -15.24608325958252 -2.347599983215332
-6.569179534912109 -17.321514129638672 -2.347599983215332
-5.154072284698486 -17.793954849243164 -2.347599983215332
-2.232975959777832 -18.390302658081055 -2.347599983215332
-0.745922863483429 -18.510351181030273 -2.347599983215332
6.569194316864014 -17.321514129638672 -2.347599983215332
12.832987785339355 -13.360546112060547 -2.347599983215332
14.4775972366333 -12.826034545898438 -2.451071262359619
15.771390914916992 -11.851435661315918 -2.5
16.673891067504883 -10.543925285339355 -2.5
17.468265533447266 -9.168046951293945 -2.5
18.71271514892578 -6.247206687927246 -2.5
-18.057313919067383 -1.4577343463897705 -2.5
-17.18372917175293 -5.736796855926514 -2.5
-16.666391372680664 -7.100888729095459 -2.5
-15.311503410339355 -9.682421684265137 -2.5
-14.482744216918945 -10.883095741271973 -2.5
-8.505846977233887 -14.73256778717041 -2.347599983215332
-6.032421588897705 -15.906229972839355 -2.347599983215332
-4.732944011688232 -16.340057373046875 -2.347599983215332
-3.402778148651123 -16.667909622192383 -2.347599983215332
-2.050524950027466 -16.88765525817871 -2.347599983215332
2.050532102584839 -16.88765525817871 -2.347599983215332
3.402778148651123 -16.66790008544922 -2.347599983215332
6.032436370849609 -15.906220436096191 -2.347599983215332
8.505859375 -14.732548713684082 -2.347599983215332
11.15514087677002 -13.662568092346191 -2.434044122695923
12.534979820251465 -13.05029296875 -2.4971203804016113
13.56005859375 -12.013163566589355 -2.5
14.482744216918945 -10.883075714111328 -2.5
15.311508178710938 -9.682401657104492 -2.5
17.589637756347656 -4.33544921875 -2.5
17.881454467773438 -2.906015634536743 -2.5
-16.743764877319336 -9.765624781721272e-06 -2.5
-16.526927947998047 -2.685908079147339 -2.5
-15.403910636901855 -6.562997817993164 -2.5
-14.825854301452637 -7.781220436096191 -2.5
-13.385698318481445 -10.05868148803711 -2.5
-11.598803520202637 -12.075644493103027 -2.5
-9.398000717163086 -13.615370750427246 -2.4701595306396484
-3.145009756088257 -15.405312538146973 -2.347599983215332
-0.6330810189247131 -15.710311889648438 -2.347599983215332
0.6331250071525574 -15.710322380065918 -2.347599983215332
1.8952099084854126 -15.608427047729492 -2.347599983215332
3.14501953125 -15.405312538146973 -2.347599983215332
4.374428749084473 -15.10228443145752 -2.347599983215332
5.575492858886719 -14.70131778717041 -2.347599983215332
6.830658912658691 -14.3953218460083 -2.3790526390075684
8.195561408996582 -14.195116996765137 -2.4473483562469482
9.496112823486328 -13.75748062133789 -2.495943784713745
10.589516639709473 -12.969794273376465 -2.5
13.385673522949219 -10.05868148803711 -2.5
14.151659965515137 -8.948965072631836 -2.5
14.8258638381958 -7.781200885772705 -2.5
15.403910636901855 -6.562978267669678 -2.5
15.882075309753418 -5.302196979522705 -2.5
16.25721549987793 -4.007030963897705 -2.5
-15.56108570098877 -9.765624781721272e-06 -2.5
-15.108905792236328 -3.7240233421325684 -2.5
-14.76025390625 -4.927704811096191 -2.5
-13.152070045471191 -8.316884994506836 -2.5
-12.440190315246582 -9.3482027053833 -2.5
-11.647636413574219 -10.3189058303833 -2.5
-10.779545783996582 -11.222695350646973 -2.5
-9.841532707214355 -12.053690910339355 -2.5
-8.839696884155273 -12.806532859802246 -2.5
-6.655263423919678 -14.025702476501465 -2.494135618209839
-1.7815600633621216 -14.67250919342041 -2.3745553493499756
-0.5932666063308716 -14.7222261428833 -2.3671488761901855
0.5941552519798279 -14.743563652038574 -2.3705809116363525
1.7898046970367432 -14.740283012390137 -2.3855252265930176
3.0003368854522705 -14.696581840515137 -2.40981125831604
5.501454830169678 -14.506113052368164 -2.492481231689453
6.666088581085205 -14.04849624633789 -2.498192310333252
7.78054666519165 -13.476298332214355 -2.5
8.839712142944336 -12.806513786315918 -2.5
10.779536247253418 -11.222684860229492 -2.5
11.6476411819458 -10.3189058303833 -2.5
15.108915328979492 -3.724003791809082 -2.5
-14.483935356140137 -1.1692675352096558 -2.5
-14.10879898071289 -3.4775195121765137 -2.5
-12.86660099029541 -6.7529296875 -2.5
-10.066010475158691 -10.479833602905273 -2.5
-9.19009780883789 -11.255829811096191 -2.5
-6.229348182678223 -13.128105163574219 -2.5
-4.042788028717041 -13.957343101501465 -2.5
-2.9044554233551025 -14.227021217346191 -2.498178482055664
-1.749121069908142 -14.405302047729492 -2.496567487716675
2.9065380096435547 -14.23714828491211 -2.4999563694000244
5.152782917022705 -13.58675765991211 -2.5
10.066010475158691 -10.47982406616211 -2.5
10.8766450881958 -9.635869026184082 -2.5
11.616743087768555 -8.72940444946289 -2.5
12.866605758666992 -6.752910137176514 -2.5
14.108808517456055 -3.4775097370147705 -2.5
-13.6256685256958 -1.9531249563442543e-05 -2.5
-13.581483840942383 -1.0964062213897705 -2.5
-13.449223518371582 -2.185722589492798 -2.5
-13.229731559753418 -3.2608494758605957 -2.5
-12.924445152282715 -4.314814567565918 -2.5
-12.535331726074219 -5.340810298919678 -2.5
-11.516271591186523 -7.282470703125 -2.5
-10.198959350585938 -9.03548812866211 -2.5
-9.438833236694336 -9.826865196228027 -2.5
-8.617480278015137 -10.554511070251465 -2.5
-5.841220378875732 -12.3101167678833 -2.5
-2.725478410720825 -13.350312232971191 -2.5
-1.6423827409744263 -13.526347160339355 -2.5
-0.548632800579071 -13.614628791809082 -2.5
4.831733226776123 -12.74022388458252 -2.5
5.841225624084473 -12.3101167678833 -2.5
9.438833236694336 -9.826874732971191 -2.5
10.198959350585938 -9.03548812866211 -2.5
12.064936637878418 -6.33214807510376 -2.5
13.229736328125 -3.2608299255371094 -2.5
13.581483840942383 -1.0964062213897705 -2.5
-12.657384872436523 -2.0570409297943115 -2.5
-12.450815200805664 -3.068857431411743 -2.5
-12.163500785827637 -4.060781002044678 -2.5
-11.797308921813965 -5.026357173919678 -2.5
-11.354594230651855 -5.959355354309082 -2.5
-9.598485946655273 -8.503515243530273 -2.5
-8.110126495361328 -9.933115005493164 -2.5
-7.28454065322876 -10.553505897521973 -2.5
-6.411718368530273 -11.105439186096191 -2.5
-5.497304439544678 -11.58535099029541 -2.5
-4.547248363494873 -11.990126609802246 -2.5
-0.5163280963897705 -12.813055992126465 -2.5
1.5456981658935547 -12.729960441589355 -2.5
2.5650243759155273 -12.564306259155273 -2.5
3.5677196979522705 -12.317148208618164 -2.5
6.411728382110596 -11.105420112609863 -2.5
7.284555435180664 -10.553485870361328 -2.5
8.883110046386719 -9.248310089111328 -2.5
10.251626014709473 -7.703583717346191 -2.5
11.35460376739502 -5.95934534072876 -2.5
11.797314643859863 -5.026357173919678 -2.5
12.163515090942383 -4.060761451721191 -2.5
12.781869888305664 -1.0318554639816284 -2.5
-12.10750675201416 -9.765624781721272e-06 -2.5
-12.068249702453613 -0.9742480516433716 -2.5
-11.755693435668945 -2.897529125213623 -2.5
-10.233141899108887 -6.471054553985596 -2.5
-8.387167930603027 -8.731963157653809 -2.5
-7.657338619232178 -9.378544807434082 -2.5
-6.053750038146973 -10.485419273376465 -2.5
-5.190390586853027 -10.938544273376465 -2.5
-1.4593993425369263 -12.019238471984863 -2.5
-0.48750975728034973 -12.097704887390137 -2.5
0.48753905296325684 -12.097684860229492 -2.5
2.421806573867798 -11.862832069396973 -2.5
3.3685107231140137 -11.62948226928711 -2.5
4.293393611907959 -11.32071304321289 -2.5
5.190395355224609 -10.9385347366333 -2.5
6.053764343261719 -10.4854097366333 -2.5
7.6573486328125 -9.378524780273438 -2.5
8.387167930603027 -8.731972694396973 -2.5
9.679262161254883 -7.273486137390137 -2.5
10.720678329467773 -5.626630783081055 -2.5
11.484423637390137 -3.83404278755188 -2.5
11.755693435668945 -2.897509813308716 -2.5
12.068256378173828 -0.9742382764816284 -2.5
-11.464513778686523 0.0 -2.5
-11.316049575805664 -1.8390429019927979 -2.5
-11.13137149810791 -2.74365234375 -2.5
-10.874506950378418 -3.630439281463623 -2.5
-10.547119140625 -4.493710994720459 -2.5
-10.151325225830078 -5.327831745147705 -2.5
-9.689692497253418 -6.127402305603027 -2.5
-7.941747665405273 -8.268232345581055 -2.5
-6.512575626373291 -9.435107231140137 -2.5
-5.732245922088623 -9.928564071655273 -2.5
-4.065361022949219 -10.719511032104492 -2.5
-3.1896214485168457 -11.01187515258789 -2.5
-2.2931883335113525 -11.232831954956055 -2.5
-1.3818895816802979 -11.3809175491333 -2.5
0.4616406261920929 -11.45522403717041 -2.5
2.2931981086730957 -11.23282241821289 -2.5
5.732270240783691 -9.928564071655273 -2.5
6.512592792510986 -9.435097694396973 -2.5
7.250673770904541 -8.88045883178711 -2.5
7.941742897033691 -8.268232345581055 -2.5
10.15133285522461 -5.327822208404541 -2.5
11.316054344177246 -1.8390331268310547 -2.5
-10.88370132446289 -9.765624781721272e-06 -2.5
-10.323593139648438 -3.446523427963257 -2.5
-9.637036323547363 -5.057909965515137 -2.5
-9.198793411254883 -5.816972732543945 -2.5
-7.539403915405273 -7.849355220794678 -2.5
-6.182631492614746 -8.95711898803711 -2.5
-4.665761470794678 -9.832880973815918 -2.5
-3.8594067096710205 -10.176435470581055 -2.5
-3.028027296066284 -10.45400333404541 -2.5
-2.177014112472534 -10.663749694824219 -2.5
-0.438232421875 -10.874882698059082 -2.5
0.43824705481529236 -10.874873161315918 -2.5
1.3118847608566284 -10.80435562133789 -2.5
2.1770215034484863 -10.663749694824219 -2.5
3.028032064437866 -10.453993797302246 -2.5
4.665756702423096 -9.832880973815918 -2.5
8.146576881408691 -7.217226505279541 -2.5
9.637045860290527 -5.057909965515137 -2.5
10.012797355651855 -4.266044616699219 -2.5
10.323588371276855 -3.4465038776397705 -2.5
10.84841251373291 -0.875781238079071 -2.5
-10.055415153503418 -2.478447198867798 -2.5
-9.823373794555664 -3.279531240463257 -2.5
-9.527626991271973 -4.059345722198486 -2.5
-8.75307559967041 -5.535126686096191 -2.5
-8.279303550720215 -6.221513748168945 -2.5
-7.751835823059082 -6.867538928985596 -2.5
-7.174098968505859 -7.46902322769165 -2.5
-5.883073806762695 -8.52310562133789 -2.5
-2.8813085556030273 -9.947470664978027 -2.5
-2.071530818939209 -10.14706039428711 -2.5
0.4170165956020355 -10.3479585647583 -2.5
2.8813183307647705 -9.947461128234863 -2.5
4.439687252044678 -9.3564453125 -2.5
5.178188323974609 -8.968856811523438 -2.5
7.751835823059082 -6.867519378662109 -2.5
8.279315948486328 -6.221494197845459 -2.5
9.1701021194458 -4.812831878662109 -2.5
9.527631759643555 -4.059326171875 -2.5
-9.875300407409668 -9.765624781721272e-06 -2.5
-9.843271255493164 -0.7946191430091858 -2.5
-9.588339805603027 -2.363330125808716 -2.5
-9.367079734802246 -3.127207040786743 -2.5
-7.894741058349609 -5.932519435882568 -2.5
-4.93765115737915 -8.552265167236328 -2.5
-1.190334439277649 -9.803300857543945 -2.5
0.3976464867591858 -9.867294311523438 -2.5
1.9753124713897705 -9.675732612609863 -2.5
2.7474756240844727 -9.485400199890137 -2.5
6.245590686798096 -7.64944314956665 -2.5
6.840864181518555 -7.122089862823486 -2.5
7.391762733459473 -6.548525333404541 -2.5
8.346508979797363 -5.278007507324219 -2.5
9.085078239440918 -3.8707714080810547 -2.5
9.84328556060791 -0.7946386337280273 -2.5
-7.974018573760986 -5.04248046875 -2.5
-7.542421817779541 -5.667763710021973 -2.5
-7.061901569366455 -6.256298542022705 -2.5
-4.044536113739014 -8.523691177368164 -2.5
-3.3455517292022705 -8.821513175964355 -2.5
-1.8871679306030273 -9.243926048278809 -2.5
0.3798925578594208 -9.426953315734863 -2.5
1.1372119188308716 -9.365819931030273 -2.5
2.6248779296875 -9.06209945678711 -2.5
3.3455564975738525 -8.821513175964355 -2.5
5.359462738037109 -7.76452112197876 -2.5
6.535575866699219 -6.804257869720459 -2.5
7.974032878875732 -5.042470455169678 -2.5
8.679648399353027 -3.6980369091033936 -2.5
9.312426567077637 -1.513427734375 -2.5
-9.029281616210938 -9.765624781721272e-06 -2.5
-8.999995231628418 -0.7265527248382568 -2.5
-7.995026588439941 -4.196123123168945 -2.5
-7.631444931030273 -4.825839519500732 -2.5
-7.218388557434082 -5.424277305603027 -2.5
-6.254809379577637 -6.511943340301514 -2.5
-5.710522174835205 -6.994130611419678 -2.5
-5.129206657409668 -7.430947303771973 -2.5
-4.514628887176514 -7.819580078125 -2.5
-3.2018213272094727 -8.442509651184082 -2.5
-2.512101888656616 -8.672792434692383 -2.5
-1.0883593559265137 -8.963446617126465 -2.5
1.0883642435073853 -8.963457107543945 -2.5
1.8060888051986694 -8.846796989440918 -2.5
3.2018308639526367 -8.44252872467041 -2.5
3.870781183242798 -8.157509803771973 -2.5
5.129213809967041 -7.43093729019165 -2.5
5.710532188415527 -6.994130611419678 -2.5
6.254794597625732 -6.511943340301514 -2.5
7.631454944610596 -4.825829982757568 -2.5
7.995028972625732 -4.196113109588623 -2.5
8.306747436523438 -3.539179563522339 -2.5
8.766894340515137 -2.1608495712280273 -2.5
-8.627081871032715 -0.6964452862739563 -2.5
-8.543061256408691 -1.3883886337280273 -2.5
-8.209721565246582 -2.7408103942871094 -2.5
-7.962558269500732 -3.3925390243530273 -2.5
-7.315244197845459 -4.625888347625732 -2.5
-6.919296741485596 -5.199521541595459 -2.5
-6.478471755981445 -5.739423751831055 -2.5
-5.47390604019165 -6.704326152801514 -2.5
-4.916684627532959 -7.123046875 -2.5
-4.327582836151123 -7.495575904846191 -2.5
-3.710392951965332 -7.819511413574219 -2.5
-3.06915020942688 -8.092714309692383 -2.5
1.7312548160552979 -8.480243682861328 -2.5
2.408027172088623 -8.313427925109863 -2.5
3.710405111312866 -7.819501876831055 -2.5
4.916694164276123 -7.123046875 -2.5
5.473910808563232 -6.704326152801514 -2.5
5.99563455581665 -6.242118835449219 -2.5
6.478466510772705 -5.739423751831055 -2.5
6.919301509857178 -5.199511528015137 -2.5
8.209721565246582 -2.740800619125366 -2.5
8.403647422790527 -2.0713086128234863 -2.5
8.627084732055664 -0.6964452862739563 -2.5
-8.281730651855469 -0.6685742139816284 -2.5
-8.20108413696289 -1.3328124284744263 -2.5
-7.881086349487305 -2.631103515625 -2.5
-7.643808364868164 -3.256718635559082 -2.5
-7.356967449188232 -3.8612303733825684 -2.5
-7.022414207458496 -4.440722465515137 -2.5
-6.642306804656982 -4.991386413574219 -2.5
-5.755624771118164 -5.992246150970459 -2.5
-4.719868183135986 -6.837910175323486 -2.5
-4.154340744018555 -7.195527076721191 -2.5
-3.5618724822998047 -7.50646448135376 -2.5
-2.3116209506988525 -7.980634689331055 -2.5
-0.33455565571784973 -8.301923751831055 -2.5
0.33455076813697815 -8.301933288574219 -2.5
1.0014941692352295 -8.2481050491333 -2.5
1.6619482040405273 -8.14077091217041 -2.5
2.3116161823272705 -7.980634689331055 -2.5
2.946298837661743 -7.768759727478027 -2.5
3.5618603229522705 -7.506484031677246 -2.5
4.154330730438232 -7.195517539978027 -2.5
4.719858169555664 -6.837910175323486 -2.5
5.755624771118164 -5.992246150970459 -2.5
6.642309188842773 -4.991366863250732 -2.5
7.356972694396973 -3.8612303733825684 -2.5
7.643813133239746 -3.256718635559082 -2.5
8.067245483398438 -1.9883886575698853 -2.5
8.201079368591309 -1.332802653312683 -2.5
8.281733512878418 -0.6685742139816284 -2.5
-7.883378505706787 -1.2811815738677979 -2.5
-7.071969985961914 -3.711660146713257 -2.5
-5.051232814788818 -6.186630725860596 -2.5
-4.537026405334473 -6.573017597198486 -2.5
-3.993412971496582 -6.91677713394165 -2.5
-2.2220702171325684 -7.671474456787109 -2.5
-1.59756338596344 -7.825419902801514 -2.5
-0.9627124071121216 -7.928574085235596 -2.5
-0.3216015696525574 -7.980331897735596 -2.5
0.3215917944908142 -7.98034143447876 -2.5
2.222060441970825 -7.671474456787109 -2.5
2.832163095474243 -7.46780252456665 -2.5
3.4238767623901367 -7.215683460235596 -2.5
4.537026405334473 -6.573007583618164 -2.5
5.532656192779541 -5.760107517242432 -2.5
5.978208065032959 -5.296230316162109 -2.5
6.385009765625 -4.798017501831055 -2.5
7.347700119018555 -3.130566358566284 -2.5
7.754735946655273 -1.9113671779632568 -2.5
7.960912704467773 -0.6426659822463989 -2.5
-7.587419033050537 -1.2330858707427979 -2.5
-6.496938228607178 -4.108417987823486 -2.5
-6.145283222198486 -4.617890357971191 -2.5
-4.366694450378418 -6.326250076293945 -2.5
-3.29534649848938 -6.944794654846191 -2.5
-0.30952146649360657 -7.680732250213623 -2.5
5.324951171875 -5.543857097625732 -2.5
5.753769397735596 -5.097392559051514 -2.5
7.463588714599609 -1.8396093845367432 -2.5
-7.310954570770264 -1.1881542205810547 -2.5
-6.814172267913818 -2.903251886367798 -2.5
-6.260210037231445 -3.958730459213257 -2.5
-4.207582950592041 -6.09573221206665 -2.5
-2.6265110969543457 -6.925546646118164 -2.5
-2.060717821121216 -7.114433288574219 -2.5
-1.481569766998291 -7.257187366485596 -2.5
-0.8928027153015137 -7.352860927581787 -2.5
-0.2982470691204071 -7.400868892669678 -2.5
3.1752586364746094 -6.691738128662109 -2.5
4.684443473815918 -5.737402439117432 -2.5
5.544120788574219 -4.911660194396973 -2.5
6.260219573974609 -3.9587206840515137 -2.5
6.558461666107178 -3.442128896713257 -2.5
-7.121416091918945 -0.5748925805091858 -2.5
-6.936977386474609 -1.7098242044448853 -2.5
-6.5728759765625 -2.8004491329193115 -2.5
-6.326215744018555 -3.320253849029541 -2.5
-5.711684226989746 -4.292060375213623 -2.5
-5.347797870635986 -4.737743854522705 -2.5
-4.058598518371582 -5.87991189956665 -2.5
-2.533510684967041 -6.680312156677246 -2.5
-1.9877489805221558 -6.862509727478027 -2.5
-1.429101586341858 -7.000205039978027 -2.5
-0.2876904308795929 -7.13878870010376 -2.5
0.2876855432987213 -7.13878870010376 -2.5
0.8611767292022705 -7.092490196228027 -2.5
1.4290966987609863 -7.000214576721191 -2.5
1.9877489805221558 -6.862499713897705 -2.5
3.0628271102905273 -6.454784870147705 -2.5
3.5722949504852295 -6.187392234802246 -2.5
4.058588981628418 -5.879872798919678 -2.5
4.518559455871582 -5.534228324890137 -2.5
4.949223518371582 -5.152705192565918 -2.5
5.711684226989746 -4.292050838470459 -2.5
6.326225280761719 -3.320244073867798 -2.5
6.5728759765625 -2.8004393577575684 -2.5
6.776908874511719 -2.262460947036743 -2.5
6.936982154846191 -1.709814429283142 -2.5
7.121416091918945 -0.5748925805091858 -2.5
-6.809069633483887 -1.106591820716858 -2.5
-6.697948932647705 -1.6508984565734863 -2.5
-6.543388366699219 -2.184511661529541 -2.5
-6.108237266540527 -3.2058591842651367 -2.5
-5.830458641052246 -3.686962842941284 -2.5
-5.514877796173096 -4.144169807434082 -2.5
-4.778700828552246 -4.975146293640137 -2.5
-4.362873554229736 -5.343544960021973 -2.5
-2.9572997093200684 -6.232372760772705 -2.5
-2.446215867996216 -6.450117111206055 -2.5
-1.9192577600479126 -6.626044750213623 -2.5
-1.379858374595642 -6.758994102478027 -2.5
-0.8315136432647705 -6.848105430603027 -2.5
-0.2777685523033142 -6.892822265625 -2.5
0.8315087556838989 -6.848114967346191 -2.5
1.3798534870147705 -6.758994102478027 -2.5
1.9192626476287842 -6.626035213470459 -2.5
2.9572949409484863 -6.232372760772705 -2.5
3.4491991996765137 -5.974189281463623 -2.5
3.9187450408935547 -5.677285194396973 -2.5
4.778691291809082 -4.975146293640137 -2.5
5.163535118103027 -4.57449197769165 -2.5
5.83047342300415 -3.686953067779541 -2.5
6.108237266540527 -3.2058398723602295 -2.5
6.346396446228027 -2.703935384750366 -2.5
6.543393611907959 -2.184501886367798 -2.5
6.697954177856445 -1.6508984565734863 -2.5
6.876039981842041 -0.5550878643989563 -2.5
-6.666840553283691 -9.765624781721272e-06 -2.5
-6.645216941833496 -0.5364648103713989 -2.5
-6.473110198974609 -1.59548819065094 -2.5
-5.903188228607178 -3.0982420444488525 -2.5
-5.634746074676514 -3.5632030963897705 -2.5
-5.329755783081055 -4.005068302154541 -2.5
-4.990195274353027 -4.420937538146973 -2.5
-4.618281364440918 -4.80813455581665 -2.5
-3.7871971130371094 -5.486708641052246 -2.5
-3.3334178924560547 -5.773652076721191 -2.5
-0.26844725012779236 -6.661445140838623 -2.5
0.8035986423492432 -6.618232250213623 -2.5
2.858022451400757 -6.023173809051514 -2.5
3.7872021198272705 -5.486708641052246 -2.5
4.990200042724609 -4.420937538146973 -2.5
5.634750843048096 -3.5631933212280273 -2.5
5.90319299697876 -3.0982322692871094 -2.5
6.133364200592041 -2.613173723220825 -2.5
-6.448564529418945 0.0 -2.5
-6.116689205169678 -2.042060613632202 -2.5
-5.932543754577637 -2.5276269912719727 -2.5
-5.709921836853027 -2.9967968463897705 -2.5
-5.450253963470459 -3.446542978286743 -2.5
-4.826821327209473 -4.276181697845459 -2.5
-4.078369140625 -4.995087623596191 -2.5
-3.663200616836548 -5.307060241699219 -2.5
-2.7644457817077637 -5.825966835021973 -2.5
-1.2898706197738647 -6.318242073059082 -2.5
-0.2596533000469208 -6.443339824676514 -2.5
2.7644481658935547 -5.82595682144165 -2.5
3.6632080078125 -5.307060241699219 -2.5
4.078359127044678 -4.995078086853027 -2.5
4.46707010269165 -4.650722503662109 -2.5
4.826821327209473 -4.276191234588623 -2.5
5.450263500213623 -3.446542978286743 -2.5
5.709911823272705 -2.9967968463897705 -2.5
5.932543754577637 -2.5276269912719727 -2.5
6.11669397354126 -2.042060613632202 -2.5
6.427656173706055 -0.5188964605331421 -2.5
-6.242416858673096 -9.765624781721272e-06 -2.5
-6.222177505493164 -0.5023144483566284 -2.5
-6.061025142669678 -1.4939160346984863 -2.5
-5.921156883239746 -1.9767773151397705 -2.5
-5.527385234832764 -2.9009861946105957 -2.5
-4.990456581115723 -3.7500975131988525 -2.5
-4.672524452209473 -4.139482498168945 -2.5
-4.324277400970459 -4.502060413360596 -2.5
-3.5461010932922363 -5.137412071228027 -2.5
-3.121210813522339 -5.406103610992432 -2.5
-2.676084041595459 -5.639716625213623 -2.5
-2.2135913372039795 -5.836767673492432 -2.5
-0.75244140625 -6.196913719177246 -2.5
0.25135740637779236 -6.237363338470459 -2.5
1.2486474514007568 -6.116269588470459 -2.5
2.676079034805298 -5.639716625213623 -2.5
3.546098470687866 -5.137412071228027 -2.5
3.947988271713257 -4.835400104522705 -2.5
4.324272155761719 -4.502050876617432 -2.5
4.672519207000732 -4.139502048492432 -2.5
5.527392387390137 -2.900995969772339 -2.5
6.061020374298096 -1.4939062595367432 -2.5
6.161581993103027 -1.0013574361801147 -2.5
6.222182273864746 -0.5023046731948853 -2.5
-6.047375202178955 -9.765624781721272e-06 -2.5
-6.027768611907959 -0.48662108182907104 -2.5
-5.969067096710205 -0.9700683355331421 -2.5
-5.871645450592041 -1.4472362995147705 -2.5
-5.563461780548096 -2.370361328125 -2.5
-5.354682445526123 -2.81036114692688 -2.5
-4.834526062011719 -3.6329100131988525 -2.5
-3.023684024810791 -5.237187385559082 -2.5
-2.592465877532959 -5.463505744934082 -2.5
-2.1444358825683594 -5.654394626617432 -2.5
-0.24351073801517487 -6.042470455169678 -2.5
0.728930652141571 -6.00329065322876 -2.5
1.6824853420257568 -5.808613300323486 -2.5
2.1444287300109863 -5.654394626617432 -2.5
2.592460870742798 -5.463505744934082 -2.5
3.435307502746582 -4.976894378662109 -2.5
4.834526062011719 -3.6329100131988525 -2.5
5.111176490783691 -3.232109308242798 -2.5
5.354682445526123 -2.810351610183716 -2.5
5.563457012176514 -2.370351552963257 -2.5
5.736147403717041 -1.9150097370147705 -2.5
5.871660232543945 -1.4472362995147705 -2.5
5.969057559967041 -0.9700585603713989 -2.5
-5.862524509429932 0.0 -2.5
-5.786601543426514 -0.9404199123382568 -2.5
-5.692158222198486 -1.4029979705810547 -2.5
-5.191000938415527 -2.7244529724121094 -2.5
-4.954941272735596 -3.1333203315734863 -2.5
-4.388164043426514 -3.887568235397339 -2.5
-3.7077221870422363 -4.541142463684082 -2.5
-3.3302879333496094 -4.824765682220459 -2.5
-2.9312596321105957 -5.077089786529541 -2.5
-2.5132129192352295 -5.296494007110596 -2.5
-2.0788769721984863 -5.481543064117432 -2.5
-1.1726561784744263 -5.744032859802246 -2.5
1.1726512908935547 -5.744042873382568 -2.5
1.6310595273971558 -5.631054401397705 -2.5
2.931264638900757 -5.077089786529541 -2.5
3.3302929401397705 -4.824755668640137 -2.5
4.061103343963623 -4.22805643081665 -2.5
4.388149261474609 -3.887568235397339 -2.5
4.954941272735596 -3.1333203315734863 -2.5
5.191000938415527 -2.724443197250366 -2.5
5.393393516540527 -2.297910213470459 -2.5
5.786591529846191 -0.9404101371765137 -2.5
5.843510627746582 -0.4717382788658142 -2.5
-5.687018871307373 0.0 -2.5
-5.394340515136719 -1.8008984327316284 -2.5
-5.035607814788818 -2.642880916595459 -2.5
-4.806611061096191 -3.0395312309265137 -2.5
-4.256792068481445 -3.7712011337280273 -2.5
-2.437978506088257 -5.137948989868164 -2.5
-2.0166454315185547 -5.317451000213623 -2.5
-1.1375536918640137 -5.572089672088623 -2.5
-0.685498058795929 -5.645556449890137 -2.5
0.22900390625 -5.682412147521973 -2.5
0.685498058795929 -5.645566463470459 -2.5
2.437983274459839 -5.137948989868164 -2.5
2.843510627746582 -4.925107479095459 -2.5
3.230595588684082 -4.680322170257568 -2.5
3.5967235565185547 -4.405204772949219 -2.5
3.939531087875366 -4.101493835449219 -2.5
4.256796836853027 -3.771191358566284 -2.5
4.806616306304932 -3.0395214557647705 -2.5
5.035610198974609 -2.642900228500366 -2.5
5.231947898864746 -2.2291111946105957 -2.5
5.394345760345459 -1.8008984327316284 -2.5
5.521772384643555 -1.360986351966858 -2.5
-5.520161151885986 0.0 -2.5
-5.448678970336914 -0.8855078220367432 -2.5
-5.236064434051514 -1.7480664253234863 -2.5
-4.665575981140137 -2.9503417015075684 -2.5
-4.13189697265625 -3.6605565547943115 -2.5
-3.491201162338257 -4.275937557220459 -2.5
-3.135810375213623 -4.54299783706665 -2.5
-1.9574828147888184 -5.161445140838623 -2.5
-0.6653857231140137 -5.479911804199219 -2.5
-0.22227050364017487 -5.515683650970459 -2.5
0.22227539122104645 -5.515693187713623 -2.5
1.104164958000183 -5.408603191375732 -2.5
1.535805583000183 -5.302216529846191 -2.5
2.760073184967041 -4.780595779418945 -2.5
3.135805606842041 -4.54299783706665 -2.5
3.4911913871765137 -4.275947093963623 -2.5
3.8239500522613525 -3.981152296066284 -2.5
4.413056373596191 -3.3162012100219727 -2.5
4.665590763092041 -2.950331926345825 -2.5
4.887856483459473 -2.5653417110443115 -2.5
5.236069202423096 -1.748046875 -2.5
5.502260684967041 -0.4441894292831421 -2.5
-5.361264705657959 -9.765624781721272e-06 -2.5
-5.205481052398682 -1.2830370664596558 -2.5
-5.085361003875732 -1.6977343559265137 -2.5
-4.9322509765625 -2.101445198059082 -2.5
-4.747168064117432 -2.491503953933716 -2.5
-4.531283855438232 -2.865419864654541 -2.5
-4.012963771820068 -3.55517578125 -2.5
-3.713879346847534 -3.8665525913238525 -2.5
-3.3907127380371094 -4.15286111831665 -2.5
-1.9011279344558716 -5.012870788574219 -2.5
-1.4915966987609863 -5.149599552154541 -2.5
0.2158789038658142 -5.356914043426514 -2.5
1.4915869235992432 -5.149589538574219 -2.5
1.9011328220367432 -5.012870788574219 -2.5
2.6806395053863525 -4.642988204956055 -2.5
3.3907079696655273 -4.152851581573486 -2.5
4.012963771820068 -3.55517578125 -2.5
4.286025524139404 -3.2207422256469727 -2.5
4.747172832489014 -2.491503953933716 -2.5
5.205488204956055 -1.2830370664596558 -2.5
