ply
format ascii 1.0
element vertex 733
property float x
property float y
property float z
end_header
18.448808670043945 -19.207256317138672 7.136089324951172
19.20743179321289 -19.9970703125 7.101170063018799
18.60595703125 -19.370868682861328 6.562525272369385
20.445863723754883 -18.113447189331055 6.674007415771484
18.07046890258789 -22.132314682006836 6.6465020179748535
17.86048698425293 -18.594745635986328 5.997625827789307
17.706092834472656 -18.434003829956055 5.647967338562012
21.129467010498047 -18.71908187866211 6.237640380859375
18.11654281616211 -22.188749313354492 5.997549533843994
18.306713104248047 -19.059335708618164 5.533143997192383
18.544042587280273 -19.306396484375 5.29592227935791
18.879735946655273 -19.655887603759766 4.766754150390625
20.224706649780273 -17.917518615722656 4.725759029388428
17.66912078857422 -21.64076042175293 4.567838191986084
19.860132217407227 -20.67660140991211 4.687490940093994
20.634716033935547 -18.28076171875 4.507324695587158
20.769296646118164 -18.39999008178711 4.22158145904541
21.030057907104492 -18.631006240844727 3.9565606117248535
20.124359130859375 -20.951698303222656 3.7632524967193604
21.498788833618164 -19.0462589263916 3.7206382751464844
18.3338565826416 -22.454912185668945 3.4290246963500977
20.3763427734375 -21.21402359008789 3.4794065952301025
21.915590286254883 -19.415517807006836 3.463334798812866
19.701519012451172 -20.511474609375 3.04500412940979
20.545814514160156 -18.202011108398438 2.9388275146484375
21.52411651611328 -19.068710327148438 2.7568187713623047
20.218486785888672 -21.0496768951416 1.821671724319458
20.633670806884766 -21.481924057006836 1.5279330015182495
17.080673217773438 -17.78285026550293 0.9910192489624023
13.773246765136719 -19.95399284362793 0.7054839730262756
16.69157600402832 -17.37777328491211 0.7011074423789978
13.773241996765137 -19.95399284362793 0.4366503953933716
15.143695831298828 -18.54765510559082 0.4312249720096588
16.66006851196289 -17.344970703125 0.4331231713294983
15.127543449401855 -18.527891159057617 -0.09939971566200256
16.66006851196289 -17.344970703125 -0.09994415193796158
-8.179614067077637 -28.23923683166504 -1.1000694036483765
24.11542510986328 -15.249706268310547 -1.0676146745681763
-8.014028549194336 -27.667558670043945 -1.3975924253463745
20.3441162109375 -18.023340225219727 -1.318731665611267
22.321395874023438 -16.773466110229492 -1.354720115661621
15.125048637390137 -18.524824142456055 -1.4261431694030762
18.9103946685791 -19.687801361083984 -1.6279057264328003
24.11542510986328 -15.249706268310547 -1.7014927864074707
11.708593368530273 -20.279911041259766 -1.6570501327514648
15.125048637390137 -18.52481460571289 -1.6922879219055176
18.643339157104492 -19.409814834594727 -1.9044269323349
22.322162628173828 -16.7740421295166 -1.975831389427185
-29.014005661010742 -4.715243816375732 -2.407665491104126
-27.186330795288086 -9.076112747192383 -2.347599983215332
-26.367841720581055 -11.234267234802246 -2.347599983215332
-22.96256446838379 -17.255224227905273 -2.3526673316955566
-21.529850006103516 -19.07377815246582 -2.3559746742248535
-19.954320907592773 -20.774627685546875 -2.3594067096710205
-18.243749618530273 -22.34453010559082 -2.3627543449401855
-16.409374237060547 -23.77308464050293 -2.366039276123047
-14.463310241699219 -25.05116081237793 -2.369326591491699
-12.393534660339355 -26.118818283081055 -2.367974281311035
-7.537617206573486 -19.875057220458984 -1.7410732507705688
3.4802489280700684 -28.662410736083984 -2.3649277687072754
10.237616539001465 -26.994413375854492 -2.3647351264953613
11.155375480651855 -19.321718215942383 -1.8274321556091309
18.646718978881836 -19.413330078125 -2.2048070430755615
22.324365615844727 -16.77568244934082 -2.287285089492798
24.11542510986328 -15.249706268310547 -2.3370554447174072
25.37833023071289 -13.31956958770752 -2.347599983215332
26.367826461791992 -11.234248161315918 -2.347599983215332
27.186317443847656 -9.076123237609863 -2.347599983215332
27.828475952148438 -6.859101295471191 -2.347599983215332
15.084150314331055 -1.2176952362060547 -1.2395365238189697
-26.860170364379883 9.765624781721272e-06 -2.5
-26.7730655670166 -2.161328077316284 -2.5
-26.512331008911133 -4.308671951293945 -2.5
-26.05399513244629 -6.421738147735596 -2.4975407123565674
-24.074371337890625 -8.037187576293945 -2.3622844219207764
-23.20442771911621 -9.886493682861328 -2.347599983215332
-21.318029403686523 -13.48070240020752 -2.347599983215332
-17.480741500854492 -18.19937515258789 -2.3487184047698975
-15.979043006896973 -19.570781707763672 -2.351576805114746
-14.36886215209961 -20.816884994506836 -2.3542680740356445
-12.66080093383789 -21.929121017456055 -2.3567967414855957
-10.866415977478027 -22.9005069732666 -2.3592402935028076
-7.03921365737915 -24.302148818969727 -2.3548905849456787
1.0197460651397705 -25.305204391479492 -2.3571853637695312
8.975756645202637 -23.66714859008789 -2.355907917022705
10.846747398376465 -22.85906219482422 -2.3549721240997314
17.472402572631836 -18.190702438354492 -2.347599983215332
21.318017959594727 -13.480683326721191 -2.347599983215332
22.333642959594727 -11.721601486206055 -2.347599983215332
15.084155082702637 -1.217714786529541 -1.408519983291626
-23.97760772705078 1.9531249563442543e-05 -2.5
-23.899850845336914 -1.9293944835662842 -2.5
-23.66706657409668 -3.8462791442871094 -2.5
-22.743608474731445 -7.592909812927246 -2.5
-21.77906608581543 -9.279179573059082 -2.468287706375122
-16.8533935546875 -14.930800437927246 -2.347599983215332
-12.790488243103027 -18.530223846435547 -2.347599983215332
-9.65869140625 -20.355253219604492 -2.3491296768188477
-7.994609355926514 -21.08003807067871 -2.3506462574005127
-4.50894021987915 -22.08622932434082 -2.350299835205078
-2.717778205871582 -22.382694244384766 -2.3508546352386475
0.9079784750938416 -22.53166961669922 -2.35115122795105
2.7178709506988525 -22.38374900817871 -2.3509631156921387
7.989750862121582 -21.067264556884766 -2.34922194480896
9.654315948486328 -20.346054077148438 -2.348069906234741
12.790483474731445 -18.530214309692383 -2.347599983215332
14.240068435668945 -17.44091796875 -2.347599983215332
15.597299575805664 -16.238506317138672 -2.347599983215332
16.8533878326416 -14.930781364440918 -2.347599983215332
22.74359893798828 -7.592929363250732 -2.5
23.667064666748047 -3.846259593963623 -2.5
15.084155082702637 -1.217714786529541 -1.577852725982666
-21.648893356323242 0.0 -2.5
-21.578699111938477 -1.7420116662979126 -2.5
-21.368541717529297 -3.472734212875366 -2.5
-20.534767150878906 -6.855507850646973 -2.5
-11.3785982131958 -13.936229705810547 -2.0776357650756836
-8.714970588684082 -18.36638641357422 -2.347599983215332
-7.208837509155273 -19.00810432434082 -2.347599983215332
-5.655947208404541 -19.52654266357422 -2.347599983215332
-4.066352367401123 -19.918338775634766 -2.347599983215332
0.8185546398162842 -20.31267547607422 -2.347599983215332
7.208813190460205 -19.008113861083984 -2.347599983215332
8.714961051940918 -18.366395950317383 -2.347599983215332
11.548280715942383 -16.7305850982666 -2.347599983215332
12.857094764709473 -15.747079849243164 -2.347599983215332
16.252044677734375 -12.212577819824219 -2.347599983215332
19.169130325317383 -10.060731887817383 -2.5
20.534759521484375 -6.85549783706665 -2.5
21.01980972290039 -5.180927753448486 -2.5
15.084155082702637 -1.217714786529541 -1.747575283050537
-19.664026260375977 -1.587441325187683 -2.5
-19.47252655029297 -3.164599657058716 -2.5
-19.15472412109375 -4.72122049331665 -2.5
-18.712718963623047 -6.247226238250732 -2.5
-18.14933967590332 -7.732714653015137 -2.5
-16.67390251159668 -10.543915748596191 -2.5
-15.730602264404297 -11.820780754089355 -2.4935340881347656
-14.075553894042969 -12.469843864440918 -2.3830018043518066
-10.5236177444458 -15.246054649353027 -2.347599983215332
-9.262700080871582 -16.04341697692871 -2.347599983215332
-7.941694259643555 -16.736738204956055 -2.347599983215332
-6.569189071655273 -17.321523666381836 -2.347599983215332
-5.154101371765137 -17.793926239013672 -2.347599983215332
0.745922863483429 -18.510332107543945 -2.347599983215332
3.7055418491363525 -18.15096664428711 -2.347599983215332
5.154072284698486 -17.793954849243164 -2.347599983215332
6.569174766540527 -17.321523666381836 -2.347599983215332
7.941674709320068 -16.736738204956055 -2.347599983215332
11.716279029846191 -14.349823951721191 -2.347599983215332
12.832968711853027 -13.360527038574219 -2.347599983215332
14.38851547241211 -12.747109413146973 -2.4359891414642334
16.673887252807617 -10.543925285339355 -2.5
18.14933967590332 -7.73269510269165 -2.5
19.154720306396484 -4.721210956573486 -2.5
-17.8814640045166 -2.906015634536743 -2.5
-17.183744430541992 -5.736757755279541 -2.5
-15.311515808105469 -9.682412147521973 -2.5
-14.48275375366211 -10.883075714111328 -2.5
-2.0505566596984863 -16.88765525817871 -2.347599983215332
0.684985339641571 -16.99789047241211 -2.347599983215332
6.032412052154541 -15.906220436096191 -2.347599983215332
8.505839347839355 -14.732577323913574 -2.347599983215332
9.663740158081055 -14.000350952148438 -2.347599983215332
11.09902286529541 -13.593828201293945 -2.421800374984741
12.528002738952637 -13.0430269241333 -2.4957306385040283
13.560063362121582 -12.013163566589355 -2.5
16.04096221923828 -8.4189453125 -2.5
16.666406631469727 -7.100878715515137 -2.5
17.881454467773438 -2.906005859375 -2.5
-16.7437686920166 0.0 -2.5
-16.257219314575195 -4.007040977478027 -2.5
-15.403935432434082 -6.56298828125 -2.5
-14.825876235961914 -7.781191349029541 -2.5
-13.385690689086914 -10.058671951293945 -2.5
-12.53288745880127 -11.103154182434082 -2.5
-11.5988130569458 -12.075634956359863 -2.5
-10.58810043334961 -12.968056678771973 -2.4996650218963623
-6.740365982055664 -14.20499038696289 -2.347599983215332
-5.575483322143555 -14.70131778717041 -2.347599983215332
-4.374438285827637 -15.10228443145752 -2.347599983215332
-1.8952147960662842 -15.6083984375 -2.347599983215332
-0.6331103444099426 -15.71029281616211 -2.347599983215332
3.145014524459839 -15.405302047729492 -2.347599983215332
14.151655197143555 -8.948984146118164 -2.5
15.403905868530273 -6.562968730926514 -2.5
15.882060050964355 -5.302206993103027 -2.5
16.189228057861328 -1.306923747062683 -2.425067186355591
-15.561100959777832 0.0 -2.5
-15.510642051696777 -1.252138614654541 -2.5
-12.440202713012695 -9.348212242126465 -2.5
-11.647645950317383 -10.3189058303833 -2.5
-10.779553413391113 -11.222695350646973 -2.5
-9.841537475585938 -12.053690910339355 -2.5
-6.656865119934082 -14.029023170471191 -2.4947280883789062
-5.439306735992432 -14.342235565185547 -2.4643237590789795
-4.196830749511719 -14.48910140991211 -2.4234619140625
-1.7821385860443115 -14.677021026611328 -2.37528920173645
0.5938818454742432 -14.737519264221191 -2.3696115016937256
1.7875096797943115 -14.721542358398438 -2.3824925422668457
2.995659112930298 -14.673710823059082 -2.406064510345459
4.226650238037109 -14.592089653015137 -2.4406888484954834
5.489140510559082 -14.473700523376465 -2.4869134426116943
9.841527938842773 -12.053690910339355 -2.5
10.779536247253418 -11.222704887390137 -2.5
11.6476411819458 -10.318886756896973 -2.5
12.440199851989746 -9.348183631896973 -2.5
13.77865219116211 -7.231601238250732 -2.5
14.315878868103027 -6.099404335021973 -2.5
14.76025390625 -4.927695274353027 -2.5
15.359569549560547 -2.496171712875366 -2.5
15.5106201171875 -1.2521483898162842 -2.5
-14.483949661254883 -1.1692479848861694 -2.5
-14.108810424804688 -3.4775097370147705 -2.5
-13.783242225646973 -4.601503849029541 -2.5
-12.866613388061523 -6.752910137176514 -2.5
-11.6167573928833 -8.72940444946289 -2.5
-10.066018104553223 -10.47982406616211 -2.5
-9.190116882324219 -11.255810737609863 -2.5
-8.254590034484863 -11.95882797241211 -2.5
-6.229360103607178 -13.12808609008789 -2.5
-1.749184489250183 -14.405683517456055 -2.4966342449188232
-0.5841308236122131 -14.495136260986328 -2.4958462715148926
0.5841748118400574 -14.49648380279541 -2.4960803985595703
1.7496435642242432 -14.409716606140137 -2.4973361492156982
2.906132698059082 -14.235185623168945 -2.499612808227539
7.265527248382568 -12.584247589111328 -2.5
8.2545747756958 -11.95882797241211 -2.5
10.06600570678711 -10.47982406616211 -2.5
10.876640319824219 -9.635859489440918 -2.5
12.86660099029541 -6.752910137176514 -2.5
14.10879898071289 -3.4775097370147705 -2.5
14.342880249023438 -2.330937385559082 -2.5
14.483935356140137 -1.1692479848861694 -2.5
-13.625685691833496 9.765624781721272e-06 -2.5
-13.229741096496582 -3.2608299255371094 -2.5
-12.924455642700195 -4.314795017242432 -2.5
-6.812851428985596 -11.800166130065918 -2.5
-5.841230392456055 -12.310097694396973 -2.5
-4.831733226776123 -12.740234375 -2.5
-2.7254931926727295 -13.350302696228027 -2.5
0.5486425757408142 -13.614608764648438 -2.5
2.725478410720825 -13.350302696228027 -2.5
4.831713676452637 -12.740214347839355 -2.5
5.84121561050415 -12.310107231140137 -2.5
6.812831878662109 -11.800175666809082 -2.5
7.740258693695068 -11.213701248168945 -2.5
8.6174898147583 -10.554511070251465 -2.5
10.892939567565918 -8.185507774353027 -2.5
11.516274452209473 -7.282451152801514 -2.5
12.064926147460938 -6.33214807510376 -2.5
12.5353364944458 -5.340790748596191 -2.5
13.229731559753418 -3.2608397006988525 -2.5
13.449223518371582 -2.1856932640075684 -2.5
-12.823461532592773 1.9531249563442543e-05 -2.5
-12.781874656677246 -1.031835913658142 -2.5
-11.797324180603027 -5.026357173919678 -2.5
-10.251618385314941 -7.703574180603027 -2.5
-9.598493576049805 -8.50350570678711 -2.5
-8.88311767578125 -9.248291015625 -2.5
-8.110138893127441 -9.933095932006836 -2.5
-6.411733150482178 -11.105420112609863 -2.5
-5.497328758239746 -11.585322380065918 -2.5
-4.547260761260986 -11.99013614654541 -2.5
-3.5677196979522705 -12.317148208618164 -2.5
-0.5163525342941284 -12.8130464553833 -2.5
2.565014600753784 -12.564287185668945 -2.5
5.497299671173096 -11.585331916809082 -2.5
6.411718368530273 -11.105420112609863 -2.5
8.110121726989746 -9.933085441589355 -2.5
8.8831148147583 -9.248300552368164 -2.5
9.598481178283691 -8.50350570678711 -2.5
10.838241577148438 -6.853701114654541 -2.5
11.354589462280273 -5.959355354309082 -2.5
11.797304153442383 -5.026347637176514 -2.5
12.450819969177246 -3.06884765625 -2.5
12.657387733459473 -2.057011604309082 -2.5
12.781865119934082 -1.0318554639816284 -2.5
-12.06826400756836 -0.9742382764816284 -2.5
-11.950732231140137 -1.94216787815094 -2.5
-11.484420776367188 -3.834052562713623 -2.5
-10.720678329467773 -5.626620769500732 -2.5
-10.233160972595215 -6.471054553985596 -2.5
-9.679262161254883 -7.273486137390137 -2.5
-8.387177467346191 -8.731963157653809 -2.5
-7.657336235046387 -9.378535270690918 -2.5
-6.877853870391846 -9.96426773071289 -2.5
-5.190405368804932 -10.938525199890137 -2.5
-3.368535041809082 -11.629472732543945 -2.5
-2.421816349029541 -11.862812042236328 -2.5
-1.459414005279541 -12.019238471984863 -2.5
0.48750486969947815 -12.097675323486328 -2.5
1.4593944549560547 -12.019218444824219 -2.5
2.421806573867798 -11.862812042236328 -2.5
3.3685107231140137 -11.629472732543945 -2.5
4.293368816375732 -11.32071304321289 -2.5
6.877841472625732 -9.964277267456055 -2.5
7.657333850860596 -9.378524780273438 -2.5
11.13866138458252 -4.745732307434082 -2.5
11.48439884185791 -3.834062337875366 -2.5
11.95071792602539 -1.94216787815094 -2.5
12.068246841430664 -0.9742382764816284 -2.5
-11.464530944824219 9.765624781721272e-06 -2.5
-11.427350997924805 -0.92249995470047 -2.5
-9.689702033996582 -6.127392292022705 -2.5
-9.165228843688965 -6.887216567993164 -2.5
-8.581313133239746 -7.602363109588623 -2.5
-7.941750526428223 -8.26822280883789 -2.5
-7.250690937042236 -8.880477905273438 -2.5
-6.512587547302246 -9.435097694396973 -2.5
-3.189638614654541 -11.011855125427246 -2.5
-2.293203115463257 -11.23281192779541 -2.5
-0.4616357386112213 -11.455214500427246 -2.5
0.46162107586860657 -11.455204963684082 -2.5
2.2931981086730957 -11.23282241821289 -2.5
3.1896190643310547 -11.011855125427246 -2.5
4.065361022949219 -10.719511032104492 -2.5
4.914731502532959 -10.357606887817383 -2.5
5.732250690460205 -9.928564071655273 -2.5
9.689687728881836 -6.127392292022705 -2.5
10.151312828063965 -5.327822208404541 -2.5
10.547109603881836 -4.493691444396973 -2.5
10.87451171875 -3.630439281463623 -2.5
-10.742768287658691 -1.7458593845367432 -2.5
-10.567450523376465 -2.604628801345825 -2.5
-10.32360553741455 -3.4465038776397705 -2.5
-9.637045860290527 -5.057909965515137 -2.5
-9.198805809020996 -5.816953182220459 -2.5
-8.14657974243164 -7.217226505279541 -2.5
-6.883347034454346 -8.430556297302246 -2.5
-5.4418625831604 -9.425546646118164 -2.5
-4.665761470794678 -9.832870483398438 -2.5
-3.8594090938568115 -10.17642593383789 -2.5
-3.0280418395996094 -10.453984260559082 -2.5
1.3118798732757568 -10.804335594177246 -2.5
6.883334636688232 -8.43057632446289 -2.5
7.539399147033691 -7.849335670471191 -2.5
9.637025833129883 -5.057900428771973 -2.5
10.567436218261719 -2.604628801345825 -2.5
-10.22225284576416 -1.6612792015075684 -2.5
-10.055421829223633 -2.4784374237060547 -2.5
-9.5276460647583 -4.059326171875 -2.5
-9.170109748840332 -4.812822341918945 -2.5
-8.279314041137695 -6.221494197845459 -2.5
-7.751855373382568 -6.867519378662109 -2.5
-6.54983377456665 -8.022079467773438 -2.5
-5.178188323974609 -8.968856811523438 -2.5
-4.439702033996582 -9.3564453125 -2.5
-1.248329997062683 -10.280839920043945 -2.5
-0.41701170802116394 -10.3479585647583 -2.5
1.248315453529358 -10.280839920043945 -2.5
3.6724021434783936 -9.683359146118164 -2.5
6.549824237823486 -8.022079467773438 -2.5
7.174091815948486 -7.46902322769165 -2.5
8.279306411743164 -6.221484184265137 -2.5
8.75308609008789 -5.535117149353027 -2.5
9.170087814331055 -4.812841892242432 -2.5
9.527636528015137 -4.059335708618164 -2.5
9.823373794555664 -3.2795116901397705 -2.5
10.055410385131836 -2.4784276485443115 -2.5
-9.875314712524414 9.765624781721272e-06 -2.5
-9.84328556060791 -0.7946191430091858 -2.5
-9.747428894042969 -1.5841113328933716 -2.5
-9.58835220336914 -2.3633203506469727 -2.5
-9.367094993591309 -3.127187490463257 -2.5
-9.085089683532715 -3.870781183242798 -2.5
-6.840871334075928 -7.122079849243164 -2.5
-6.245593070983887 -7.649462699890137 -2.5
-5.609824180603027 -8.127206802368164 -2.5
-4.937653541564941 -8.55224609375 -2.5
-2.747485399246216 -9.485390663146973 -2.5
-1.190346598625183 -9.803300857543945 -2.5
0.3976220488548279 -9.86727523803711 -2.5
1.9753124713897705 -9.675722122192383 -2.5
4.233457088470459 -8.921835899353027 -2.5
6.840854167938232 -7.12209939956665 -2.5
7.391762733459473 -6.548515319824219 -2.5
7.894731044769287 -5.932499885559082 -2.5
8.346498489379883 -5.277987957000732 -2.5
9.085067749023438 -3.8707714080810547 -2.5
9.367079734802246 -3.127197265625 -2.5
9.747406959533691 -1.5840917825698853 -2.5
-9.434614181518555 0.0 -2.5
-9.404020309448242 -0.7591601610183716 -2.5
-9.312434196472168 -1.5134081840515137 -2.5
-8.679640769958496 -3.6980466842651367 -2.5
-7.542428970336914 -5.667763710021973 -2.5
-7.061903953552246 -6.256289005279541 -2.5
-6.535585880279541 -6.804257869720459 -2.5
-4.044550895690918 -8.523681640625 -2.5
-3.3455615043640137 -8.821494102478027 -2.5
-2.624882698059082 -9.062108993530273 -2.5
-1.1372265815734863 -9.365790367126465 -2.5
-0.37990233302116394 -9.426933288574219 -2.5
0.3798877000808716 -9.426953315734863 -2.5
1.13720703125 -9.365800857543945 -2.5
1.8871581554412842 -9.243926048278809 -2.5
3.3455419540405273 -8.821484565734863 -2.5
4.717299461364746 -8.170595169067383 -2.5
5.966855525970459 -7.308075904846191 -2.5
6.535571098327637 -6.804267406463623 -2.5
7.061894416809082 -6.256308555603027 -2.5
7.542421817779541 -5.66775369644165 -2.5
8.679633140563965 -3.6980466842651367 -2.5
8.949057579040527 -2.9876365661621094 -2.5
9.312421798706055 -1.5134081840515137 -2.5
-8.912360191345215 -1.448388695716858 -2.5
-8.766908645629883 -2.1608495712280273 -2.5
-8.564604759216309 -2.859267473220825 -2.5
-7.995036602020264 -4.196113109588623 -2.5
-7.631467342376709 -4.825829982757568 -2.5
-7.218398094177246 -5.424257755279541 -2.5
-6.758515357971191 -5.987509727478027 -2.5
-6.254809379577637 -6.511923789978027 -2.5
-5.710529804229736 -6.994111061096191 -2.5
-3.8707737922668457 -8.157500267028809 -2.5
-3.2018308639526367 -8.442519187927246 -2.5
-1.8060985803604126 -8.846796989440918 -2.5
-1.0883740186691284 -8.963446617126465 -2.5
1.088354468345642 -8.963427543640137 -2.5
1.8060839176177979 -8.846776962280273 -2.5
2.512094736099243 -8.672773361206055 -2.5
3.2018163204193115 -8.442509651184082 -2.5
4.514628887176514 -7.819570064544678 -2.5
5.129209041595459 -7.43093729019165 -2.5
5.710517406463623 -6.994111061096191 -2.5
6.25478982925415 -6.511923789978027 -2.5
7.2183837890625 -5.424257755279541 -2.5
-8.627094268798828 -0.6964452862739563 -2.5
-8.543070793151855 -1.3883788585662842 -2.5
-7.962570667266846 -3.392519474029541 -2.5
-6.478478908538818 -5.739413738250732 -2.5
-5.473920822143555 -6.704316139221191 -2.5
-4.916691780090332 -7.123036861419678 -2.5
-3.7104125022888184 -7.819491863250732 -2.5
-1.043276309967041 -8.592041015625 -2.5
0.34849607944488525 -8.648115158081055 -2.5
1.7312548160552979 -8.480234146118164 -2.5
3.069155216217041 -8.09268569946289 -2.5
3.710390567779541 -7.819462776184082 -2.5
5.473910808563232 -6.704326152801514 -2.5
5.995625019073486 -6.242099285125732 -2.5
6.919291973114014 -5.199521541595459 -2.5
7.315253734588623 -4.625888347625732 -2.5
7.663749694824219 -4.02224588394165 -2.5
7.962558269500732 -3.392519474029541 -2.5
8.209716796875 -2.740800619125366 -2.5
8.543066024780273 -1.3883788585662842 -2.5
8.627084732055664 -0.6964452862739563 -2.5
-7.643820762634277 -3.256708860397339 -2.5
-7.356984615325928 -3.861220598220825 -2.5
-5.755632400512695 -5.992207050323486 -2.5
-5.254792213439941 -6.435937404632568 -2.5
-4.719875335693359 -6.837890625 -2.5
-4.154347896575928 -7.195507526397705 -2.5
-2.946305990219116 -7.768730163574219 -2.5
-1.0015136003494263 -8.248085975646973 -2.5
-0.3345654308795929 -8.301923751831055 -2.5
0.3345410227775574 -8.301923751831055 -2.5
1.6619433164596558 -8.140742301940918 -2.5
2.946284055709839 -7.768730163574219 -2.5
3.5618603229522705 -7.506454944610596 -2.5
4.719862937927246 -6.837900161743164 -2.5
6.219125747680664 -5.509667873382568 -2.5
6.642299652099609 -4.991357326507568 -2.5
7.022407054901123 -4.440693378448486 -2.5
8.067231178283691 -1.9883886575698853 -2.5
-7.8833909034729 -1.2811620235443115 -2.5
-7.754741191864014 -1.9113671779632568 -2.5
-6.750380516052246 -4.268661975860596 -2.5
-6.385009765625 -4.798007488250732 -2.5
-5.532663345336914 -5.760097503662109 -2.5
-4.537031173706055 -6.573007583618164 -2.5
-2.832167863845825 -7.46780252456665 -2.5
-2.2220799922943115 -7.671474456787109 -2.5
-1.5975780487060547 -7.825390338897705 -2.5
-0.32160642743110657 -7.980321884155273 -2.5
0.3215966820716858 -7.980321884155273 -2.5
1.5975682735443115 -7.825390338897705 -2.5
2.2220702171325684 -7.671464443206787 -2.5
2.8321533203125 -7.467792987823486 -2.5
3.423881769180298 -7.215683460235596 -2.5
3.993398427963257 -6.91677713394165 -2.5
5.051220417022705 -6.186630725860596 -2.5
5.532651424407959 -5.760107517242432 -2.5
7.071962833404541 -3.7116503715515137 -2.5
7.347700119018555 -3.130556583404541 -2.5
7.754775047302246 -1.9115917682647705 -2.5
7.960907936096191 -0.6426562070846558 -2.5
-7.58743143081665 -1.2330663204193115 -2.5
-7.463613033294678 -1.8396093845367432 -2.5
-6.806477069854736 -3.5723047256469727 -2.5
-6.4969482421875 -4.1083984375 -2.5
-5.324958324432373 -5.543857097625732 -2.5
-4.36669921875 -6.326230525970459 -2.5
-2.725847005844116 -7.187421798706055 -2.5
-0.9265722632408142 -7.630918025970459 -2.5
-0.30952635407447815 -7.680712699890137 -2.5
0.3095166087150574 -7.680722713470459 -2.5
0.9265576004981995 -7.630908012390137 -2.5
1.5375927686691284 -7.531601428985596 -2.5
2.725834846496582 -7.187441349029541 -2.5
3.8434863090515137 -6.657109260559082 -2.5
4.366684436798096 -6.326240062713623 -2.5
5.324936389923096 -5.543847560882568 -2.5
6.145283222198486 -4.617870807647705 -2.5
6.806459903717041 -3.5722949504852295 -2.5
7.071840763092041 -3.0130271911621094 -2.5
7.463588714599609 -1.8396093845367432 -2.5
7.587416648864746 -1.2330663204193115 -2.5
-7.31096887588501 -1.188134789466858 -2.5
-7.025693416595459 -2.345507860183716 -2.5
-6.814187049865723 -2.9032421112060547 -2.5
-6.260219573974609 -3.9587109088897705 -2.5
-5.130929946899414 -5.341845512390137 -2.5
-3.175280809402466 -6.691718578338623 -2.5
-0.8928076028823853 -7.352851390838623 -2.5
-0.2982421815395355 -7.400859355926514 -2.5
0.2982421815395355 -7.400859355926514 -2.5
1.4815576076507568 -7.257177352905273 -2.5
2.6265039443969727 -6.925537109375 -2.5
3.703432559967041 -6.414540767669678 -2.5
4.207578182220459 -6.09573221206665 -2.5
4.684438228607178 -5.737402439117432 -2.5
5.544126033782959 -4.911660194396973 -2.5
6.260210037231445 -3.9587011337280273 -2.5
6.558461666107178 -3.442148447036743 -2.5
6.814165115356445 -2.9032421112060547 -2.5
7.191640377044678 -1.7725781202316284 -2.5
7.382853984832764 -0.595996081829071 -2.5
-6.936992168426514 -1.709814429283142 -2.5
-6.776908874511719 -2.262460947036743 -2.5
-6.572883129119873 -2.800429582595825 -2.5
-6.0385422706604 -3.818535089492798 -2.5
-5.711691856384277 -4.292040824890137 -2.5
-5.34780740737915 -4.737724304199219 -2.5
-3.0628392696380615 -6.454765319824219 -2.5
-2.533513069152832 -6.680302619934082 -2.5
-1.4291088581085205 -7.000195026397705 -2.5
-0.8611913919448853 -7.092499732971191 -2.5
1.4290966987609863 -7.000195026397705 -2.5
3.062822103500366 -6.454775333404541 -2.5
3.5722899436950684 -6.187382698059082 -2.5
4.5185546875 -5.534218788146973 -2.5
4.949233055114746 -5.152685642242432 -2.5
5.347802639007568 -4.737734317779541 -2.5
6.038535118103027 -3.818535089492798 -2.5
6.326210975646973 -3.320253849029541 -2.5
6.572865962982178 -2.800429582595825 -2.5
7.052065372467041 -1.1460546255111694 -2.5
-6.898420333862305 9.765624781721272e-06 -2.5
-6.876042366027832 -0.5550780892372131 -2.5
-6.543405532836914 -2.1844921112060547 -2.5
-6.108249187469482 -3.2058496475219727 -2.5
-5.163532733917236 -4.574482440948486 -2.5
-3.44921612739563 -5.974199295043945 -2.5
-2.9573094844818115 -6.232363224029541 -2.5
-1.3798681497573853 -6.758984088897705 -2.5
-0.8315234184265137 -6.848105430603027 -2.5
2.4462010860443115 -6.450117111206055 -2.5
3.9187400341033936 -5.67727518081665 -2.5
4.362865924835205 -5.343544960021973 -2.5
4.778691291809082 -4.975136756896973 -2.5
5.163525104522705 -4.574482440948486 -2.5
-6.473124980926514 -1.5954785346984863 -2.5
-6.323752403259277 -2.1111814975738525 -2.5
-6.133364200592041 -2.613173723220825 -2.5
-5.903212547302246 -3.0982322692871094 -2.5
-5.329760551452637 -4.005038738250732 -2.5
-4.990204811096191 -4.42092752456665 -2.5
-4.6182861328125 -4.808144569396973 -2.5
-4.216423034667969 -5.164150238037109 -2.5
-3.7871947288513184 -5.486699104309082 -2.5
-3.33343243598938 -5.773642539978027 -2.5
-2.8580322265625 -6.023144245147705 -2.5
-1.854836344718933 -6.403613090515137 -2.5
-1.3335473537445068 -6.532109260559082 -2.5
-0.26844725012779236 -6.661425590515137 -2.5
2.364086866378784 -6.233613014221191 -2.5
2.8580174446105957 -6.023154258728027 -2.5
4.618281364440918 -4.808125019073486 -2.5
5.329751014709473 -4.005038738250732 -2.5
5.634741306304932 -3.5632030963897705 -2.5
6.323735237121582 -2.1111717224121094 -2.5
6.473110198974609 -1.5954687595367432 -2.5
6.58050012588501 -1.069423794746399 -2.5
6.645214557647705 -0.5364453196525574 -2.5
-6.4485764503479 0.0 -2.5
-6.261183738708496 -1.54324209690094 -2.5
-5.7099289894104 -2.996777296066284 -2.5
-5.450261116027832 -3.446523427963257 -2.5
-4.826818943023682 -4.276181697845459 -2.5
-4.467089653015137 -4.650702953338623 -2.5
-4.078366756439209 -4.995097637176514 -2.5
-3.6632080078125 -5.307050704956055 -2.5
-3.2242918014526367 -5.584609031677246 -2.5
-2.764455556869507 -5.82595682144165 -2.5
-1.289880394935608 -6.318242073059082 -2.5
-0.2596533000469208 -6.443329811096191 -2.5
1.2898730039596558 -6.318222522735596 -2.5
2.286679744720459 -6.029501914978027 -2.5
3.2242822647094727 -5.584619045257568 -2.5
4.078359127044678 -4.995087623596191 -2.5
5.450253963470459 -3.446542978286743 -2.5
5.932548522949219 -2.5276172161102295 -2.5
6.36505126953125 -1.0344042778015137 -2.5
6.427646160125732 -0.5188866853713989 -2.5
-6.06103515625 -1.493896484375 -2.5
-5.92117166519165 -1.9767577648162842 -2.5
-5.742897987365723 -2.4467968940734863 -2.5
-5.276040077209473 -3.3363475799560547 -2.5
-4.990470886230469 -3.750077962875366 -2.5
-3.94799542427063 -4.835400104522705 -2.5
-3.5461082458496094 -5.137402057647705 -2.5
-1.7367602586746216 -5.995956897735596 -2.5
-0.7524487376213074 -6.196904182434082 -2.5
1.7367479801177979 -5.995956897735596 -2.5
3.546098470687866 -5.137412071228027 -2.5
4.324272155761719 -4.502040863037109 -2.5
4.67251443862915 -4.139482498168945 -2.5
6.061013221740723 -1.4939062595367432 -2.5
6.22216796875 -0.5023046731948853 -2.5
-6.047380447387695 0.0 -2.5
-6.027763366699219 -0.48659178614616394 -2.5
-5.871662616729736 -1.4472362995147705 -2.5
-5.736166954040527 -1.914980411529541 -2.5
-5.563474178314209 -2.370361328125 -2.5
-5.354694843292236 -2.8103418350219727 -2.5
-5.111181735992432 -3.232109308242798 -2.5
-4.834538459777832 -3.6329100131988525 -2.5
-3.435307502746582 -4.976874828338623 -2.5
-3.023696184158325 -5.237167835235596 -2.5
-1.2096288204193115 -5.92516565322876 -2.5
-0.7289453148841858 -6.003271579742432 -2.5
-0.2435009777545929 -6.042460918426514 -2.5
0.2434960901737213 -6.042460918426514 -2.5
1.6824804544448853 -5.808603286743164 -2.5
2.144418954849243 -5.654384613037109 -2.5
3.8246335983276367 -4.684326171875 -2.5
4.52651834487915 -4.010146617889404 -2.5
5.354682445526123 -2.81036114692688 -2.5
5.563461780548096 -2.370361328125 -2.5
5.736149787902832 -1.9150097370147705 -2.5
5.969052791595459 -0.9700585603713989 -2.5
6.027760982513428 -0.4866113066673279 -2.5
-5.786608695983887 -0.9404101371765137 -2.5
-5.692170143127441 -1.4029881954193115 -2.5
-5.560824871063232 -1.8564550876617432 -2.5
-5.393403053283691 -2.2978906631469727 -2.5
-4.686752796173096 -3.521845579147339 -2.5
-4.061108112335205 -4.228046894073486 -2.5
-2.0788817405700684 -5.481533050537109 -2.5
-1.6310620307922363 -5.631044864654541 -2.5
0.7066357135772705 -5.819755554199219 -2.5
1.1726512908935547 -5.744023323059082 -2.5
1.6310497522354126 -5.631044864654541 -2.5
2.5132129192352295 -5.296484470367432 -2.5
2.9312596321105957 -5.077089786529541 -2.5
3.707714796066284 -4.541132926940918 -2.5
4.061103343963623 -4.22805643081665 -2.5
4.388154029846191 -3.887568235397339 -2.5
4.686743259429932 -3.521855354309082 -2.5
4.954941272735596 -3.13330078125 -2.5
5.190996170043945 -2.724443197250366 -2.5
5.393393516540527 -2.297900438308716 -2.5
5.786599159240723 -0.9404101371765137 -2.5
5.843498229980469 -0.47172850370407104 -2.5
-5.39434814453125 -1.8008886575698853 -2.5
-5.035617351531982 -2.642871141433716 -2.5
-4.806623458862305 -3.0395116806030273 -2.5
-4.2568039894104 -3.771181583404541 -2.5
-3.9395408630371094 -4.101503849029541 -2.5
-3.230605363845825 -4.680331707000732 -2.5
-2.43798828125 -5.137919902801514 -2.5
-1.582238793373108 -5.462480545043945 -2.5
-0.6855077743530273 -5.645546913146973 -2.5
-0.22899413108825684 -5.682412147521973 -2.5
0.6854833960533142 -5.645546913146973 -2.5
1.1375439167022705 -5.572089672088623 -2.5
1.5822265148162842 -5.462490081787109 -2.5
2.4379734992980957 -5.137939453125 -2.5
3.230600595474243 -4.680322170257568 -2.5
3.5967187881469727 -4.405185222625732 -2.5
4.546445369720459 -3.4164257049560547 -2.5
4.806606292724609 -3.039501905441284 -2.5
5.035605430603027 -2.642890453338623 -2.5
5.231943130493164 -2.2291111946105957 -2.5
5.394350528717041 -1.8008984327316284 -2.5
5.668571472167969 -0.45759764313697815 -2.5
-5.520165920257568 0.0 -2.5
-5.448678970336914 -0.885498046875 -2.5
-5.359763145446777 -1.3210644721984863 -2.5
-5.236081600189209 -1.748046875 -2.5
-5.078444480895996 -2.163701057434082 -2.5
-4.887863636016846 -2.5653319358825684 -2.5
-3.8239500522613525 -3.981142520904541 -2.5
-2.366459846496582 -4.987177848815918 -2.5
-1.10418701171875 -5.408583641052246 -2.5
-0.6653808355331421 -5.479892253875732 -2.5
-0.22228270769119263 -5.515673637390137 -2.5
0.22226805984973907 -5.515673637390137 -2.5
0.6653759479522705 -5.479911804199219 -2.5
1.1041747331619263 -5.408593654632568 -2.5
1.9574706554412842 -5.161425590515137 -2.5
3.13580060005188 -4.54299783706665 -2.5
3.4911961555480957 -4.275927543640137 -2.5
4.131889343261719 -3.660517454147339 -2.5
5.078422546386719 -2.1637206077575684 -2.5
5.359743595123291 -1.3210644721984863 -2.5
-5.361279010772705 9.765624781721272e-06 -2.5
-5.343891620635986 -0.43138670921325684 -2.5
-5.291845798492432 -0.85999995470047 -2.5
-5.085366249084473 -1.6977245807647705 -2.5
-4.747168064117432 -2.491503953933716 -2.5
-4.531296253204346 -2.8654003143310547 -2.5
-3.3907201290130615 -4.152851581573486 -2.5
-3.0455589294433594 -4.412226676940918 -2.5
-2.29833984375 -4.843632698059082 -2.5
-1.491601586341858 -5.149580001831055 -2.5
-1.0723998546600342 -5.252900123596191 -2.5
-0.6462377905845642 -5.322167873382568 -2.5
-0.2158837914466858 -5.356914043426514 -2.5
0.21586425602436066 -5.356914043426514 -2.5
0.6462353467941284 -5.322167873382568 -2.5
2.298330068588257 -4.843642234802246 -2.5
2.6806297302246094 -4.642978191375732 -2.5
3.045542001724243 -4.412226676940918 -2.5
3.713876962661743 -3.8665525913238525 -2.5
4.286015510559082 -3.2207324504852295 -2.5
4.747165203094482 -2.491503953933716 -2.5
5.085353851318359 -1.6977343559265137 -2.5
5.205466270446777 -1.2830370664596558 -2.5
5.343874454498291 -0.431396484375 -2.5
