ply
format ascii 1.0
element vertex 899
property float x
property float y
property float z
end_header
-15.935976028442383 14.118026733398438 5.452574253082275
-20.215038299560547 15.190605163574219 6.47601842880249
2.546254873275757 20.970380783081055 5.161355018615723
0.5772607326507568 14.3247652053833 3.5028271675109863
-0.4555322229862213 11.30394458770752 2.764152765274048
-1.1831103563308716 9.743837356567383 2.3982138633728027
-2.0809619426727295 10.193222045898438 2.541893243789673
-2.9763476848602295 10.27553653717041 2.6138362884521484
-5.186791896820068 10.930917739868164 2.956188201904297
-6.583086013793945 11.40224552154541 3.216911554336548
-8.151918411254883 11.810068130493164 3.5062334537506104
-12.614672660827637 13.133251190185547 4.449332237243652
-20.539785385131836 15.434638023376465 6.277518272399902
2.546254873275757 20.970380783081055 4.913951396942139
-0.4555322229862213 11.30394458770752 2.6316559314727783
-2.0809619426727295 10.193222045898438 2.420050621032715
-12.402299880981445 12.912158012390137 4.164741516113281
-15.935966491699219 14.118017196655273 4.952525615692139
2.546259641647339 20.970399856567383 4.66782283782959
0.5772607326507568 14.324785232543945 3.16788387298584
-2.0809619426727295 10.193222045898438 2.298834800720215
-2.9763524532318115 10.275527000427246 2.363898754119873
-5.186791896820068 10.930917739868164 2.673513650894165
-20.643047332763672 15.512235641479492 5.705793380737305
-0.4555322229862213 11.303964614868164 2.368669271469116
-1.1831103563308716 9.743837356567383 2.055088758468628
-2.0809619426727295 10.193222045898438 2.178208827972412
-4.091899394989014 10.78945255279541 2.4160265922546387
-6.670751571655273 11.554091453552246 2.7933573722839355
-8.151918411254883 11.810068130493164 3.0045769214630127
-10.118754386901855 12.39322280883789 3.3498528003692627
-15.935956954956055 14.118017196655273 4.457607746124268
-20.643047332763672 15.512235641479492 5.406396389007568
2.497939348220825 20.572412490844727 4.0997843742370605
-0.4555322229862213 11.30394458770752 2.2381041049957275
-1.1831103563308716 9.743837356567383 1.9418087005615234
-5.186791896820068 10.930917739868164 2.393594264984131
-10.118749618530273 12.393232345581055 3.16520619392395
-12.614663124084473 13.133251190185547 3.6025755405426025
-15.685014724731445 13.895692825317383 4.145573616027832
0.5772607326507568 14.324785232543945 2.6714794635772705
-0.4555322229862213 11.303964614868164 2.108097553253174
-4.091899394989014 10.78945255279541 2.150261163711548
-5.186791896820068 10.930927276611328 2.2545692920684814
-20.64302635192871 15.512235641479492 4.811685562133789
2.546259641647339 20.970399856567383 3.6946423053741455
-1.1831103563308716 9.743837356567383 1.716707706451416
-2.0809619426727295 10.193222045898438 1.819555640220642
-4.091894626617432 10.78945255279541 2.0182158946990967
-5.186791896820068 10.930917739868164 2.116119384765625
-10.118749618530273 12.393232345581055 2.798283100128174
-15.935966491699219 14.118017196655273 3.7236437797546387
-20.643056869506836 15.512235641479492 4.51621150970459
25.3184757232666 13.288164138793945 4.675075531005859
2.546259641647339 20.970399856567383 3.453845739364624
-1.1831103563308716 9.743837356567383 1.6048223972320557
-4.091894626617432 10.78945255279541 1.8866814374923706
-5.186791896820068 10.930917739868164 1.9782042503356934
-6.670761585235596 11.554091453552246 2.181340217590332
-8.151923179626465 11.810068130493164 2.3462817668914795
-10.118749618530273 12.393232345581055 2.615908145904541
-15.935966491699219 14.118017196655273 3.480957508087158
-20.42094612121582 10.717724800109863 3.770744562149048
-20.943538665771484 8.923202514648438 3.722118377685547
-1.1831103563308716 9.743837356567383 1.4933440685272217
-2.041147470474243 9.998251914978027 1.5525375604629517
-4.091894626617432 10.78945255279541 1.755623459815979
-6.670751571655273 11.554091453552246 2.029813766479492
-10.118754386901855 12.39322280883789 2.4341964721679688
-20.643047332763672 15.512235641479492 3.9285991191864014
-20.421937942504883 10.718241691589355 3.5089807510375977
2.546259641647339 20.970399856567383 2.9748125076293945
-0.4391259551048279 10.896757125854492 1.535764455795288
-1.1831103563308716 9.743837356567383 1.3822405338287354
-2.9763476848602295 10.27553653717041 1.506516695022583
-4.091894626617432 10.78945255279541 1.6250063180923462
-6.670761585235596 11.554091453552246 1.8787975311279297
-12.614667892456055 13.133251190185547 2.5644280910491943
-15.935966491699219 14.118017196655273 2.9981627464294434
2.546259641647339 20.970380783081055 2.736440420150757
-0.4391259551048279 10.896757125854492 1.4127044677734375
-2.041152238845825 9.998251914978027 1.321881651878357
-2.9763476848602295 10.27553653717041 1.3858004808425903
-4.013622760772705 10.583075523376465 1.46620512008667
-5.186791896820068 10.930917739868164 1.5673083066940308
-8.151918411254883 11.810068130493164 1.8589309453964233
-20.643035888671875 15.512226104736328 3.3449320793151855
-20.982572555541992 8.939824104309082 2.9544854164123535
2.546259641647339 20.970399856567383 2.4987568855285645
0.5772607326507568 14.3247652053833 1.695817232131958
-0.42409178614616394 10.523710250854492 1.2458364963531494
-1.1679247617721558 9.618779182434082 1.1461389064788818
-6.543159008026123 11.333075523376465 1.5479497909545898
-8.151918411254883 11.810068130493164 1.697465181350708
-10.118749618530273 12.393232345581055 1.892533540725708
-20.451244354248047 10.733633041381836 2.732069730758667
-20.987939834594727 8.942118644714355 2.698552131652832
14.068466186523438 14.64687442779541 2.1742660999298096
2.546259641647339 20.970399856567383 2.261690616607666
0.5772607326507568 14.324785232543945 1.5349297523498535
-0.43104979395866394 10.696367263793945 1.1461389064788818
-1.1831103563308716 9.743837356567383 1.0508898496627808
-6.543159008026123 11.333075523376465 1.4010900259017944
-10.118754386901855 12.39322280883789 1.712982177734375
14.0507173538208 14.628388404846191 1.94459867477417
0.5772607326507568 14.324746131896973 1.3744229078292847
-0.4391259551048279 10.896757125854492 1.0455154180526733
-1.1831103563308716 9.743837356567383 0.940999448299408
-2.041147470474243 9.998251914978027 0.9782986044883728
-2.9763524532318115 10.275527000427246 1.025604486465454
-4.013628005981445 10.583075523376465 1.0851104259490967
-8.151918411254883 11.810068130493164 1.375759243965149
-10.118754386901855 12.39322280883789 1.5338565111160278
-12.614667892456055 13.133251190185547 1.74580717086792
-15.935966491699219 14.118017196655273 2.0410852432250977
-20.643047332763672 15.512235641479492 2.4755239486694336
2.546254873275757 20.970380783081055 1.7891879081726074
-2.041147470474243 9.998251914978027 0.8642962574958801
-2.9763476848602295 10.27553653717041 0.9060885310173035
-4.013628005981445 10.583075523376465 0.9586602449417114
-5.186791896820068 10.930917739868164 1.0247650146484375
-6.543159008026123 11.333075523376465 1.108380675315857
-12.614663124084473 13.133251190185547 1.5423638820648193
-15.935966491699219 14.118017196655273 1.803233027458191
-20.643056869506836 15.512235641479492 2.187047004699707
2.5462646484375 20.970399856567383 1.553632140159607
-0.4497021436691284 11.159189224243164 0.8213879466056824
-2.0536131858825684 10.059277534484863 0.7550866603851318
-2.9763524532318115 10.275527000427246 0.7867968678474426
-5.186791896820068 10.930917739868164 0.8898489475250244
-6.543149471282959 11.333075523376465 0.9624554514884949
-12.614667892456055 13.133251190185547 1.3393038511276245
-20.643056869506836 15.512246131896973 1.8991097211837769
13.99794864654541 14.573456764221191 1.2612066268920898
0.5772607326507568 14.3247652053833 0.894791841506958
-2.0536131858825684 10.059277534484863 0.6407891511917114
-4.091889381408691 10.78945255279541 0.7202145457267761
-5.186791896820068 10.930917739868164 0.7551522850990295
-6.580151081085205 11.397148132324219 0.8213866949081421
-10.118754386901855 12.393232345581055 0.9985873103141785
-12.401972770690918 12.911815643310547 1.1174087524414062
-15.935966491699219 14.118017196655273 1.3288079500198364
-20.643035888671875 15.512226104736328 1.6116403341293335
13.98050308227539 14.555293083190918 1.0352638959884644
0.5772607326507568 14.324785232543945 0.7354028224945068
-0.4555322229862213 11.30394458770752 0.5803244113922119
-1.1831103563308716 9.743837356567383 0.5034970045089722
-2.0536131858825684 10.059277534484863 0.5266494750976562
-2.9763524532318115 10.275527000427246 0.5487661361694336
-4.091894626617432 10.78945255279541 0.5919277667999268
-6.583090782165527 11.40224552154541 0.6753802299499512
-8.151923179626465 11.810068130493164 0.736122727394104
-10.118744850158691 12.39322280883789 0.820715606212616
-15.9359712600708 14.118017196655273 1.092116355895996
-20.643056869506836 15.512235641479492 1.3245699405670166
13.963109970092773 14.537177085876465 0.8101394176483154
13.433293342590332 23.26713752746582 1.0798183679580688
0.5772607326507568 14.3247652053833 0.5762054324150085
-0.4555322229862213 11.303964614868164 0.45469269156455994
-1.1831103563308716 9.743837356567383 0.3944995105266571
-2.0536131858825684 10.059277534484863 0.4126397669315338
-4.091894626617432 10.78945255279541 0.4637860059738159
-5.186791896820068 10.930917739868164 0.486284464597702
-6.583086013793945 11.40224552154541 0.5291726589202881
-12.614667892456055 13.133251190185547 0.7319021224975586
13.94579029083252 14.519140243530273 0.5857742428779602
13.429582595825195 23.260711669921875 0.7815216183662415
0.5772607326507568 14.3247652053833 0.41714414954185486
-0.4555322229862213 11.30394458770752 0.3291766345500946
-6.583095550537109 11.40225601196289 0.3830956816673279
-8.151923179626465 11.810068130493164 0.417550653219223
-15.935966491699219 14.118017196655273 0.6194809079170227
-20.64306640625 15.512235641479492 0.7513338923454285
13.928510665893555 14.501161575317383 0.3621096611022949
2.546259641647339 20.970399856567383 0.3804342448711395
0.5772607326507568 14.324785232543945 0.2581881582736969
-1.1831103563308716 9.743837356567383 0.17676818370819092
-2.0809619426727295 10.193222045898438 0.18735839426517487
-2.9763476848602295 10.27553653717041 0.1926611214876175
-4.091894626617432 10.78945255279541 0.207814022898674
-6.583095550537109 11.40225601196289 0.23711302876472473
-8.151923179626465 11.810068130493164 0.2584384083747864
-10.118759155273438 12.393232345581055 0.28813719749450684
13.911283493041992 14.483232498168945 0.13908691704273224
13.429587364196777 23.260711669921875 0.18602599203586578
2.546259641647339 20.970380783081055 0.1463061422109604
0.5772607326507568 14.3247652053833 0.09929504245519638
-0.4555322229862213 11.303964614868164 0.07835357636213303
-2.0809619426727295 10.193222045898438 0.07205383479595184
-2.9763426780700684 10.275527000427246 0.07409301400184631
-4.091894626617432 10.78945255279541 0.07992034405469894
-8.151918411254883 11.810068130493164 0.09938934445381165
-10.118759155273438 12.39322280883789 0.11081084609031677
-15.935976028442383 14.118026733398438 0.14745453000068665
-20.643035888671875 15.512235641479492 0.17883971333503723
13.429582595825195 23.260711669921875 -0.11161559820175171
2.546259641647339 20.970399856567383 -0.08778594434261322
0.5772607326507568 14.3247652053833 -0.05957702547311783
-5.186791896820068 10.930917739868164 -0.05027984455227852
-6.583095550537109 11.40225601196289 -0.05471435561776161
-12.614672660827637 13.133251190185547 -0.07567565888166428
2.5462498664855957 20.970380783081055 -0.32189667224884033
0.5772656202316284 14.324755668640137 -0.21845915913581848
-0.4555322229862213 11.30394458770752 -0.1723913550376892
-1.1831103563308716 9.743837356567383 -0.14956893026828766
-4.091899394989014 10.78945255279541 -0.17583800852298737
-6.670751571655273 11.554091453552246 -0.20329833030700684
-8.151928901672363 11.810068130493164 -0.21867400407791138
-10.118754386901855 12.39322280883789 -0.24380172789096832
-12.614667892456055 13.133251190185547 -0.2774902284145355
-15.935966491699219 14.118017196655273 -0.32442381978034973
13.859868049621582 14.429706573486328 -0.5266918540000916
13.429576873779297 23.260711669921875 -0.707049548625946
0.5772607326507568 14.3247652053833 -0.3773939311504364
-1.1831103563308716 9.743837356567383 -0.2583848536014557
-2.0809619426727295 10.193222045898438 -0.27386489510536194
-2.9763476848602295 10.27553653717041 -0.28161606192588806
-6.670761585235596 11.554091453552246 -0.35120725631713867
-15.935961723327637 14.118017196655273 -0.5604521036148071
-20.643047332763672 15.512235641479492 -0.6797430515289307
0.4131445288658142 10.252138137817383 -0.38391876220703125
-1.1831103563308716 9.743837356567383 -0.36726653575897217
-4.091889381408691 10.78945255279541 -0.4317706227302551
-5.186791896820068 10.930917739868164 -0.45271575450897217
-8.151928901672363 11.810068130493164 -0.5369506478309631
11.13036060333252 23.456727981567383 -1.2597315311431885
2.546259641647339 20.970399856567383 -1.0249428749084473
0.4131445288658142 10.252138137817383 -0.4978308081626892
-0.4074804484844208 10.111434936523438 -0.4909977614879608
-1.1831103563308716 9.743837356567383 -0.47623777389526367
-2.0809619426727295 10.193222045898438 -0.5047695636749268
-5.186791896820068 10.930917739868164 -0.5870402455329895
-6.670761585235596 11.554091453552246 -0.6473217606544495
-8.151918411254883 11.810068130493164 -0.6962669491767883
-10.118754386901855 12.39322280883789 -0.776282012462616
-12.614672660827637 13.133261680603027 -0.883549153804779
13.80875015258789 14.376474380493164 -1.1887294054031372
12.474760055541992 21.606903076171875 -1.487821340560913
2.426157236099243 19.981210708618164 -1.2002984285354614
0.4131445288658142 10.252138137817383 -0.611865222454071
-0.4074804484844208 10.111434936523438 -0.6034661531448364
-2.0809619426727295 10.193222045898438 -0.6203933358192444
-4.091894626617432 10.78945255279541 -0.6881281733512878
-5.186791896820068 10.930917739868164 -0.7215093970298767
-8.151918411254883 11.810068130493164 -0.8557584881782532
-12.614672660827637 13.133251190185547 -1.0859373807907104
-15.638690948486328 13.85464859008789 -1.2459237575531006
17.409278869628906 21.322509765625 -1.9478617906570435
14.418598175048828 20.888944625854492 -1.7960785627365112
11.13036060333252 23.456727981567383 -1.8372291326522827
2.5189502239227295 20.745458602905273 -1.4787724018096924
0.4131445288658142 10.252138137817383 -0.7260506749153137
-0.4074804484844208 10.111434936523438 -0.71608567237854
-1.1831103563308716 9.743837356567383 -0.6945586800575256
-5.186791896820068 10.930917739868164 -0.8561559915542603
-6.670751571655273 11.554091453552246 -0.9440725445747375
-8.151923179626465 11.810068130493164 -1.0154573917388916
-10.098105430603027 12.367938995361328 -1.1298413276672363
-12.3793306350708 12.888251304626465 -1.264553189277649
-15.89791488647461 14.08431625366211 -1.5029422044754028
13.484071731567383 2.1913769245147705 -1.1189435720443726
24.22432518005371 15.31850528717041 -2.347599983215332
16.92447280883789 20.728740692138672 -2.1918962001800537
14.11349105834961 20.44693374633789 -2.03499698638916
12.250126838684082 21.21784210205078 -2.006772518157959
10.163454055786133 26.798851013183594 -2.347599983215332
7.974076747894287 27.52974510192871 -2.347599983215332
5.732997894287109 28.082128524780273 -2.347599983215332
2.546259641647339 20.970399856567383 -1.7302638292312622
-2.0809619426727295 10.193222045898438 -0.8521298170089722
-2.9763524532318115 10.275527000427246 -0.8762477040290833
-5.186791896820068 10.930917739868164 -0.9910157322883606
-6.638691425323486 11.498563766479492 -1.087528109550476
-8.0709810256958 11.692822456359863 -1.163739562034607
-9.930781364440918 12.163007736206055 -1.2861400842666626
-15.935961723327637 14.118017196655273 -1.7438454627990723
-24.224306106567383 15.318514823913574 -2.347599983215332
-26.367826461791992 11.234267234802246 -2.347599983215332
25.477840423583984 8.505751609802246 -2.5
22.333637237548828 11.721601486206055 -2.347599983215332
21.318031311035156 13.48070240020752 -2.347599983215332
20.164154052734375 15.152372360229492 -2.347599983215332
18.879497528076172 16.72579002380371 -2.347599983215332
13.179003715515137 13.72084903717041 -1.7707372903823853
14.11349105834961 20.446924209594727 -2.3124279975891113
7.017406940460205 24.22694206237793 -2.347599983215332
2.546259641647339 20.97037124633789 -1.966146469116211
-0.4074804484844208 10.111434936523438 -0.9418821334838867
-2.0809619426727295 10.193222045898438 -0.9682992100715637
-4.091894626617432 10.78945255279541 -1.0740183591842651
-5.181972503662109 10.920751571655273 -1.1250709295272827
-8.017187118530273 11.614882469177246 -1.3135772943496704
-10.079838752746582 12.345565795898438 -1.4834133386611938
-21.318031311035156 13.480692863464355 -2.347599983215332
-23.204418182373047 9.886474609375 -2.347599983215332
-25.47783660888672 8.505722045898438 -2.5
-26.77305030822754 2.161328077316284 -2.5
23.97760772705078 9.765624781721272e-06 -2.5
13.022231101989746 1.0512597560882568 -1.3621681928634644
12.78597640991211 2.077939510345459 -1.3506078720092773
23.280824661254883 5.738212585449219 -2.5
22.058895111083984 9.398407936096191 -2.5
19.030208587646484 12.0339937210083 -2.347599983215332
16.85340690612793 14.930839538574219 -2.347599983215332
13.1790132522583 13.72084903717041 -1.9836138486862183
11.257953643798828 19.49933624267578 -2.347599983215332
9.652397155761719 20.34200096130371 -2.347599983215332
6.264321327209473 21.626962661743164 -2.347599983215332
4.503759860992432 22.060888290405273 -2.347599983215332
2.546254873275757 20.970380783081055 -2.202517509460449
-0.4074804484844208 10.111445426940918 -1.0551142692565918
-2.0809619426727295 10.193222045898438 -1.0847066640853882
-3.970351457595825 10.468974113464355 -1.1674014329910278
-12.614672660827637 13.133261680603027 -1.8986724615097046
-15.935966491699219 14.118026733398438 -2.2198069095611572
-19.030229568481445 12.033984184265137 -2.347599983215332
-19.93683624267578 10.463642120361328 -2.347599983215332
-23.28084945678711 5.738183498382568 -2.5
-23.66707992553711 3.8462791442871094 -2.5
12.548867225646973 2.0393943786621094 -1.4681459665298462
21.019819259643555 5.180908203125 -2.5
19.916528701782227 8.485634803771973 -2.5
17.18202018737793 10.865243911743164 -2.347599983215332
16.25200653076172 12.212607383728027 -2.347599983215332
13.117899894714355 13.6572847366333 -2.1868038177490234
12.706884384155273 15.563143730163574 -2.3201732635498047
11.548291206359863 16.7305850982666 -2.347599983215332
8.7149658203125 18.36638641357422 -2.347599983215332
4.066362380981445 19.91834831237793 -2.347599983215332
2.4504051208496094 20.180946350097656 -2.347599983215332
-0.4074804484844208 10.111434936523438 -1.168609857559204
-1.1804052591323853 9.721571922302246 -1.1308882236480713
-2.019780158996582 9.893564224243164 -1.1660679578781128
-2.9208202362060547 10.083837509155273 -1.2123417854309082
-3.9387547969818115 10.38565444946289 -1.2826815843582153
-8.1519136428833 11.81005859375 -1.657165765762329
-12.614667892456055 13.133251190185547 -2.1029062271118164
-15.216615676879883 13.480712890625 -2.347599983215332
-18.000595092773438 9.44742202758789 -2.347599983215332
-19.903148651123047 8.479921340942383 -2.498318672180176
-20.534765243530273 6.855488300323486 -2.5
-21.019813537597656 5.180898189544678 -2.5
-21.368539810180664 3.4727048873901367 -2.5
-21.578685760498047 1.741982340812683 -2.5
12.776103019714355 1.0313867330551147 -1.6242986917495728
12.5233154296875 2.0352439880371094 -1.60781991481781
19.154720306396484 4.72122049331665 -2.5
18.712709426879883 6.247216701507568 -2.5
16.403398513793945 8.609160423278809 -2.347599983215332
14.809969902038574 11.128973960876465 -2.347599983215332
13.866439819335938 12.284599304199219 -2.347599983215332
10.523612976074219 15.246073722839355 -2.347599983215332
9.262685775756836 16.043426513671875 -2.347599983215332
6.569189071655273 17.32149314880371 -2.347599983215332
5.15408182144165 17.793954849243164 -2.347599983215332
3.7055516242980957 18.150957107543945 -2.347599983215332
-0.4074804484844208 10.111434936523438 -1.2823967933654785
-2.0030760765075684 9.811738014221191 -1.2690246105194092
-10.118749618530273 12.39322280883789 -2.0275027751922607
-12.614667892456055 13.133251190185547 -2.3076655864715576
-13.866439819335938 12.28456974029541 -2.347599983215332
-14.809969902038574 11.1289644241333 -2.347599983215332
-16.40340232849121 8.609140396118164 -2.347599983215332
-18.149335861206055 7.73269510269165 -2.5
-18.712705612182617 6.247216701507568 -2.5
-19.15471649169922 4.721210956573486 -2.5
12.487689971923828 2.0294432640075684 -1.745898962020874
17.589643478393555 4.33547830581665 -2.5
17.183744430541992 5.736786842346191 -2.5
16.644800186157227 7.091699123382568 -2.4967594146728516
15.063115119934082 7.905732154846191 -2.347599983215332
11.78441333770752 12.268877029418945 -2.347599983215332
9.663749694824219 14.000380516052246 -2.347599983215332
8.505854606628418 14.732548713684082 -2.347599983215332
7.292788028717041 15.369237899780273 -2.347599983215332
6.032436370849609 15.906210899353027 -2.347599983215332
3.402783155441284 16.667909622192383 -2.347599983215332
0.4131445288658142 10.252138137817383 -1.4159356355667114
-1.165380835533142 9.597822189331055 -1.3342204093933105
-2.9617137908935547 10.224980354309082 -1.4690403938293457
-5.186791896820068 10.930917739868164 -1.6696641445159912
-6.543159008026123 11.333075523376465 -1.8059011697769165
-10.118749618530273 12.393232345581055 -2.20790696144104
-12.733447074890137 11.280839920043945 -2.347599983215332
-13.59987735748291 10.21963882446289 -2.347599983215332
-15.063105583190918 7.905712604522705 -2.347599983215332
-16.666391372680664 7.100878715515137 -2.5
-17.881444931030273 2.906005859375 -2.5
16.7437686920166 9.765624781721272e-06 -2.5
12.698046684265137 1.025087833404541 -1.902104139328003
12.450068473815918 2.023329973220825 -1.8832982778549194
16.25721549987793 4.007040977478027 -2.5
15.882060050964355 5.302206993103027 -2.5
13.922080039978027 7.306874752044678 -2.347599983215332
11.768872261047363 10.4263277053833 -2.347599983215332
10.891737937927246 11.339521408081055 -2.347599983215332
9.9439697265625 12.17918872833252 -2.347599983215332
8.931714057922363 12.939814567565918 -2.347599983215332
6.740361213684082 14.204999923706055 -2.347599983215332
4.374428749084473 15.102274894714355 -2.347599983215332
0.4131445288658142 10.252138137817383 -1.5319849252700806
-0.4074804484844208 10.111434936523438 -1.510957956314087
-2.9763476848602295 10.27553653717041 -1.5972988605499268
-6.543159008026123 11.333075523376465 -1.953910231590271
-8.151918411254883 11.810068130493164 -2.142636775970459
-10.891742706298828 11.339491844177246 -2.347599983215332
-11.76888656616211 10.426298141479492 -2.347599983215332
-12.569686889648438 9.445517539978027 -2.347599983215332
-13.28896427154541 8.403427124023438 -2.347599983215332
-13.92208480834961 7.306845664978027 -2.347599983215332
-15.882060050964355 5.302187442779541 -2.5
-16.25721549987793 4.007021427154541 -2.5
15.561098098754883 9.765624781721272e-06 -2.5
12.464262008666992 2.025644540786743 -2.028743028640747
15.108920097351074 3.7240331172943115 -2.5
14.301762580871582 6.093417644500732 -2.4975345134735107
11.681845664978027 8.778349876403809 -2.347599983215332
10.937602043151855 9.689872741699219 -2.347599983215332
10.122411727905273 10.538564682006836 -2.347599983215332
9.241591453552246 11.31893539428711 -2.347599983215332
7.306249618530273 12.65478515625 -2.347599983215332
6.264267444610596 13.201669692993164 -2.347599983215332
4.065449237823486 14.03555679321289 -2.347599983215332
2.922866106033325 14.317177772521973 -2.347599983215332
1.7613378763198853 14.505927085876465 -2.347599983215332
0.4131445288658142 10.252138137817383 -1.6484179496765137
-2.041147470474243 9.998251914978027 -1.6394230127334595
-4.013622760772705 10.583075523376465 -1.8184157609939575
-5.186791896820068 10.930917739868164 -1.9438059329986572
-9.241596221923828 11.318896293640137 -2.347599983215332
-10.122421264648438 10.538544654846191 -2.347599983215332
-11.681840896606445 8.778329849243164 -2.347599983215332
-13.305639266967773 6.983320236206055 -2.4141762256622314
-14.760258674621582 4.927685260772705 -2.5
-15.510624885559082 1.252138614654541 -2.5
14.5310640335083 9.765624781721272e-06 -2.5
12.8032808303833 1.033593773841858 -2.209908962249756
12.50619125366211 2.0324511528015137 -2.1798593997955322
14.108818054199219 3.4775097370147705 -2.5
13.783242225646973 4.601532936096191 -2.5
13.360624313354492 5.692431449890137 -2.498568296432495
12.082275390625 6.341269493103027 -2.347599983215332
11.53282642364502 7.292919635772705 -2.347599983215332
10.908588409423828 8.197275161743164 -2.347599983215332
10.213618278503418 9.04848575592041 -2.347599983215332
8.629867553710938 10.569677352905273 -2.347599983215332
6.822621822357178 11.817118644714355 -2.347599983215332
5.849614143371582 12.327802658081055 -2.347599983215332
3.7963476181030273 13.106523513793945 -2.347599983215332
1.6447558403015137 13.545761108398438 -2.347599983215332
-0.4074804484844208 10.111434936523438 -1.7410377264022827
-2.9763426780700684 10.275527000427246 -1.8405262231826782
-5.186791896820068 10.930917739868164 -2.081592321395874
-7.751391410827637 11.229814529418945 -2.347599983215332
-8.629862785339355 10.56966781616211 -2.347599983215332
-9.452387809753418 9.84096622467041 -2.347599983215332
-10.213613510131836 9.048446655273438 -2.347599983215332
-10.90859317779541 8.197265625 -2.347599983215332
-11.532816886901855 7.292910099029541 -2.347599983215332
-12.835615158081055 6.736630916595459 -2.4939773082733154
-13.783222198486328 4.601493835449219 -2.5
-14.342875480651855 2.330937385559082 -2.5
-14.483935356140137 1.1692382097244263 -2.5
13.581493377685547 1.0964159965515137 -2.5
12.535351753234863 5.340810298919678 -2.5
10.814257621765137 6.838505744934082 -2.347599983215332
9.57723617553711 8.484697341918945 -2.347599983215332
8.092167854309082 9.911123275756836 -2.347599983215332
7.268422603607178 10.53011703491211 -2.347599983215332
4.537187576293945 11.963574409484863 -2.347599983215332
3.559809446334839 12.289873123168945 -2.347599983215332
2.559340715408325 12.536474227905273 -2.347599983215332
-0.4074804484844208 10.111445426940918 -1.8567252159118652
-1.1831103563308716 9.743837356567383 -1.8009045124053955
-4.013622760772705 10.583075523376465 -2.076707124710083
-6.397519588470459 11.080839157104492 -2.347599983215332
-7.26842737197876 10.530107498168945 -2.347599983215332
-8.092167854309082 9.911103248596191 -2.347599983215332
-9.577231407165527 8.484667778015137 -2.347599983215332
-10.814248085021973 6.838505744934082 -2.347599983215332
-12.535331726074219 5.340800762176514 -2.5
-13.229731559753418 3.2608299255371094 -2.5
12.823447227478027 0.0 -2.5
12.781874656677246 1.0318554639816284 -2.5
10.662421226501465 5.59606409072876 -2.347599983215332
10.177543640136719 6.435888290405273 -2.347599983215332
9.62667465209961 7.233983993530273 -2.347599983215332
8.341601371765137 8.684521675109863 -2.347599983215332
7.615732192993164 9.327577590942383 -2.347599983215332
5.162207126617432 10.879120826721191 -2.347599983215332
0.4131445288658142 10.252138137817383 -2.000335454940796
-0.4074804484844208 10.111434936523438 -1.9728792905807495
-2.041152238845825 9.998251914978027 -1.9894182682037354
-2.9763476848602295 10.27553653717041 -2.085616111755371
-4.013628005981445 10.583075523376465 -2.2066245079040527
-5.162201881408691 10.879111289978027 -2.347599983215332
-6.020864009857178 10.428427696228027 -2.347599983215332
-7.615732192993164 9.327588081359863 -2.347599983215332
-8.341596603393555 8.684521675109863 -2.347599983215332
-10.1775484085083 6.435888290405273 -2.347599983215332
-11.353632926940918 5.958837985992432 -2.4997878074645996
-12.1635103225708 4.060761451721191 -2.5
-12.7818603515625 1.0318456888198853 -2.5
12.068256378173828 0.9742675423622131 -2.5
11.950722694396973 1.942177653312683 -2.5
11.755698204040527 2.89751935005188 -2.5
11.138667106628418 4.745741844177246 -2.5
10.067138671875 5.283652305603027 -2.347599983215332
9.60934066772461 6.076571941375732 -2.347599983215332
9.089223861694336 6.83010721206665 -2.347599983215332
3.1631834506988525 10.920536994934082 -2.347599983215332
0.4131445288658142 10.252138137817383 -2.1186139583587646
-0.4074804484844208 10.111434936523438 -2.0895397663116455
-1.1831103563308716 9.743837356567383 -2.0267202854156494
-2.041152238845825 9.998251914978027 -2.1070563793182373
-2.9763476848602295 10.27553653717041 -2.2089409828186035
-4.874003887176514 10.271718978881836 -2.347599983215332
-5.684711933135986 9.846220016479492 -2.347599983215332
-7.1905517578125 8.806816101074219 -2.347599983215332
-9.609331130981445 6.076571941375732 -2.347599983215332
-10.72066879272461 5.626630783081055 -2.5
-11.13866138458252 4.745732307434082 -2.5
-11.755678176879883 2.8975000381469727 -2.5
-11.950712203979492 1.94216787815094 -2.5
-12.068246841430664 0.9742285013198853 -2.5
11.427352905273438 0.9225097298622131 -2.5
11.316059112548828 1.8390233516693115 -2.5
10.87451171875 3.630449056625366 -2.5
9.658222198486328 5.069013595581055 -2.3785622119903564
8.058197975158691 7.138955116271973 -2.347599983215332
7.457622051239014 7.764199256896973 -2.347599983215332
6.115581035614014 8.85995101928711 -2.347599983215332
5.382832050323486 9.32332992553711 -2.347599983215332
3.8175535202026367 10.066054344177246 -2.347599983215332
2.995195150375366 10.340595245361328 -2.347599983215332
2.1534032821655273 10.548075675964355 -2.347599983215332
1.2976561784744263 10.687148094177246 -2.347599983215332
-0.4074804484844208 10.111445426940918 -2.2067325115203857
-1.1831103563308716 9.743837356567383 -2.1403911113739014
-2.041152238845825 9.998251914978027 -2.2252326011657715
-2.9763524532318115 10.275527000427246 -2.332831382751465
-4.615146160125732 9.726210594177246 -2.347599983215332
-5.382817268371582 9.323309898376465 -2.347599983215332
-8.606508255004883 6.467372894287109 -2.347599983215332
-10.151318550109863 5.327802658081055 -2.5
-10.547114372253418 4.493700981140137 -2.5
-10.87451171875 3.630439281463623 -2.5
-11.3160400390625 1.8390429019927979 -2.5
-11.42733383178711 0.9224902391433716 -2.5
10.5674409866333 2.6046385765075684 -2.5
10.323583602905273 3.446523427963257 -2.5
10.01278305053711 4.266044616699219 -2.5
8.638036727905273 5.462372779846191 -2.347599983215332
8.170493125915527 6.139736175537109 -2.347599983215332
7.649955749511719 6.777275085449219 -2.347599983215332
7.079804420471191 7.370869159698486 -2.347599983215332
6.463735103607178 7.916650295257568 -2.347599983215332
5.110116958618164 8.85097599029541 -2.347599983215332
2.843447208404541 9.816718101501465 -2.347599983215332
1.2319140434265137 10.145712852478027 -2.347599983215332
-0.4074804484844208 10.111434936523438 -2.324493885040283
-2.843447208404541 9.816728591918945 -2.347599983215332
-3.624135732650757 9.556074142456055 -2.347599983215332
-4.381342887878418 9.23348617553711 -2.347599983215332
-7.079804420471191 7.370849609375 -2.347599983215332
-8.170483589172363 6.139707088470459 -2.347599983215332
-9.15407657623291 5.78869104385376 -2.487848997116089
-10.012778282165527 4.266054630279541 -2.5
-10.323578834533691 3.4465136528015137 -2.5
-10.742753982543945 1.7458593845367432 -2.5
10.356362342834473 9.765624781721272e-06 -2.5
10.32277774810791 0.8333398103713989 -2.5
9.823383331298828 3.279541015625 -2.5
9.527636528015137 4.059345722198486 -2.5
8.219501495361328 5.197695255279541 -2.347599983215332
7.27929162979126 6.448896408081055 -2.347599983215332
4.169052600860596 8.786093711853027 -2.347599983215332
2.705678701400757 9.341064453125 -2.347599983215332
1.945253849029541 9.528505325317383 -2.347599983215332
1.1722216606140137 9.654130935668945 -2.347599983215332
0.39158201217651367 9.717147827148438 -2.347599983215332
-0.39158201217651367 9.717138290405273 -2.347599983215332
-1.945253849029541 9.528495788574219 -2.347599983215332
-2.7056736946105957 9.341064453125 -2.347599983215332
-3.4485349655151367 9.093066215515137 -2.347599983215332
-4.862509727478027 8.422109603881836 -2.347599983215332
-5.524453163146973 8.003535270690918 -2.347599983215332
-6.150546550750732 7.533056259155273 -2.347599983215332
-9.170092582702637 4.812831878662109 -2.5
-9.527631759643555 4.05935525894165 -2.5
-10.055410385131836 2.4784276485443115 -2.5
9.747426986694336 1.5841113328933716 -2.5
9.588349342346191 2.3633105754852295 -2.5
9.36708927154541 3.127197265625 -2.5
9.085078239440918 3.870790958404541 -2.5
7.837699890136719 4.956279277801514 -2.347599983215332
7.413471698760986 5.570878982543945 -2.347599983215332
6.941171646118164 6.149335861206055 -2.347599983215332
5.864858150482178 7.18313455581665 -2.347599983215332
4.636655330657959 8.030927658081055 -2.347599983215332
2.5799951553344727 8.907187461853027 -2.347599983215332
1.8549071550369263 9.085898399353027 -2.347599983215332
1.1177783012390137 9.205693244934082 -2.347599983215332
-1.117773413658142 9.205693244934082 -2.347599983215332
-2.580004930496216 8.907177925109863 -2.347599983215332
-5.267836570739746 7.631777286529541 -2.347599983215332
-6.941162109375 6.149325847625732 -2.347599983215332
-7.413466453552246 5.570859432220459 -2.347599983215332
-8.336557388305664 5.271718502044678 -2.4970216751098633
-8.744140625 4.589277267456055 -2.5
-9.843276023864746 0.7946191430091858 -2.5
9.3124361038208 1.513427734375 -2.5
9.160449028015137 2.257861375808716 -2.5
8.949067115783691 2.9876463413238525 -2.5
8.679638862609863 3.698066234588623 -2.5
7.0826416015625 5.322246074676514 -2.347599983215332
6.631411075592041 5.874911785125732 -2.347599983215332
5.603125095367432 6.86257791519165 -2.347599983215332
5.032753944396973 7.291191101074219 -2.347599983215332
4.429740905761719 7.672509670257568 -2.347599983215332
3.7979931831359863 8.004081726074219 -2.347599983215332
1.77212393283844 8.680429458618164 -2.347599983215332
1.0678857564926147 8.794862747192383 -2.347599983215332
-0.35673338174819946 8.852274894714355 -2.347599983215332
-1.0678857564926147 8.794873237609863 -2.347599983215332
-1.7721142768859863 8.680429458618164 -2.347599983215332
-2.464858293533325 8.50967788696289 -2.347599983215332
-3.797983407974243 8.004091262817383 -2.347599983215332
-4.429731369018555 7.672529220581055 -2.347599983215332
-5.032748699188232 7.291201114654541 -2.347599983215332
-5.603125095367432 6.862597465515137 -2.347599983215332
-6.137163162231445 6.389472484588623 -2.347599983215332
-7.082631587982178 5.322265625 -2.347599983215332
-7.971621036529541 5.040937423706055 -2.4992430210113525
-8.35391616821289 4.384482383728027 -2.5
-8.679633140563965 3.69805645942688 -2.5
-8.949057579040527 2.987617015838623 -2.5
-9.160444259643555 2.2578516006469727 -2.5
-9.312421798706055 1.5134081840515137 -2.5
-9.404008865356445 0.7591503858566284 -2.5
9.000004768371582 0.7265527248382568 -2.5
8.912348747253418 1.4483983516693115 -2.5
8.766908645629883 2.1608495712280273 -2.5
7.292294979095459 4.61135721206665 -2.3888919353485107
5.362411975860596 6.567763328552246 -2.347599983215332
4.816542625427246 6.977958679199219 -2.347599983215332
4.239428520202637 7.342900276184082 -2.347599983215332
3.63482403755188 7.660224437713623 -2.347599983215332
2.358964681625366 8.1441011428833 -2.347599983215332
0.3413964807987213 8.4719820022583 -2.347599983215332
-0.3414062559604645 8.471972465515137 -2.347599983215332
-5.873505592346191 6.114960670471191 -2.347599983215332
-7.995019435882568 4.196123123168945 -2.5
-8.564589500427246 2.8592772483825684 -2.5
-8.912348747253418 1.4483983516693115 -2.5
-8.999990463256836 0.7265625 -2.5
7.962573051452637 3.3925390243530273 -2.5
7.663759708404541 4.02224588394165 -2.5
7.255029201507568 4.587802410125732 -2.479419231414795
6.497499942779541 4.882568359375 -2.347599983215332
5.630136489868164 5.861611366271973 -2.347599983215332
5.140224456787109 6.295624732971191 -2.347599983215332
4.063769340515137 7.038642406463623 -2.347599983215332
2.261225461959839 7.806640625 -2.347599983215332
1.6257177591323853 7.963271141052246 -2.347599983215332
0.979663074016571 8.06827163696289 -2.347599983215332
0.32726073265075684 8.120956420898438 -2.347599983215332
-0.9796679615974426 8.068290710449219 -2.347599983215332
-2.8820555210113525 7.599374771118164 -2.347599983215332
-5.630141258239746 5.86160135269165 -2.347599983215332
-6.083539962768555 5.389540672302246 -2.347599983215332
-7.663754940032959 4.022236347198486 -2.5
-7.962558269500732 3.392529249191284 -2.5
-8.209726333618164 2.7408103942871094 -2.5
-8.403647422790527 2.0713086128234863 -2.5
-8.543066024780273 1.3883886337280273 -2.5
8.30868148803711 9.765624781721272e-06 -2.5
8.201088905334473 1.3328124284744263 -2.5
7.881093502044678 2.631103515625 -2.5
7.643813133239746 3.256728410720825 -2.5
4.432148456573486 6.421064376831055 -2.347599983215332
2.7666990756988525 7.295166015625 -2.347599983215332
2.170703172683716 7.494140625 -2.347599983215332
1.5606396198272705 7.644501686096191 -2.347599983215332
0.9404540657997131 7.745292663574219 -2.347599983215332
-0.31416013836860657 7.795859336853027 -2.347599983215332
-1.5606298446655273 7.644501686096191 -2.347599983215332
-3.9010887145996094 6.756884574890137 -2.347599983215332
-4.432148456573486 6.421064376831055 -2.347599983215332
-4.934443473815918 6.043612957000732 -2.347599983215332
-5.840004920959473 5.173798561096191 -2.347599983215332
-6.628012657165527 4.980634689331055 -2.494619131088257
-7.356957912445068 3.8612401485443115 -2.5
-7.643808364868164 3.256718635559082 -2.5
-7.881078720092773 2.631093740463257 -2.5
7.883398056030273 1.2811717987060547 -2.5
7.575786113739014 2.529169797897339 -2.5
7.071977615356445 3.7116503715515137 -2.5
5.995771408081055 4.505517482757568 -2.347599983215332
5.613789081573486 4.973378658294678 -2.347599983215332
4.743305683135986 5.809482097625732 -2.347599983215332
4.260454177856445 6.172324180603027 -2.347599983215332
2.086611270904541 7.203818321228027 -2.347599983215332
1.5001806020736694 7.348349571228027 -2.347599983215332
0.9040185213088989 7.445253849029541 -2.347599983215332
0.30199217796325684 7.493857383728027 -2.347599983215332
-0.30199217796325684 7.493857383728027 -2.347599983215332
-1.5001757144927979 7.348378658294678 -2.347599983215332
-2.086616277694702 7.203827857971191 -2.347599983215332
-3.215165853500366 6.775829792022705 -2.347599983215332
-5.195380687713623 5.40896463394165 -2.347599983215332
-6.7503662109375 4.268661975860596 -2.5
-7.347695350646973 3.130566358566284 -2.5
-7.754726409912109 1.911376953125 -2.5
-7.883378505706787 1.2811815738677979 -2.5
7.58743143081665 1.2330760955810547 -2.5
7.463598251342773 1.8396190404891968 -2.5
6.806479454040527 3.5723142623901367 -2.5
6.493618011474609 4.106308460235596 -2.4987175464630127
5.000336647033691 5.205908298492432 -2.347599983215332
4.100502967834473 5.940595626831055 -2.347599983215332
3.0944578647613525 6.521435260772705 -2.347599983215332
2.5596776008605957 6.749287128448486 -2.347599983215332
2.0082812309265137 6.933369159698486 -2.347599983215332
0.8700780868530273 7.165732383728027 -2.347599983215332
-0.8700780868530273 7.165751934051514 -2.347599983215332
-1.4438574314117432 7.072490215301514 -2.347599983215332
-3.0944578647613525 6.521435260772705 -2.347599983215332
-3.6091794967651367 6.251288890838623 -2.347599983215332
-5.525380611419678 4.895078182220459 -2.4007678031921387
-6.142651081085205 4.615898132324219 -2.498926877975464
-6.806464672088623 3.5723047256469727 -2.5
-7.071845531463623 3.0130369663238525 -2.5
-7.463588714599609 1.8396093845367432 -2.5
-7.662031173706055 0.6185449361801147 -2.5
7.406884670257568 0.0 -2.5
7.310966491699219 1.1881444454193115 -2.5
7.191650390625 1.7725878953933716 -2.5
7.025698184967041 2.345517635345459 -2.5
6.814179420471191 2.903251886367798 -2.5
6.260214805603027 3.9587206840515137 -2.5
5.859848499298096 4.403378963470459 -2.4740240573883057
5.206157207489014 4.612255573272705 -2.347599983215332
4.818139553070068 5.016220569610596 -2.347599983215332
3.4776806831359863 6.023515701293945 -2.347599983215332
2.4663963317871094 6.503359317779541 -2.347599983215332
1.935097575187683 6.680751800537109 -2.347599983215332
1.3912500143051147 6.814785003662109 -2.347599983215332
0.83837890625 6.904638290405273 -2.347599983215332
-0.2800634801387787 6.949716567993164 -2.347599983215332
-2.981703996658325 6.283818244934082 -2.347599983215332
-3.477670907974243 6.023515701293945 -2.347599983215332
-4.818134784698486 5.016211032867432 -2.347599983215332
-5.502626895904541 4.874902248382568 -2.4812889099121094
-5.921362400054932 4.449628829956055 -2.5
-6.558452129364014 3.442138671875 -2.5
-6.814165115356445 2.9032421112060547 -2.5
-7.310946941375732 1.1881542205810547 -2.5
-7.382846355438232 0.5960058569908142 -2.5
6.776914119720459 2.2624707221984863 -2.5
5.698007583618164 4.28176736831665 -2.4940085411071777
5.021796703338623 4.448935508728027 -2.347599983215332
4.647529125213623 4.838583946228027 -2.347599983215332
4.243114948272705 5.196865081787109 -2.347599983215332
3.3545312881469727 5.810204982757568 -2.347599983215332
2.3790624141693115 6.27306604385376 -2.347599983215332
1.8665771484375 6.444169998168945 -2.347599983215332
-1.3419774770736694 6.573466777801514 -2.347599983215332
-2.3790526390075684 6.273085594177246 -2.347599983215332
-3.3545215129852295 5.810204982757568 -2.347599983215332
-3.8111767768859863 5.521435260772705 -2.347599983215332
-4.243105411529541 5.196865081787109 -2.347599983215332
-4.647529125213623 4.838573932647705 -2.347599983215332
-5.335395336151123 4.726747989654541 -2.494201898574829
-5.711684226989746 4.292070388793945 -2.5
-6.038525104522705 3.8185253143310547 -2.5
-6.776899337768555 2.262451171875 -2.5
6.898412704467773 9.765624781721272e-06 -2.5
6.876044750213623 0.5550976395606995 -2.5
6.809086799621582 1.1065820455551147 -2.5
6.697963714599609 1.6508886814117432 -2.5
5.830468654632568 3.686962842941284 -2.5
4.886455059051514 4.329013347625732 -2.3658430576324463
4.096909046173096 5.017802715301514 -2.347599983215332
3.679863214492798 5.331191062927246 -2.347599983215332
3.23895001411438 5.610009670257568 -2.347599983215332
2.2970945835113525 6.056923866271973 -2.347599983215332
1.8022704124450684 6.222118854522705 -2.347599983215332
-1.2957372665405273 6.346962928771973 -2.347599983215332
-2.2970848083496094 6.05691385269165 -2.347599983215332
-2.7770214080810547 5.852450847625732 -2.347599983215332
-3.2389402389526367 5.610009670257568 -2.347599983215332
-3.6798534393310547 5.331181526184082 -2.347599983215332
-5.830458641052246 3.6869726181030273 -2.5
-6.346386432647705 2.7039549350738525 -2.5
-6.543383598327637 2.184501886367798 -2.5
-6.876035213470459 0.5550878643989563 -2.5
6.645234107971191 0.5364648103713989 -2.5
6.323750019073486 2.1111717224121094 -2.5
6.133364200592041 2.6131932735443115 -2.5
5.9031982421875 3.0982420444488525 -2.5
4.869301795959473 4.313808441162109 -2.4394307136535645
4.336757659912109 4.515029430389404 -2.347599983215332
3.1302146911621094 5.421699047088623 -2.347599983215332
0.2520800828933716 6.255341529846191 -2.347599983215332
-0.2520800828933716 6.255341529846191 -2.347599983215332
-1.2522411346435547 6.133925437927246 -2.347599983215332
-1.4043505191802979 4.848378658294678 -1.8928231000900269
-2.219970703125 5.853603363037109 -2.347599983215332
-2.683793783187866 5.655986309051514 -2.347599983215332
-3.130204916000366 5.421699047088623 -2.347599983215332
-3.9593701362609863 4.849355220794678 -2.347599983215332
-5.329751014709473 4.005048751831055 -2.5
-5.634736061096191 3.5632030963897705 -2.5
-6.133354187011719 2.613173723220825 -2.5
-6.473110198974609 1.5954785346984863 -2.5
-6.580502986907959 1.0694433450698853 -2.5
-6.645219802856445 0.5364453196525574 -2.5
6.448574066162109 9.765624781721272e-06 -2.5
6.365063190460205 1.0344140529632568 -2.5
6.116708755493164 2.042060613632202 -2.5
5.450263500213623 3.446542978286743 -2.5
5.155263423919678 3.8739354610443115 -2.5
4.813241958618164 4.264169692993164 -2.492969036102295
4.194765567779541 4.367197036743164 -2.347599983215332
3.8297507762908936 4.690585613250732 -2.347599983215332
3.439892530441284 4.983544826507568 -2.347599983215332
2.1472997665405273 5.661952972412109 -2.347599983215332
1.6847411394119263 5.816386699676514 -2.347599983215332
-0.7299023270606995 6.011308670043945 -2.347599983215332
-1.211245059967041 5.933075904846191 -2.347599983215332
-2.5959277153015137 5.470800876617432 -2.347599983215332
-3.027714729309082 5.244189262390137 -2.347599983215332
-4.454780101776123 4.637929439544678 -2.49312424659729
-5.709911823272705 2.9967870712280273 -2.5
-6.261171817779541 1.5432324409484863 -2.5
-6.365053653717041 1.0344336032867432 -2.5
-6.427656173706055 0.5188964605331421 -2.5
6.242421627044678 -9.765624781721272e-06 -2.5
6.161596775054932 1.0013574361801147 -2.5
6.06102991104126 1.4939160346984863 -2.5
5.92117166519165 1.9767773151397705 -2.5
5.742900371551514 2.4468066692352295 -2.5
5.527397155761719 2.901005744934082 -2.5
5.27603006362915 3.336357355117798 -2.5
4.990458965301514 3.7500877380371094 -2.5
4.663158893585205 4.131201267242432 -2.4949910640716553
3.7073240280151367 4.540654182434082 -2.347599983215332
3.3299314975738525 4.824228286743164 -2.347599983215332
2.9309422969818115 5.076552391052246 -2.347599983215332
2.512949228286743 5.295917987823486 -2.347599983215332
2.0786523818969727 5.480947017669678 -2.347599983215332
0.7065771222114563 5.819130897521973 -2.347599983215332
0.23604004085063934 5.857138633728027 -2.347599983215332
-0.23603515326976776 5.857119083404541 -2.347599983215332
-0.7065673470497131 5.819140434265137 -2.347599983215332
-2.0786473751068115 5.48095703125 -2.347599983215332
-2.512944221496582 5.295917987823486 -2.347599983215332
-2.9309375286102295 5.076533317565918 -2.347599983215332
-3.3299267292022705 4.824238300323486 -2.347599983215332
-4.315864086151123 4.493310451507568 -2.495143175125122
-4.67251443862915 4.139482498168945 -2.5
-4.990448951721191 3.750077962875366 -2.5
-5.742890357971191 2.446826219558716 -2.5
-5.921156883239746 1.9767773151397705 -2.5
-6.061025142669678 1.493896484375 -2.5
-6.222172737121582 0.5023144483566284 -2.5
6.027768611907959 0.4866113066673279 -2.5
5.969067096710205 0.9700585603713989 -2.5
5.736166954040527 1.9150097370147705 -2.5
5.354687213897705 2.8103418350219727 -2.5
5.111186504364014 3.232128858566284 -2.5
4.520927429199219 4.005185604095459 -2.4969072341918945
4.078349590301514 4.246005535125732 -2.433866024017334
3.59148907661438 4.398769378662109 -2.347599983215332
1.1358935832977295 5.56396484375 -2.347599983215332
0.6845019459724426 5.637333869934082 -2.347599983215332
-0.684497058391571 5.637314319610596 -2.347599983215332
-1.135888695716858 5.56396484375 -2.347599983215332
-2.0137012004852295 5.309697151184082 -2.347599983215332
-2.4344189167022705 5.130449295043945 -2.347599983215332
-3.2258787155151367 4.673495769500732 -2.347599983215332
-3.7300291061401367 4.568476676940918 -2.438166856765747
-4.184228420257568 4.356249809265137 -2.497056245803833
-5.354667663574219 2.81036114692688 -2.5
-5.563452243804932 2.370361328125 -2.5
-5.871640682220459 1.4472460746765137 -2.5
5.862529277801514 -9.765624781721272e-06 -2.5
5.843515396118164 0.4717382788658142 -2.5
5.786606311798096 0.9404199123382568 -2.5
5.191010475158691 2.724443197250366 -2.5
4.954941272735596 3.1333203315734863 -2.5
4.385927677154541 3.8855857849121094 -2.4987261295318604
4.049233436584473 4.215693473815918 -2.492687463760376
3.481703996658325 4.264316082000732 -2.347599983215332
1.5316308736801147 5.287783145904541 -2.347599983215332
1.1011669635772705 5.393886566162109 -2.347599983215332
0.66357421875 5.464999675750732 -2.347599983215332
-0.22166991233825684 5.500663757324219 -2.347599983215332
