ply
format ascii 1.0
element vertex 855
property float x
property float y
property float z
end_header
-3.3992185592651367 27.99504852294922 7.556340217590332
-5.594081878662109 27.401615142822266 7.493680477142334
-7.766811370849609 26.81417465209961 7.48016357421875
-6.959848403930664 14.667635917663574 4.350184917449951
-3.3992185592651367 27.99504852294922 7.222379207611084
-5.594081878662109 27.401615142822266 7.162486553192139
-7.766816139221191 26.81417465209961 7.149567604064941
-10.233988761901855 26.984832763671875 7.391312122344971
-1.1526317596435547 28.602455139160156 6.994150161743164
-3.3992185592651367 27.99504852294922 6.890305519104004
-5.594086647033691 27.401615142822266 6.833167552947998
-7.766811370849609 26.81417465209961 6.82084321975708
0.7374267578125 18.29903793334961 4.260176181793213
-3.419936418533325 28.165672302246094 6.600010395050049
-7.893740177154541 27.252347946166992 6.600009441375732
-10.233999252319336 26.984832763671875 6.7134690284729
0.739306628704071 18.34579086303711 4.057131767272949
-1.1784032583236694 29.242137908935547 6.466823101043701
-3.4861669540405273 28.711103439331055 6.390836715698242
-5.737163066864014 28.10249900817871 6.337837219238281
-7.966474533081055 27.503440856933594 6.327198505401611
-10.199746131896973 26.894559860229492 6.355870246887207
-3.519365072250366 28.984525680541992 6.113162040710449
-10.234315872192383 26.985692977905273 6.042768478393555
-3.519360303878784 28.984525680541992 5.77619743347168
-10.234320640563965 26.985687255859375 5.709683895111084
-6.964638710021973 14.677709579467773 3.214040517807007
-5.756606101989746 28.197723388671875 5.362801551818848
-7.992470741271973 27.593212127685547 5.353129863739014
-6.965419769287109 14.679365158081055 3.0277061462402344
-3.519360303878784 28.984525680541992 5.106600284576416
-5.756606101989746 28.197723388671875 5.033477783203125
-6.966200828552246 14.68101978302002 2.8420989513397217
-3.519360303878784 28.984525680541992 4.773781776428223
-5.756606101989746 28.197723388671875 4.705427646636963
-7.992470741271973 27.593212127685547 4.69694185256958
-10.234306335449219 26.985692977905273 4.71881103515625
-6.966977596282959 14.682656288146973 2.6571648120880127
-3.519355297088623 28.98453140258789 4.442172527313232
-6.967763423919678 14.684287071228027 2.4728593826293945
20.816415786743164 3.38299298286438 2.969897985458374
-3.4898338317871094 28.741390228271484 4.077188014984131
-5.743212699890137 28.13214874267578 4.043378829956055
-6.968525409698486 14.6859130859375 2.289134979248047
-14.780448913574219 25.600473403930664 4.16286563873291
20.816415786743164 3.38299298286438 2.731921911239624
-3.49798321723938 28.808387756347656 3.759228467941284
-7.992470741271973 27.593212127685547 3.721330404281616
-6.969301700592041 14.687548637390137 2.1059417724609375
-14.85838794708252 25.7354736328125 3.849489688873291
20.816410064697266 3.382997989654541 2.494629144668579
-3.519360303878784 28.984525680541992 3.4536919593811035
-5.756606101989746 28.197723388671875 3.4042394161224365
-7.992480278015137 27.593212127685547 3.398099184036255
-10.234315872192383 26.98568344116211 3.413922071456909
-6.970073223114014 14.689165115356445 1.9232336282730103
-14.85838794708252 25.7354736328125 3.5151262283325195
-10.234315872192383 26.98568344116211 3.090029239654541
-14.85838794708252 25.7354736328125 3.181631326675415
-1.1883838176727295 29.489765167236328 2.8294665813446045
-3.519365072250366 28.984525680541992 2.799142360687256
-7.992475509643555 27.593212127685547 2.7540855407714844
-10.234315872192383 26.98568344116211 2.766909122467041
-6.971601486206055 14.692397117614746 1.5590816736221313
-14.85838794708252 25.7354736328125 2.8489317893981934
-1.1883838176727295 29.489765167236328 2.499742031097412
-3.519355297088623 28.984525680541992 2.4729526042938232
-5.756606101989746 28.197723388671875 2.4375433921813965
-10.234315872192383 26.98568344116211 2.444474935531616
-6.972362995147705 14.694018363952637 1.3775506019592285
-1.1883885860443115 29.489765167236328 2.1706366539001465
-6.973129749298096 14.695610046386719 1.1963176727294922
-14.858378410339355 25.735477447509766 2.1855719089508057
2.1274707317352295 17.521284103393555 1.101607322692871
-5.756606101989746 28.197723388671875 1.7962316274642944
-7.992475509643555 27.593212127685547 1.7929930686950684
-6.973886489868164 14.697226524353027 1.0153427124023438
-14.85838794708252 25.7354736328125 1.8547412157058716
2.124755859375 17.4990177154541 0.9042345881462097
0.7016894221305847 17.4122257232666 0.8939147591590881
-1.1861132383346558 29.43345069885254 1.5110607147216797
-3.497978448867798 28.808387756347656 1.488625407218933
-5.756606101989746 28.197723388671875 1.4762814044952393
-10.234315872192383 26.98568344116211 1.4804803133010864
-6.974653244018555 14.698822975158691 0.8345773220062256
0.7016894221305847 17.4122257232666 0.7003994584083557
-1.1811327934265137 29.31001853942871 1.1789788007736206
-5.732465744018555 28.079477310180664 1.1518425941467285
-7.95022439956665 27.44733428955078 1.148503065109253
0.7016894221305847 17.4122257232666 0.5070562362670898
-1.186123013496399 29.433446884155273 0.8571188449859619
-3.4855222702026367 28.705820083618164 0.8413863778114319
-5.756611347198486 28.197723388671875 0.8373910188674927
-7.992480278015137 27.593212127685547 0.8358803987503052
-10.234320640563965 26.98568344116211 0.839772641658783
-6.976171493530273 14.702035903930664 0.47350096702575684
-14.85838794708252 25.7354736328125 0.8646673560142517
0.7016894221305847 17.4122257232666 0.31383758783340454
-5.756606101989746 28.197723388671875 0.5182934403419495
-10.234315872192383 26.98568344116211 0.5197668075561523
2.124760627746582 17.4990234375 0.12208922952413559
-1.1883838176727295 29.489765167236328 0.20440977811813354
-3.5106687545776367 28.912982940673828 0.20172058045864105
-5.756616115570068 28.197723388671875 0.19932341575622559
-7.992470741271973 27.593212127685547 0.198963925242424
-6.97769021987915 14.705228805541992 0.11273223906755447
-14.85838794708252 25.7354736328125 0.2058154195547104
2.124760627746582 17.4990234375 -0.07325225323438644
0.7016894221305847 17.4122257232666 -0.07241638004779816
-1.1933691501617432 29.6134033203125 -0.12316299229860306
-3.510673761367798 28.912982940673828 -0.12103484570980072
-5.756606101989746 28.197723388671875 -0.1195971667766571
-7.992470741271973 27.593212127685547 -0.11938125640153885
-14.8583984375 25.7354679107666 -0.12349319458007812
2.124760627746582 17.4990234375 -0.26860976219177246
-1.1933691501617432 29.613407135009766 -0.4516200125217438
-3.5106687545776367 28.912982940673828 -0.44381681084632874
-7.992470741271973 27.593212127685547 -0.43775299191474915
-10.234315872192383 26.98568344116211 -0.4397912621498108
-14.858378410339355 25.735477447509766 -0.4528285264968872
2.124760627746582 17.4990234375 -0.4640330374240875
0.7016894221305847 17.4122257232666 -0.458737313747406
-3.5106687545776367 28.912982940673828 -0.7667101621627808
-7.992470741271973 27.593212127685547 -0.756231963634491
-6.97997522354126 14.710039138793945 -0.42861464619636536
-14.85838794708252 25.7354736328125 -0.7822758555412292
-25.150936126708984 4.087426662445068 -0.6707690358161926
0.7016894221305847 17.4122257232666 -0.6520465016365051
-1.1915478706359863 29.568193435668945 -1.1072607040405273
-5.756606101989746 28.197723388671875 -1.0768460035324097
-7.992470741271973 27.593212127685547 -1.0749034881591797
-6.980727195739746 14.711640357971191 -0.6092968583106995
-14.85838794708252 25.7354736328125 -1.1119221448898315
-1.1830761432647705 29.35811424255371 -1.4255932569503784
-2.4247217178344727 19.969364166259766 -0.9760159254074097
-5.73729944229126 28.10316276550293 -1.391672134399414
-10.200971603393555 26.897762298583984 -1.3957642316818237
-14.824882507324219 25.677431106567383 -1.438586711883545
-24.894716262817383 4.045785903930664 -1.223723292350769
22.037639617919922 7.357236385345459 -1.3854786157608032
7.289750576019287 10.561025619506836 -0.7652511596679688
4.277192115783691 20.951074600219727 -1.2751516103744507
-2.3023681640625 18.961679458618164 -1.139052391052246
-5.756601333618164 28.197723388671875 -1.7162081003189087
-7.992470741271973 27.593212127685547 -1.7131125926971436
-10.234306335449219 26.985687255859375 -1.7210888862609863
-14.85838794708252 25.7354736328125 -1.7721099853515625
-25.975536346435547 6.402402400970459 -1.5953638553619385
21.85092544555664 7.294907093048096 -1.6301062107086182
7.350571155548096 10.649140357971191 -0.9156376719474792
5.161977291107178 17.8211669921875 -1.3128963708877563
2.124760627746582 17.4990234375 -1.2473598718643188
-0.6481542587280273 16.083906173706055 -1.1390525102615356
-2.171274423599243 17.882070541381836 -1.274664044380188
-7.992470741271973 27.593212127685547 -2.032810926437378
-10.234320640563965 26.98568344116211 -2.042275905609131
-6.983017444610596 14.716464042663574 -1.1526535749435425
-14.858378410339355 25.735477447509766 -2.1028192043304443
-24.856727600097656 4.039609432220459 -1.7819875478744507
21.786991119384766 7.273569107055664 -1.881356120109558
23.41730499267578 9.977187156677246 -2.0849058628082275
18.12672233581543 22.20120620727539 -2.347599983215332
14.330663681030273 24.821439743041992 -2.347599983215332
12.28688907623291 25.89409637451172 -2.347599983215332
1.8779345750808716 15.466259002685547 -1.2761175632476807
0.6236279010772705 15.475048065185547 -1.2685620784759521
-2.171269416809082 17.88204002380371 -1.4754433631896973
-7.974091529846191 27.52973175048828 -2.347599983215332
-10.163447380065918 26.798851013183594 -2.347599983215332
-6.983784198760986 14.718080520629883 -1.3343631029129028
-16.281503677368164 23.58780288696289 -2.347599983215332
-19.854442596435547 20.670644760131836 -2.347599983215332
-24.753387451171875 4.022822380065918 -2.054104804992676
26.860151290893555 -1.4648437172581907e-05 -2.5
26.079652786254883 6.428046703338623 -2.5
21.795278549194336 7.276332855224609 -2.13865065574646
22.701929092407227 14.3558349609375 -2.5
18.879501342773438 16.725770950317383 -2.347599983215332
17.472415924072266 18.190717697143555 -2.347599983215332
15.95201587677002 19.537675857543945 -2.347599983215332
12.611381530761719 21.843549728393555 -2.347599983215332
10.81277847290039 22.787504196166992 -2.347599983215332
1.8779394626617432 15.466259002685547 -1.4500887393951416
0.6236279010772705 15.475048065185547 -1.4415032863616943
-2.171274423599243 17.882070541381836 -1.676591396331787
-7.017314434051514 24.22696304321289 -2.347599983215332
-8.944165229797363 23.58366584777832 -2.347599983215332
-6.984550476074219 14.719696998596191 -1.516440987586975
-12.611312866210938 21.843584060668945 -2.347599983215332
-14.854403495788574 11.162372589111328 -1.7294158935546875
-22.701942443847656 14.35582447052002 -2.5
-24.710800170898438 10.528276443481445 -2.5
-25.47783088684082 8.505756378173828 -2.5
-26.07965850830078 6.428061485290527 -2.5
-25.75701141357422 4.185927867889404 -2.4287781715393066
-26.773056030273438 2.1613426208496094 -2.5
9.988510131835938 -4.882812390860636e-06 -1.0414429903030396
21.968090057373047 7.334023475646973 -2.4147555828094482
22.05887222290039 9.398407936096191 -2.5
21.2310733795166 11.14293384552002 -2.5
14.240068435668945 17.440921783447266 -2.347599983215332
7.984242916107178 21.052724838256836 -2.347599983215332
5.161957740783691 17.821123123168945 -1.9344825744628906
3.2684521675109863 16.009965896606445 -1.7036935091018677
1.8779345750808716 15.466259002685547 -1.6244184970855713
-0.6443408131599426 15.98928165435791 -1.668459415435791
-4.5037841796875 22.06087875366211 -2.347599983215332
-6.264321327209473 21.626922607421875 -2.347599983215332
-7.984257698059082 21.052724838256836 -2.347599983215332
-6.985317230224609 14.721308708190918 -1.6989340782165527
-8.951884269714355 15.505166053771973 -1.8667242527008057
-14.833280563354492 11.146503448486328 -1.9345722198486328
-20.265625 12.815204620361328 -2.5
-22.058876037597656 9.398398399353027 -2.5
-23.280858993530273 5.738212585449219 -2.5
9.5438232421875 -4.882812390860636e-06 -1.1021144390106201
21.578691482543945 1.7420116662979126 -2.5
21.368539810180664 3.472719669342041 -2.5
18.000595092773438 9.447426795959473 -2.347599983215332
17.1820011138916 10.86525821685791 -2.347599983215332
16.25200080871582 12.212592124938965 -2.347599983215332
15.216601371765137 13.48073673248291 -2.347599983215332
14.082514762878418 14.661455154418945 -2.347599983215332
12.85708999633789 15.747075080871582 -2.347599983215332
8.4572114944458 14.648310661315918 -1.9532651901245117
8.714950561523438 18.366395950317383 -2.347599983215332
4.942587852478027 17.063764572143555 -2.0515105724334717
1.8779394626617432 15.466259002685547 -1.7991507053375244
-0.6443408131599426 15.98928165435791 -1.8479299545288086
-2.0348193645477295 16.758291244506836 -1.9494510889053345
-7.725678443908691 13.381318092346191 -1.7843172550201416
-12.85708999633789 15.747089385986328 -2.347599983215332
-14.816293716430664 11.133734703063965 -2.140211820602417
-18.29743194580078 11.570595741271973 -2.5
-20.534774780273438 6.855522155761719 -2.5
-21.019804000854492 5.180927753448486 -2.5
-21.578691482543945 1.7420165538787842 -2.5
9.286552429199219 -4.882812390860636e-06 -1.1768254041671753
19.154720306396484 4.721210956573486 -2.5
18.712709426879883 6.247211933135986 -2.5
18.149335861206055 7.732709884643555 -2.5
14.809975624084473 11.128934860229492 -2.347599983215332
13.866450309753418 12.284555435180664 -2.347599983215332
7.282641410827637 10.550722122192383 -1.6246068477630615
8.4572114944458 14.648310661315918 -2.1434545516967773
7.941684246063232 16.736753463745117 -2.347599983215332
6.569194316864014 17.321514129638672 -2.347599983215332
3.1401023864746094 15.381269454956055 -1.9893723726272583
1.852758765220642 15.258881568908691 -1.9478617906570435
-0.6189208626747131 15.358490943908691 -1.9478617906570435
-2.0260839462280273 16.686338424682617 -2.130082845687866
-5.154037952423096 17.79397964477539 -2.347599983215332
-6.504716873168945 13.708452224731445 -1.9228298664093018
-10.523612976074219 15.246068954467773 -2.347599983215332
-12.832963943481445 13.360546112060547 -2.347599983215332
-16.673900604248047 10.543925285339355 -2.5
-18.14934539794922 7.732705116271973 -2.5
9.146479606628418 -4.882812390860636e-06 -1.2622064352035522
17.881454467773438 2.906020402908325 -2.5
17.58963394165039 4.33544921875 -2.5
16.65874481201172 7.097626686096191 -2.498852014541626
15.063105583190918 7.905742168426514 -2.347599983215332
14.3781099319458 9.09219741821289 -2.347599983215332
13.599872589111328 10.21963882446289 -2.347599983215332
10.758964538574219 13.177343368530273 -2.347599983215332
8.386000633239746 14.524970054626465 -2.3145203590393066
7.292783260345459 15.36922836303711 -2.347599983215332
6.032426834106445 15.906206130981445 -2.347599983215332
4.732963562011719 16.34004783630371 -2.347599983215332
3.1401073932647705 15.381264686584473 -2.1663818359375
1.8197851181030273 14.98732852935791 -2.0834290981292725
-0.6089306473731995 15.110517501831055 -2.086930990219116
-2.0260984897613525 16.686357498168945 -2.3196144104003906
-4.732958793640137 16.340038299560547 -2.347599983215332
-6.032431602478027 15.90621566772461 -2.347599983215332
-7.725678443908691 13.381318092346191 -2.132280111312866
-9.663763999938965 14.000350952148438 -2.347599983215332
-12.733437538146973 11.28084945678711 -2.347599983215332
-13.599882125854492 10.219657897949219 -2.347599983215332
-15.311503410339355 9.682416915893555 -2.5
-16.040971755981445 8.418950080871582 -2.5
-16.666410446166992 7.100878715515137 -2.5
-17.589643478393555 4.335458755493164 -2.5
16.526933670043945 2.6858885288238525 -2.5
16.257205963134766 4.007040977478027 -2.5
15.882064819335938 5.302211761474609 -2.5
15.399677276611328 6.561196327209473 -2.4993131160736084
13.922069549560547 7.306894302368164 -2.347599983215332
13.288979530334473 8.403412818908691 -2.347599983215332
12.569682121276855 9.4454927444458 -2.347599983215332
11.768877029418945 10.426308631896973 -2.347599983215332
10.891733169555664 11.339516639709473 -2.347599983215332
9.943974494934082 12.179155349731445 -2.347599983215332
7.285590648651123 10.554999351501465 -1.9149351119995117
5.575473308563232 14.701313018798828 -2.347599983215332
4.374428749084473 15.102279663085938 -2.347599983215332
3.1401023864746094 15.381269454956055 -2.3439366817474365
-1.8952245712280273 15.608403205871582 -2.347599983215332
-3.1449902057647705 15.405322074890137 -2.347599983215332
-4.374428749084473 15.102279663085938 -2.347599983215332
-5.575488090515137 14.701308250427246 -2.347599983215332
-6.462910175323486 13.620366096496582 -2.250976800918579
-9.9439697265625 12.17916488647461 -2.347599983215332
-14.1516695022583 8.948965072631836 -2.5
-14.8258638381958 7.781215667724609 -2.5
-15.882064819335938 5.302216529846191 -2.5
-16.52693748474121 2.6858837604522705 -2.5
8.882143020629883 -9.765624781721272e-06 -1.426979899406433
10.710956573486328 0.8646777272224426 -1.726389765739441
15.359569549560547 2.496171712875366 -2.5
15.10891056060791 3.724008798599243 -2.5
14.76025390625 4.927695274353027 -2.5
14.315878868103027 6.099428653717041 -2.5
10.937597274780273 9.689863204956055 -2.347599983215332
7.301591396331787 10.5781831741333 -2.0649986267089844
7.306235313415527 12.654780387878418 -2.347599983215332
6.264257907867432 13.201655387878418 -2.347599983215332
4.065439224243164 14.035551071166992 -2.347599983215332
0.5883495807647705 14.60060977935791 -2.347599983215332
-0.5883886814117432 14.600629806518555 -2.347599983215332
-1.7613574266433716 14.505927085876465 -2.347599983215332
-4.065400123596191 14.035585403442383 -2.347599983215332
-5.181621074676514 13.66292953491211 -2.347599983215332
-9.241591453552246 11.318915367126465 -2.347599983215332
-10.122426986694336 10.538564682006836 -2.347599983215332
-11.681836128234863 8.778349876403809 -2.347599983215332
-13.778661727905273 7.231611251831055 -2.5
-15.108920097351074 3.724003791809082 -2.5
-15.359575271606445 2.496171712875366 -2.5
-15.510629653930664 1.2521532773971558 -2.5
8.769105911254883 -4.882812390860636e-06 -1.5086839199066162
12.082250595092773 6.341274261474609 -2.347599983215332
11.532816886901855 7.292914867401123 -2.347599983215332
10.908588409423828 8.197275161743164 -2.347599983215332
9.452383041381836 9.840986251831055 -2.347599983215332
8.629862785339355 10.569672584533691 -2.347599983215332
7.308115005493164 10.587626457214355 -2.213351011276245
5.849614143371582 12.327802658081055 -2.347599983215332
4.838666915893555 12.758515357971191 -2.347599983215332
2.7293944358825684 13.369477272033691 -2.347599983215332
0.5494335889816284 13.634169578552246 -2.347599983215332
-0.5494482517242432 13.634164810180664 -2.347599983215332
-4.838681697845459 12.758515357971191 -2.347599983215332
-8.629867553710938 10.569677352905273 -2.347599983215332
-9.452387809753418 9.840986251831055 -2.347599983215332
-10.90859317779541 8.197279930114746 -2.347599983215332
-12.281513214111328 7.76635217666626 -2.5
-14.483940124511719 1.1692675352096558 -2.5
8.722084999084473 -9.765624781721272e-06 -1.6003044843673706
13.44921875 2.1857128143310547 -2.5
13.229731559753418 3.2608251571655273 -2.5
11.329447746276855 5.946156978607178 -2.347599983215332
10.814248085021973 6.83853006362915 -2.347599983215332
10.228910446166992 7.6865234375 -2.347599983215332
9.577226638793945 8.484682083129883 -2.347599983215332
6.397519588470459 11.080839157104492 -2.347599983215332
4.537192344665527 11.963574409484863 -2.347599983215332
3.559804677963257 12.289873123168945 -2.347599983215332
2.559330940246582 12.536469459533691 -2.347599983215332
1.5422850847244263 12.701766967773438 -2.347599983215332
0.5151953101158142 12.784672737121582 -2.347599983215332
-3.559804677963257 12.289877891540527 -2.347599983215332
-4.537192344665527 11.963574409484863 -2.347599983215332
-5.485151290893555 11.5596923828125 -2.347599983215332
-6.397529125213623 11.08084487915039 -2.347599983215332
-7.26842737197876 10.53011703491211 -2.347599983215332
-8.863456726074219 9.22781753540039 -2.347599983215332
-9.577250480651855 8.484667778015137 -2.347599983215332
-12.064936637878418 6.332177639007568 -2.5
-12.535341262817383 5.340805530548096 -2.5
-12.924448013305664 4.314809322357178 -2.5
-13.229736328125 3.2608397006988525 -2.5
-13.449223518371582 2.185717821121216 -2.5
-13.581493377685547 1.0964062213897705 -2.5
10.683545112609863 0.8624609112739563 -2.089590311050415
12.657387733459473 2.0570263862609863 -2.5
11.7972993850708 5.0263671875 -2.5
10.1775484085083 6.435893535614014 -2.347599983215332
9.62667465209961 7.233979225158691 -2.347599983215332
9.013373374938965 7.985141277313232 -2.347599983215332
6.84048318862915 9.910146713256836 -2.347599983215332
1.4514647722244263 11.953930854797363 -2.347599983215332
0.48486328125 12.031957626342773 -2.347599983215332
-0.4848583936691284 12.031967163085938 -2.347599983215332
-4.270058631896973 11.2592134475708 -2.347599983215332
-5.162211894989014 10.879101753234863 -2.347599983215332
-6.0208740234375 10.428437232971191 -2.347599983215332
-6.840487957000732 9.910140991210938 -2.347599983215332
-8.341601371765137 8.684521675109863 -2.347599983215332
-9.62667465209961 7.233979225158691 -2.347599983215332
-10.838252067565918 6.853691101074219 -2.5
-11.354598999023438 5.959360122680664 -2.5
-11.797314643859863 5.0263671875 -2.5
-12.657392501831055 2.0570311546325684 -2.5
10.65152359008789 0.8598730564117432 -2.2065184116363525
11.950712203979492 1.9421825408935547 -2.5
11.484414100646973 3.8340673446655273 -2.5
11.138667106628418 4.745747089385986 -2.5
9.609331130981445 6.076581954956055 -2.347599983215332
9.089218139648438 6.830097675323486 -2.347599983215332
7.875878810882568 8.199663162231445 -2.347599983215332
7.190541744232178 8.8068208694458 -2.347599983215332
6.458574295043945 9.356864929199219 -2.347599983215332
4.873984336853027 10.271718978881836 -2.347599983215332
4.031660079956055 10.630610466003418 -2.347599983215332
2.274179697036743 11.139662742614746 -2.347599983215332
1.3704296350479126 11.286542892456055 -2.347599983215332
-2.274184465408325 11.139667510986328 -2.347599983215332
-3.1631736755371094 10.92055606842041 -2.347599983215332
-4.031660079956055 10.630605697631836 -2.347599983215332
-5.684726238250732 9.84621524810791 -2.347599983215332
-6.458588600158691 9.356855392456055 -2.347599983215332
-7.190541744232178 8.806825637817383 -2.347599983215332
-7.875893592834473 8.199667930603027 -2.347599983215332
-8.510150909423828 7.539330959320068 -2.347599983215332
-9.089213371276855 6.83010721206665 -2.347599983215332
-11.484418869018555 3.834062337875366 -2.5
-11.950727462768555 1.9421874284744263 -2.5
11.131366729736328 2.7436375617980957 -2.5
10.547114372253418 4.493715763092041 -2.5
10.132211685180664 5.317807674407959 -2.4952945709228516
9.099008560180664 5.753871917724609 -2.347599983215332
8.606508255004883 6.467372894287109 -2.347599983215332
8.058202743530273 7.138935565948486 -2.347599983215332
6.808676719665527 8.339120864868164 -2.347599983215332
5.382817268371582 9.323315620422363 -2.347599983215332
2.995180606842041 10.340585708618164 -2.347599983215332
1.2976512908935547 10.687138557434082 -2.347599983215332
0.4334814250469208 10.756898880004883 -2.347599983215332
-0.43348631262779236 10.756903648376465 -2.347599983215332
-2.1534130573272705 10.548070907592773 -2.347599983215332
-6.115590572357178 8.859941482543945 -2.347599983215332
-6.808681488037109 8.339116096496582 -2.347599983215332
-8.058202743530273 7.138930320739746 -2.347599983215332
-8.6065034866333 6.467387676239014 -2.347599983215332
-10.151371955871582 5.32778787612915 -2.5
-11.13138198852539 2.743642568588257 -2.5
8.68130874633789 -9.765624781721272e-06 -1.994110107421875
10.848407745361328 0.8757714629173279 -2.5
10.742753982543945 1.7458691596984863 -2.5
10.5674409866333 2.6046385765075684 -2.5
10.323588371276855 3.446523427963257 -2.5
9.626635551452637 5.052455902099609 -2.4973011016845703
8.638036727905273 5.462368011474609 -2.347599983215332
8.170493125915527 6.139721393585205 -2.347599983215332
7.649955749511719 6.777265548706055 -2.347599983215332
6.463735103607178 7.916640281677246 -2.347599983215332
5.805751800537109 8.411084175109863 -2.347599983215332
4.381328105926514 9.233466148376465 -2.347599983215332
2.843447208404541 9.816713333129883 -2.347599983215332
0.4115234315395355 10.21193790435791 -2.347599983215332
-1.2319189310073853 10.145712852478027 -2.347599983215332
-2.843451976776123 9.8167085647583 -2.347599983215332
-5.110126972198486 8.850971221923828 -2.347599983215332
-5.805761814117432 8.411084175109863 -2.347599983215332
-7.079814434051514 7.370859146118164 -2.347599983215332
-8.349443435668945 6.274203777313232 -2.399015188217163
-9.637045860290527 5.057914733886719 -2.5
-10.567450523376465 2.6046435832977295 -2.5
10.055415153503418 2.478442430496216 -2.5
9.823378562927246 3.2795262336730957 -2.5
9.527631759643555 4.059350490570068 -2.5
9.166889190673828 4.8111572265625 -2.4991257190704346
7.279286861419678 6.448891639709473 -2.347599983215332
6.736762523651123 7.013715744018555 -2.347599983215332
6.150546550750732 7.533056259155273 -2.347599983215332
4.862514495849609 8.422123908996582 -2.347599983215332
1.172216773033142 9.654130935668945 -2.347599983215332
0.39158201217651367 9.717138290405273 -2.347599983215332
-0.39158201217651367 9.717143058776855 -2.347599983215332
-1.945253849029541 9.5285005569458 -2.347599983215332
-2.705683469772339 9.341069221496582 -2.347599983215332
-4.169057369232178 8.786078453063965 -2.347599983215332
-5.524453163146973 8.003544807434082 -2.347599983215332
-6.736772537231445 7.013725280761719 -2.347599983215332
-8.254618644714355 6.202953815460205 -2.4925434589385986
-8.75308609008789 5.535121917724609 -2.5
-9.527641296386719 4.059345722198486 -2.5
-9.823392868041992 3.2795262336730957 -2.5
-10.322772979736328 0.8333398103713989 -2.5
8.729155540466309 -4.882812390860636e-06 -2.209845781326294
9.843276023864746 0.794628918170929 -2.5
9.747421264648438 1.5841113328933716 -2.5
9.085073471069336 3.870795726776123 -2.5
8.744145393371582 4.589286804199219 -2.5
6.423842430114746 6.687919616699219 -2.347599983215332
5.86486291885376 7.183144569396973 -2.347599983215332
5.267836570739746 7.631772518157959 -2.347599983215332
4.636650085449219 8.030902862548828 -2.347599983215332
-3.2883543968200684 8.67068862915039 -2.347599983215332
-4.636655330657959 8.03091812133789 -2.347599983215332
-5.267841815948486 7.631777286529541 -2.347599983215332
-6.423847675323486 6.687934398651123 -2.347599983215332
-7.876933574676514 5.919135570526123 -2.4943621158599854
-8.346508979797363 5.278007507324219 -2.5
-9.367094993591309 3.127197265625 -2.5
-9.588339805603027 2.3633251190185547 -2.5
-9.843276023864746 0.7946386337280273 -2.5
9.43459415435791 -4.882812390860636e-06 -2.5
9.160439491271973 2.2578516006469727 -2.5
8.679638862609863 3.6980466842651367 -2.5
7.0826416015625 5.322250843048096 -2.347599983215332
6.631406307220459 5.874911785125732 -2.347599983215332
6.137163162231445 6.389472484588623 -2.347599983215332
5.603125095367432 6.86257791519165 -2.347599983215332
5.03274393081665 7.291196346282959 -2.347599983215332
4.429731369018555 7.672524452209473 -2.347599983215332
3.797983407974243 8.0040864944458 -2.347599983215332
3.141606330871582 8.283735275268555 -2.347599983215332
2.464858293533325 8.509673118591309 -2.347599983215332
1.0678857564926147 8.794867515563965 -2.347599983215332
-0.35673826932907104 8.852285385131836 -2.347599983215332
-1.067895531654358 8.794867515563965 -2.347599983215332
-1.77212393283844 8.680424690246582 -2.347599983215332
-4.429746150970459 7.672519207000732 -2.347599983215332
-6.631420612335205 5.874911785125732 -2.347599983215332
-7.531494140625 5.659550666809082 -2.496377468109131
-8.353925704956055 4.384482383728027 -2.5
-8.679638862609863 3.6980466842651367 -2.5
-9.404008865356445 0.7591747641563416 -2.5
8.766894340515137 2.1608495712280273 -2.5
8.564594268798828 2.8592920303344727 -2.5
8.306747436523438 3.539179563522339 -2.5
7.99502420425415 4.196123123168945 -2.5
7.608451843261719 4.811293601989746 -2.492465019226074
6.778354167938232 5.093603610992432 -2.347599983215332
5.873505592346191 6.114975452423096 -2.347599983215332
3.0066356658935547 7.927861213684082 -2.347599983215332
2.358959913253784 8.144086837768555 -2.347599983215332
0.3414062559604645 8.471972465515137 -2.347599983215332
-0.34141111373901367 8.4719820022583 -2.347599983215332
-1.6959960460662842 8.307499885559082 -2.347599983215332
-3.006640672683716 7.927861213684082 -2.347599983215332
-5.362411975860596 6.567768573760986 -2.347599983215332
-5.873505592346191 6.114975452423096 -2.347599983215332
-7.631454944610596 4.825839519500732 -2.5
-8.306753158569336 3.5391697883605957 -2.5
-8.7669038772583 2.1608495712280273 -2.5
-8.912367820739746 1.448403239250183 -2.5
8.543066024780273 1.388393521308899 -2.5
8.403647422790527 2.0713183879852295 -2.5
7.962563514709473 3.392534017562866 -2.5
7.663754940032959 4.02224588394165 -2.5
7.298915863037109 4.615551471710205 -2.494418144226074
6.083544731140137 5.38955545425415 -2.347599983215332
5.140224456787109 6.295624732971191 -2.347599983215332
4.616967678070068 6.688827991485596 -2.347599983215332
4.063759803771973 7.038652420043945 -2.347599983215332
2.8820605278015137 7.599374771118164 -2.347599983215332
1.6257128715515137 7.963276386260986 -2.347599983215332
-1.6257226467132568 7.963276386260986 -2.347599983215332
-2.8820652961730957 7.599379539489746 -2.347599983215332
-4.063774108886719 7.038652420043945 -2.347599983215332
-6.919301509857178 5.199521541595459 -2.5
-7.663764476776123 4.022255897521973 -2.5
-7.962577819824219 3.392524242401123 -2.5
-8.20974063873291 2.7408103942871094 -2.5
-8.403661727905273 2.0713133811950684 -2.5
-8.543070793151855 1.3883886337280273 -2.5
8.30868148803711 0.0 -2.5
8.281733512878418 0.6685693264007568 -2.5
8.067231178283691 1.9883935451507568 -2.5
7.881078720092773 2.6310839653015137 -2.5
7.643808364868164 3.256723642349243 -2.5
7.356972694396973 3.8612303733825684 -2.5
7.012592792510986 4.434496879577637 -2.496506929397583
6.237392425537109 4.687089920043945 -2.347599983215332
5.840019226074219 5.173793792724609 -2.347599983215332
5.404765605926514 5.626957893371582 -2.347599983215332
4.934457778930664 6.04360818862915 -2.347599983215332
4.432138442993164 6.421069145202637 -2.347599983215332
3.3447265625 7.048876762390137 -2.347599983215332
2.7666893005371094 7.29516077041626 -2.347599983215332
1.5606249570846558 7.644496917724609 -2.347599983215332
0.94044429063797 7.745292663574219 -2.347599983215332
0.31416013836860657 7.795849323272705 -2.347599983215332
-0.31416013836860657 7.795854091644287 -2.347599983215332
-0.9404589533805847 7.745292663574219 -2.347599983215332
-2.170712947845459 7.494130611419678 -2.347599983215332
-2.7666893005371094 7.295170783996582 -2.347599983215332
-2.402968645095825 5.064140319824219 -1.6865915060043335
-5.404770374298096 5.626953125 -2.347599983215332
-6.099877834320068 5.404008865356445 -2.452056884765625
-7.356972694396973 3.8612303733825684 -2.5
-7.643818378448486 3.2567138671875 -2.5
-7.881088733673096 2.631098508834839 -2.5
-8.201088905334473 1.3328075408935547 -2.5
-8.28173828125 0.6685693264007568 -2.5
7.754721641540527 1.9113671779632568 -2.5
7.575786113739014 2.529165029525757 -2.5
7.347704887390137 3.130561351776123 -2.5
7.071967601776123 3.711660146713257 -2.5
6.746191024780273 4.266035079956055 -2.498450517654419
6.009570121765137 4.515893459320068 -2.3530032634735107
5.613783836364746 4.973383903503418 -2.347599983215332
5.195385456085205 5.408979415893555 -2.347599983215332
4.743295669555664 5.809487342834473 -2.347599983215332
3.7499656677246094 6.495136737823486 -2.347599983215332
2.6595115661621094 7.012558460235596 -2.347599983215332
0.9040136337280273 7.445253849029541 -2.347599983215332
-0.3019970655441284 7.493852138519287 -2.347599983215332
-0.9040234088897705 7.445249080657959 -2.347599983215332
-1.5001903772354126 7.348369121551514 -2.347599983215332
-3.7499754428863525 6.495126724243164 -2.347599983215332
-4.260454177856445 6.172324180603027 -2.347599983215332
-5.962729454040527 5.282509803771973 -2.4935202598571777
-6.384999752044678 4.798017501831055 -2.5
-7.071982383728027 3.7116551399230957 -2.5
-7.754735946655273 1.9113720655441284 -2.5
-7.883388519287109 1.2811766862869263 -2.5
7.686962604522705 -4.882812390860636e-06 -2.5
7.463593482971191 1.8396044969558716 -2.5
7.291362285614014 2.434213876724243 -2.5
7.071855545043945 3.0130321979522705 -2.5
6.806469440460205 3.5723094940185547 -2.5
5.979374885559082 4.493203163146973 -2.4325029850006104
4.565229415893555 5.591381549835205 -2.347599983215332
4.100497722625732 5.940600395202637 -2.347599983215332
2.5596630573272705 6.749291896820068 -2.347599983215332
0.2906445264816284 7.212509632110596 -2.347599983215332
-0.8700829744338989 7.165741920471191 -2.347599983215332
-1.4438574314117432 7.072490215301514 -2.347599983215332
-2.0082762241363525 6.933373928070068 -2.347599983215332
-2.5596728324890137 6.749291896820068 -2.347599983215332
-5.000341892242432 5.205898284912109 -2.347599983215332
-5.74352502822876 5.088315486907959 -2.495544672012329
-6.14529275894165 4.617890357971191 -2.5
-7.58743143081665 1.233071208000183 -2.5
7.382861137390137 0.5959863066673279 -2.5
7.310956954956055 1.1881396770477295 -2.5
6.558456897735596 3.442143440246582 -2.5
5.90457010269165 4.436992168426514 -2.4929044246673584
4.818139553070068 5.016215801239014 -2.347599983215332
4.398881912231445 5.387646198272705 -2.347599983215332
3.9510936737060547 5.724140644073486 -2.347599983215332
3.477670907974243 6.023500919342041 -2.347599983215332
2.981703996658325 6.2838134765625 -2.347599983215332
2.4663915634155273 6.503359317779541 -2.347599983215332
1.935097575187683 6.680737018585205 -2.347599983215332
-0.2800634801387787 6.94970703125 -2.347599983215332
-0.83837890625 6.904638290405273 -2.347599983215332
-2.3903515338897705 5.037543773651123 -1.8820005655288696
-3.9510984420776367 5.724135398864746 -2.347599983215332
-4.845576286315918 5.044775485992432 -2.360966682434082
-5.921371936798096 4.449628829956055 -2.5
-6.5584716796875 3.442148447036743 -2.5
-6.814179420471191 2.903247117996216 -2.5
-7.310956954956055 1.1881591081619263 -2.5
7.052070140838623 1.1460644006729126 -2.5
6.936977386474609 1.709804654121399 -2.5
6.57287073135376 2.8004345893859863 -2.5
6.326215744018555 3.320258617401123 -2.5
4.647524356842041 4.838583946228027 -2.347599983215332
4.243100643157959 5.196865081787109 -2.347599983215332
3.811171770095825 5.521440505981445 -2.347599983215332
2.8761229515075684 6.061298847198486 -2.347599983215332
1.8665722608566284 6.444164752960205 -2.347599983215332
0.8086816072463989 6.660136699676514 -2.347599983215332
0.2701416015625 6.70361328125 -2.347599983215332
-0.2701513469219208 6.70360803604126 -2.347599983215332
-0.8086913824081421 6.660141468048096 -2.347599983215332
-2.3790674209594727 6.273076057434082 -2.347599983215332
-2.388198137283325 5.033012390136719 -1.9493346214294434
-3.3545312881469727 5.810200214385986 -2.347599983215332
-4.243114948272705 5.196865081787109 -2.347599983215332
-4.82681131362915 5.025244235992432 -2.438162088394165
-5.346132755279541 4.736249923706055 -2.4992151260375977
-5.71169900894165 4.292060375213623 -2.5
-6.32620096206665 3.3202831745147705 -2.5
-6.572880744934082 2.8004345893859863 -2.5
-6.776904106140137 2.262465715408325 -2.5
-6.936982154846191 1.709814429283142 -2.5
6.80908203125 1.1065771579742432 -2.5
6.697948932647705 1.6508935689926147 -2.5
6.543393611907959 2.184501886367798 -2.5
6.108237266540527 3.2058496475219727 -2.5
5.830463886260986 3.686962842941284 -2.5
3.679863214492798 5.331196308135986 -2.347599983215332
3.238945245742798 5.610009670257568 -2.347599983215332
1.8022607564926147 6.222118854522705 -2.347599983215332
-0.7808203101158142 6.430649280548096 -2.347599983215332
-2.2970898151397705 6.056923866271973 -2.347599983215332
-2.3860301971435547 5.0284423828125 -2.017066717147827
-3.23895001411438 5.610004901885986 -2.347599983215332
-5.83047342300415 3.686957836151123 -2.5
-6.543398380279541 2.184511661529541 -2.5
-6.809086799621582 1.1065820455551147 -2.5
-6.876044750213623 0.5550927519798279 -2.5
6.645219802856445 0.536450207233429 -2.5
6.323740005493164 2.1111717224121094 -2.5
6.133354187011719 2.6131834983825684 -2.5
5.634746074676514 3.5631980895996094 -2.5
4.895527362823486 4.337050914764404 -2.452571153640747
4.336748123168945 4.515038967132568 -2.347599983215332
3.9593799114227295 4.849360466003418 -2.347599983215332
3.556328058242798 5.152235984802246 -2.347599983215332
2.6838035583496094 5.655991077423096 -2.347599983215332
2.219970703125 5.853598594665527 -2.347599983215332
1.2522460222244263 6.133901119232178 -2.347599983215332
0.7545995712280273 6.214785099029541 -2.347599983215332
0.2520751953125 6.255346775054932 -2.347599983215332
-1.7417675256729126 6.013256549835205 -2.347599983215332
-2.219985246658325 5.853603363037109 -2.347599983215332
-2.3827831745147705 5.021596431732178 -2.0842862129211426
-3.1302196979522705 5.421689510345459 -2.347599983215332
-3.556328058242798 5.152231216430664 -2.347599983215332
-4.609086990356445 4.798564434051514 -2.495021104812622
-4.990214824676514 4.42092752456665 -2.5
-5.634755611419678 3.5631933212280273 -2.5
-5.903207778930664 3.0982322692871094 -2.5
-6.133364200592041 2.6131787300109863 -2.5
-6.323750019073486 2.1111717224121094 -2.5
-6.580517292022705 1.069433569908142 -2.5
6.448554515838623 -4.882812390860636e-06 -2.5
6.427646160125732 0.5188915729522705 -2.5
6.365048885345459 1.034423828125 -2.5
6.261176586151123 1.543237328529358 -2.5
5.932543754577637 2.5276172161102295 -2.5
5.450258731842041 3.446533203125 -2.5
4.813847541809082 4.264697074890137 -2.4932820796966553
4.194750785827637 4.367207050323486 -2.347599983215332
3.8297460079193115 4.690585613250732 -2.347599983215332
3.0277295112609863 5.244184494018555 -2.347599983215332
2.147294759750366 5.661952972412109 -2.347599983215332
1.6847411394119263 5.816376686096191 -2.347599983215332
1.211245059967041 5.933085918426514 -2.347599983215332
-0.2438330054283142 6.050551414489746 -2.347599983215332
-0.7299121022224426 6.011303424835205 -2.347599983215332
-1.2112548351287842 5.933081150054932 -2.347599983215332
-3.4399023056030273 4.983544826507568 -2.347599983215332
-4.461591720581055 4.644999980926514 -2.4969258308410645
-4.826821327209473 4.276196002960205 -2.5
-5.450268268585205 3.446537971496582 -2.5
-5.932553768157959 2.5276172161102295 -2.5
6.242416858673096 0.0 -2.5
6.222177505493164 0.5022997856140137 -2.5
5.921152114868164 1.976772427558899 -2.5
4.990448951721191 3.7500829696655273 -2.5
4.663491249084473 4.131489276885986 -2.4951727390289307
4.098808288574219 4.267323970794678 -2.3696553707122803
3.3299314975738525 4.824233055114746 -2.347599983215332
1.6308789253234863 5.630439281463623 -2.347599983215332
0.2360253781080246 5.857123851776123 -2.347599983215332
-0.23604004085063934 5.857128620147705 -2.347599983215332
-1.1725341081619263 5.743412971496582 -2.347599983215332
-2.9309473037719727 5.0765380859375 -2.347599983215332
-3.3299365043640137 4.824228286743164 -2.347599983215332
-3.9056150913238525 4.783500671386719 -2.4731602668762207
-4.322080135345459 4.499765396118164 -2.498727321624756
-5.276034832000732 3.336357355117798 -2.5
-5.527392387390137 2.900995969772339 -2.5
-6.061039924621582 1.4939160346984863 -2.5
-6.222182273864746 0.5023046731948853 -2.5
6.047377586364746 -4.882812390860636e-06 -2.5
6.027758598327637 0.4866015613079071 -2.5
5.969062328338623 0.9700585603713989 -2.5
5.736152172088623 1.9150097370147705 -2.5
5.111176490783691 3.23211407661438 -2.5
4.085556507110596 4.253510475158691 -2.438169240951538
3.5914793014526367 4.398764610290527 -2.347599983215332
2.4344236850738525 5.130449295043945 -2.347599983215332
2.0137059688568115 5.309701919555664 -2.347599983215332
1.579921841621399 5.454521179199219 -2.347599983215332
0.6844872832298279 5.637314319610596 -2.347599983215332
-0.2286669909954071 5.674116134643555 -2.347599983215332
-1.1358935832977295 5.56396484375 -2.347599983215332
-2.0137109756469727 5.309697151184082 -2.347599983215332
-2.3673925399780273 4.989169597625732 -2.282954692840576
-2.8393797874450684 4.917914867401123 -2.347599983215332
-3.225898265838623 4.673495769500732 -2.347599983215332
-5.354692459106445 2.810351610183716 -2.5
-5.736162185668945 1.9150097370147705 -2.5
-5.969072341918945 0.9700781106948853 -2.5
-6.027773380279541 0.4866113066673279 -2.5
5.843505859375 0.4717382788658142 -2.5
5.786601543426514 0.9404052495956421 -2.5
5.692162990570068 1.4029881954193115 -2.5
5.393393516540527 2.297910213470459 -2.5
4.954936504364014 3.133310556411743 -2.5
4.386117935180664 3.885756731033325 -2.4988386631011963
1.5316259860992432 5.287778377532959 -2.347599983215332
1.1011669635772705 5.393886566162109 -2.347599983215332
0.6635644435882568 5.464999675750732 -2.347599983215332
0.22166503965854645 5.500669002532959 -2.347599983215332
-0.22166991233825684 5.500673770904541 -2.347599983215332
-1.5316308736801147 5.287787914276123 -2.347599983215332
-1.9521484375 5.147397518157959 -2.347599983215332
-2.3600146770477295 4.973622798919678 -2.347599983215332
-4.686752796173096 3.521860361099243 -2.5
-4.954951286315918 3.133315324783325 -2.5
-5.560810565948486 1.85647451877594 -2.5
-5.692182540893555 1.4029881954193115 -2.5
-5.786611080169678 0.9404150247573853 -2.5
-5.843515396118164 0.4717382788658142 -2.5
5.687026023864746 0.0 -2.5
5.6685791015625 0.4576171636581421 -2.5
5.613373756408691 0.9122558236122131 -2.5
5.521767616271973 1.360986351966858 -2.5
5.394345760345459 1.8008984327316284 -2.5
5.035605430603027 2.642890453338623 -2.5
4.546445369720459 3.4164257049560547 -2.5
4.256796836853027 3.771196126937866 -2.5
3.4371824264526367 4.209794998168945 -2.389108419418335
3.0336570739746094 4.395014762878418 -2.347599983215332
2.670170783996582 4.624867916107178 -2.347599983215332
2.289365291595459 4.82473611831665 -2.347599983215332
1.8937108516693115 4.993310451507568 -2.347599983215332
1.4857763051986694 5.129492282867432 -2.347599983215332
-0.6437109112739563 5.301401138305664 -2.347599983215332
-1.893715739250183 4.993305683135986 -2.347599983215332
-3.201166868209839 4.637670993804932 -2.477216958999634
-3.593217611312866 4.400898456573486 -2.4975569248199463
-4.256806373596191 3.771191358566284 -2.5
-4.546459674835205 3.4164304733276367 -2.5
-4.806616306304932 3.0395116806030273 -2.5
-5.035614967346191 2.642885684967041 -2.5
-5.231953144073486 2.229120969772339 -2.5
-5.394355297088623 1.8008935451507568 -2.5
-5.521777153015137 1.3609960079193115 -2.5
-5.613393306732178 0.9122607111930847 -2.5
5.520155906677246 0.0 -2.5
5.502255916595459 0.4441845715045929 -2.5
5.078437328338623 2.163710832595825 -2.5
4.887851238250732 2.5653467178344727 -2.5
3.4266796112060547 4.196918964385986 -2.453801393508911
2.5918262004852295 4.489174842834473 -2.347599983215332
2.2221922874450684 4.683168888092041 -2.347599983215332
0.6248242259025574 5.145854473114014 -2.347599983215332
-1.4421874284744263 4.978989124298096 -2.347599983215332
-1.8381445407867432 4.846806526184082 -2.347599983215332
-2.2221922874450684 4.683173656463623 -2.347599983215332
-3.128105401992798 4.531826019287109 -2.4938535690307617
-3.490239143371582 4.2747802734375 -2.499317169189453
-3.8239598274230957 3.981142520904541 -2.5
-4.887861251831055 2.5653467178344727 -2.5
-5.359765529632568 1.3210595846176147 -2.5
5.361259460449219 -9.765624781721272e-06 -2.5
5.343881607055664 0.4314013719558716 -2.5
4.531289100646973 2.865410089492798 -2.5
3.3813962936401367 4.141455173492432 -2.493133783340454
2.887016534805298 4.182568073272705 -2.369868040084839
2.517221689224243 4.359955787658691 -2.347599983215332
1.7852392196655273 4.707289695739746 -2.347599983215332
1.40066397190094 4.835669040679932 -2.347599983215332
1.007021427154541 4.932700157165527 -2.347599983215332
-1.400673747062683 4.835673809051514 -2.347599983215332
-1.785244107246399 4.707289695739746 -2.347599983215332
-2.6150341033935547 4.529369831085205 -2.438819169998169
-3.713881731033325 3.8665623664855957 -2.5
-4.012963771820068 3.555180549621582 -2.5
-4.531298637390137 2.865410089492798 -2.5
-4.747168064117432 2.491508722305298 -2.5
-4.932265281677246 2.101435422897339 -2.5
-5.085366249084473 1.6977441310882568 -2.5
-5.205492973327637 1.2830370664596558 -2.5
