ply
format ascii 1.0
element vertex 844
property float x
property float y
property float z
end_header
-11.320502281188965 11.785898208618164 2.116931200027466
-13.814037322998047 12.23818302154541 2.390695095062256
-19.207958221435547 6.412548542022705 2.6231842041015625
1.9661571979522705 16.192821502685547 1.9294780492782593
0.38935545086860657 9.661904335021973 1.1438088417053223
-1.1891992092132568 9.793896675109863 1.1670047044754028
-2.0306005477905273 9.946513175964355 1.2008156776428223
-17.072641372680664 12.829237937927246 2.526109457015991
-21.57796859741211 13.6450777053833 3.019923686981201
-19.20328140258789 6.410995960235596 2.39475154876709
14.7877779006958 25.613231658935547 3.166520833969116
-1.2083642482757568 9.951699256896973 1.073305368423462
-2.0633153915405273 10.10677719116211 1.1044021844863892
-2.9753856658935547 10.272216796875 1.145001769065857
-6.276347637176514 10.870956420898438 1.3439565896987915
-7.679340839385986 11.125439643859863 1.447351336479187
1.568945288658142 12.921435356140137 1.2478702068328857
-0.39510253071784973 9.804179191589355 0.9406847953796387
-5.053046703338623 10.64907169342041 1.1300244331359863
-6.176826000213623 10.698583602905273 1.184338927268982
-7.557572841644287 10.949023246765137 1.2754544019699097
-9.327768325805664 11.424443244934082 1.4139535427093506
-17.0726318359375 12.829237937927246 2.047356605529785
-21.577978134155273 13.645068168640137 2.447580575942993
-0.39510253071784973 9.804189682006836 0.8310644626617432
-1.2083593606948853 9.951699256896973 0.8490753173828125
-2.0633153915405273 10.10677719116211 0.8736758232116699
-2.9753808975219727 10.272207260131836 0.9057940244674683
-3.9637255668640137 10.4514741897583 0.9467376470565796
-6.276347637176514 10.870956420898438 1.0631835460662842
-7.557572841644287 10.949023246765137 1.1268224716186523
-13.814037322998047 12.23818302154541 1.5631264448165894
-17.0726318359375 12.829237937927246 1.8087743520736694
-21.577978134155273 13.645068168640137 2.1623587608337402
1.750161051750183 14.413925170898438 1.067883849143982
-0.3973730504512787 9.860448837280273 0.7257916331291199
-3.9637255668640137 10.4514741897583 0.8220943808555603
-9.327768325805664 11.424443244934082 1.084720492362976
-13.814043045043945 12.23818302154541 1.3573321104049683
0.38935545086860657 9.661904335021973 0.6035259962081909
-1.2083642482757568 9.951699256896973 0.6256863474845886
-2.0633153915405273 10.10677719116211 0.6438140869140625
-3.0299365520477295 10.460585594177246 0.6797219514846802
-7.679340839385986 11.125439643859863 0.8437371850013733
-9.327768325805664 11.424443244934082 0.9205257892608643
-11.320497512817383 11.785888671875 1.0199682712554932
-13.556147575378418 12.009706497192383 1.1303683519363403
-17.072622299194336 12.829237937927246 1.3328906297683716
-21.577978134155273 13.645068168640137 1.5934478044509888
1.750161051750183 14.413925170898438 0.7448153495788574
-0.3973681628704071 9.860448837280273 0.5062176585197449
-1.2083642482757568 9.951699256896973 0.5142367482185364
-7.784780025482178 11.278193473815918 0.7029687166213989
-9.327768325805664 11.424433708190918 0.7565600275993347
-11.320497512817383 11.785888671875 0.8382882475852966
-13.814037322998047 12.23818302154541 0.9466973543167114
14.608854293823242 25.303335189819336 1.1743158102035522
0.38935545086860657 9.661904335021973 0.38864409923553467
-1.2083642482757568 9.951699256896973 0.4029141068458557
-2.0633153915405273 10.10677719116211 0.4145873785018921
-3.016230344772339 10.413251876831055 0.43573057651519775
-7.784780025482178 11.278203010559082 0.5507897734642029
-9.327768325805664 11.424433708190918 0.5927792191505432
-11.320502281188965 11.785898208618164 0.6568139791488647
-17.072622299194336 12.829237937927246 0.8583221435546875
-21.577978134155273 13.645068168640137 1.0261093378067017
14.081913948059082 24.390628814697266 0.819484531879425
-0.3973730504512787 9.860448837280273 0.28714171051979065
-1.2083642482757568 9.951699256896973 0.2916903495788574
-2.0633153915405273 10.10677719116211 0.3001416027545929
-3.0299365520477295 10.460576057434082 0.3168817162513733
-5.082050800323486 10.710175514221191 0.3449368178844452
-6.276347637176514 10.870956420898438 0.3652447462081909
-7.78478479385376 11.278203010559082 0.39874541759490967
-9.327763557434082 11.424433708190918 0.4291439652442932
-17.0726318359375 12.82924747467041 0.6213842630386353
14.081913948059082 24.390628814697266 0.5072116255760193
1.750161051750183 14.413915634155273 0.26149046421051025
-0.4005224406719208 9.93880844116211 0.17913512885570526
-1.2083642482757568 9.951699256896973 0.1805383265018463
-3.0299365520477295 10.460585594177246 0.19613036513328552
-6.276347637176514 10.870956420898438 0.22606414556503296
-9.3277587890625 11.424433708190918 0.26561522483825684
-11.320497512817383 11.785888671875 0.2943066358566284
-17.072622299194336 12.829237937927246 0.38459867238998413
1.750161051750183 14.413915634155273 0.10056213289499283
0.38935545086860657 9.661904335021973 0.06697174161672592
-0.4005175828933716 9.93880844116211 0.06889129430055618
-1.2083642482757568 9.951699256896973 0.06943084299564362
-3.0299365520477295 10.460585594177246 0.07542724162340164
-3.9637255668640137 10.4514741897583 0.07741699367761612
-6.276347637176514 10.870956420898438 0.08693908154964447
-7.784780025482178 11.278193473815918 0.09491332620382309
-9.327768325805664 11.424443244934082 0.10214874148368835
-11.3204927444458 11.785888671875 0.11318328976631165
14.081913948059082 24.390628814697266 -0.11703765392303467
1.750161051750183 14.413925170898438 -0.06033828482031822
-0.4005224406719208 9.93880844116211 -0.041335754096508026
-2.0633153915405273 10.10677719116211 -0.042866211384534836
-3.0299365520477295 10.460585594177246 -0.04525741562247276
-6.276347637176514 10.870956420898438 -0.05216461047530174
-9.327763557434082 11.424433708190918 -0.061289671808481216
-11.320502281188965 11.785888671875 -0.06791183352470398
-13.814047813415527 12.23818302154541 -0.07669433206319809
-17.0726318359375 12.829237937927246 -0.08874679356813431
-21.57796859741211 13.645068168640137 -0.10609527677297592
14.081913948059082 24.390628814697266 -0.42916351556777954
-1.2083642482757568 9.951699256896973 -0.15275909006595612
-2.0633153915405273 10.10677719116211 -0.15718460083007812
-3.0299365520477295 10.460576057434082 -0.1659521460533142
-5.145712852478027 10.844355583190918 -0.1829058825969696
-6.276347637176514 10.870956420898438 -0.19127975404262543
-9.327768325805664 11.424443244934082 -0.22474472224712372
-13.814047813415527 12.23818302154541 -0.28122588992118835
14.081911087036133 24.390625 -0.7413949370384216
1.750161051750183 14.413915634155273 -0.38222381472587585
0.38935545086860657 9.661904335021973 -0.2545507848262787
-0.4005175828933716 9.93880844116211 -0.26184508204460144
-1.2083642482757568 9.951699256896973 -0.2638973891735077
-2.0633153915405273 10.10677719116211 -0.27154219150543213
-3.0299365520477295 10.460585594177246 -0.2866870164871216
-3.9637255668640137 10.4514741897583 -0.2942501902580261
-5.145712852478027 10.844355583190918 -0.31597900390625
-6.276342868804932 10.870956420898438 -0.33044159412384033
-7.784780025482178 11.278203010559082 -0.36074796319007874
-9.327763557434082 11.424443244934082 -0.38825103640556335
-11.320502281188965 11.785888671875 -0.4301930069923401
-13.814047813415527 12.23818302154541 -0.48582884669303894
-17.0726318359375 12.829237937927246 -0.5621771216392517
-21.57796859741211 13.645068168640137 -0.6720696687698364
16.485158920288086 23.8829288482666 -1.0858454704284668
0.38935545086860657 9.661904335021973 -0.3618151843547821
-0.4005224406719208 9.93880844116211 -0.3721853494644165
-1.2083642482757568 9.951699256896973 -0.375100702047348
-2.0633153915405273 10.10677719116211 -0.3859674036502838
-9.327768325805664 11.424433708190918 -0.5518578886985779
-13.814047813415527 12.23819351196289 -0.6905511617660522
-17.072622299194336 12.829237937927246 -0.7990713119506836
15.569772720336914 22.556766510009766 -1.3298401832580566
1.2254540920257568 10.092509269714355 -0.49327757954597473
-0.4005224406719208 9.93880844116211 -0.48261550068855286
-3.0299365520477295 10.460585594177246 -0.5284023880958557
-3.9637255668640137 10.4514741897583 -0.5423420667648315
-5.145712852478027 10.844345092773438 -0.5823901295661926
-7.78478479385376 11.278193473815918 -0.6648998856544495
-9.327773094177246 11.424443244934082 -0.7155988812446594
-13.814043045043945 12.23819351196289 -0.8954430818557739
-17.0726318359375 12.829237937927246 -1.0361627340316772
-21.199365615844727 13.40566349029541 -1.2169800996780396
15.569774627685547 22.556766510009766 -1.634459137916565
13.119643211364746 22.723934173583984 -1.5647369623184204
11.440258979797363 24.1098575592041 -1.5913982391357422
0.38935545086860657 9.661904335021973 -0.5766380429267883
-0.4005175828933716 9.93880844116211 -0.5931646823883057
-1.2083642482757568 9.951699256896973 -0.5978112816810608
-3.9637205600738525 10.451483726501465 -0.6665725708007812
-6.276347637176514 10.870956420898438 -0.7485569715499878
-7.784780025482178 11.278203010559082 -0.8172171115875244
-9.3277587890625 11.424433708190918 -0.8795153498649597
-11.3204927444458 11.785898208618164 -0.9745269417762756
-13.81405258178711 12.23819351196289 -1.1005561351776123
-21.556806564331055 13.631698608398438 -1.5209649801254272
13.119638442993164 22.72392463684082 -1.856745719909668
11.440258979797363 24.1098575592041 -1.888383150100708
1.2254540920257568 10.092509269714355 -0.7194100618362427
-0.4005175828933716 9.93880844116211 -0.7038599848747253
-1.2083642482757568 9.951699256896973 -0.7093734741210938
-3.0299365520477295 10.460585594177246 -0.770637035369873
-3.9637255668640137 10.4514741897583 -0.7909672260284424
-6.276342868804932 10.870956420898438 -0.8882531523704529
-9.3277587890625 11.424433708190918 -1.0436489582061768
-11.250663757324219 11.7131929397583 -1.1492584943771362
-13.571703910827637 12.023486137390137 -1.283029317855835
13.146312713623047 2.1364941596984863 -1.090916395187378
24.224306106567383 15.318553924560547 -2.3476004600524902
11.07149887084961 23.33269500732422 -2.1153790950775146
10.163464546203613 26.798856735229492 -2.3476004600524902
7.974081993103027 27.529735565185547 -2.3476004600524902
5.732993125915527 28.08211898803711 -2.3476004600524902
0.38935545086860657 9.661904335021973 -0.7920306324958801
-0.4005224406719208 9.938798904418945 -0.8147292733192444
-3.0299365520477295 10.460576057434082 -0.8920257091522217
-9.187353134155273 11.252470016479492 -1.1898560523986816
-11.148193359375 11.606484413146973 -1.318170428276062
-21.57794952392578 13.645068168640137 -2.091141939163208
-27.18633270263672 9.076103210449219 -2.3476004600524902
26.86015510559082 3.9062499126885086e-05 -2.500000476837158
26.7730712890625 2.1613476276397705 -2.500000476837158
14.584296226501465 3.594716787338257 -1.39805269241333
23.783491134643555 12.482558250427246 -2.500000476837158
21.318031311035156 13.480722427368164 -2.3476004600524902
20.164159774780273 15.1524019241333 -2.3476004600524902
14.524628639221191 15.121796607971191 -1.9515355825424194
14.32815170288086 20.75794792175293 -2.3476004600524902
12.611381530761719 21.843544006347656 -2.3476004600524902
7.017402172088623 24.22698211669922 -2.3476004600524902
0.38935545086860657 9.661904335021973 -0.9000064134597778
-0.4005175828933716 9.93880844116211 -0.9258010387420654
-2.0633153915405273 10.10677719116211 -0.9600866436958313
-3.0299365520477295 10.460585594177246 -1.0136337280273438
-3.9637255668640137 10.4514741897583 -1.0403742790222168
-5.122426509857178 10.795283317565918 -1.1121447086334229
-6.224643230438232 10.78139591217041 -1.1587131023406982
-9.210195541381836 11.280448913574219 -1.355430245399475
-11.30812931060791 11.773016929626465 -1.5193631649017334
-13.814047813415527 12.23819351196289 -1.7177284955978394
-17.072622299194336 12.829237937927246 -1.9876705408096313
-21.31804084777832 13.480692863464355 -2.3476004600524902
-22.333656311035156 11.72159194946289 -2.3476004600524902
-23.20442771911621 9.886474609375 -2.3476004600524902
-26.77305030822754 2.1613574028015137 -2.500000476837158
23.89981460571289 1.9294335842132568 -2.500000476837158
22.743608474731445 7.592929363250732 -2.500000476837158
19.93683624267578 10.463662147521973 -2.3476004600524902
19.030208587646484 12.034003257751465 -2.3476004600524902
16.853384017944336 14.930839538574219 -2.3476004600524902
13.53897476196289 16.582304000854492 -2.232020616531372
12.790472984313965 18.530282974243164 -2.3476004600524902
9.652392387390137 20.342010498046875 -2.3476004600524902
6.264306545257568 21.626953125 -2.3476004600524902
1.2254540920257568 10.092509269714355 -1.0600132942199707
-1.2083642482757568 9.951699256896973 -1.0452243089675903
-3.933046817779541 10.370595932006836 -1.1564306020736694
-6.166606426239014 10.680878639221191 -1.2859100103378296
-9.327768325805664 11.424433708190918 -1.5377600193023682
-13.814047813415527 12.238203048706055 -1.9242339134216309
-17.0726318359375 12.829237937927246 -2.2266287803649902
-22.33623504638672 7.456933498382568 -2.4552223682403564
-23.28086280822754 5.738212585449219 -2.500000476837158
21.578704833984375 1.7420507669448853 -2.500000476837158
12.073744773864746 1.9622069597244263 -1.4125595092773438
13.802431106567383 3.4020214080810547 -1.6415975093841553
20.53474998474121 6.855546951293945 -2.500000476837158
19.916528701782227 8.48568344116211 -2.500000476837158
18.000591278076172 9.447450637817383 -2.3476004600524902
16.252012252807617 12.212616920471191 -2.3476004600524902
15.216596603393555 13.480761528015137 -2.3476004600524902
11.5482759475708 16.7305850982666 -2.3476004600524902
10.16457462310791 17.605634689331055 -2.3476004600524902
8.714970588684082 18.36641502380371 -2.3476004600524902
7.208827972412109 19.00812530517578 -2.3476004600524902
0.389350563287735 9.661893844604492 -1.1166536808013916
-0.3942627012729645 9.783514976501465 -1.1307086944580078
-1.2006444931030273 9.888124465942383 -1.150260329246521
-3.8941845893859863 10.2681245803833 -1.2681654691696167
-4.984882831573486 10.505399703979492 -1.3428040742874146
-9.327768325805664 11.424433708190918 -1.7031725645065308
-16.252025604248047 12.212597846984863 -2.3476004600524902
-21.019819259643555 5.180908203125 -2.500000476837158
-21.368539810180664 3.472734212875366 -2.500000476837158
-21.57869529724121 1.7420018911361694 -2.500000476837158
19.72799301147461 1.9531249563442543e-05 -2.500000476837158
19.664012908935547 1.5874706506729126 -2.500000476837158
13.530038833618164 3.3348729610443115 -1.765887975692749
18.712709426879883 6.247226238250732 -2.500000476837158
15.657445907592773 9.901201248168945 -2.3476004600524902
14.809969902038574 11.128984451293945 -2.3476004600524902
12.832978248596191 13.36050796508789 -2.3476004600524902
11.71627426147461 14.349853515625 -2.3476004600524902
7.941684246063232 16.736797332763672 -2.3476004600524902
6.569184303283691 17.321611404418945 -2.3476004600524902
1.2254540920257568 10.092509269714355 -1.2883491516113281
-1.1871631145477295 9.777118682861328 -1.2480885982513428
-2.027109384536743 9.929452896118164 -1.2842483520507812
-2.933886766433716 10.128973960876465 -1.336338758468628
-3.927119016647339 10.354970932006836 -1.403416395187378
-5.036699295043945 10.614619255065918 -1.4888722896575928
-6.276352405548096 10.870956420898438 -1.5907208919525146
-9.327768325805664 11.424443244934082 -1.8690099716186523
-13.81405258178711 12.23819351196289 -2.338731527328491
-16.40340232849121 8.609160423278809 -2.3476004600524902
-18.712709426879883 6.247216701507568 -2.500000476837158
-19.15473175048828 4.72122049331665 -2.500000476837158
-19.472515106201172 3.16460919380188 -2.500000476837158
-19.664018630981445 1.5874511003494263 -2.500000476837158
12.059697151184082 1.9599218368530273 -1.6860613822937012
14.920488357543945 7.830888271331787 -2.3253700733184814
12.733437538146973 11.280868530273438 -2.3476004600524902
11.784408569335938 12.268896102905273 -2.3476004600524902
10.758974075317383 13.17733383178711 -2.3476004600524902
8.505844116210938 14.73256778717041 -2.3476004600524902
6.032431602478027 15.906229972839355 -2.3476004600524902
4.732944011688232 16.340068817138672 -2.3476004600524902
3.402773380279541 16.667909622192383 -2.3476004600524902
1.2254540920257568 10.092509269714355 -1.4029842615127563
0.3833105266094208 9.511796951293945 -1.3136837482452393
-0.3895507752895355 9.66659164428711 -1.335062861442566
-1.1941211223602295 9.834433555603027 -1.3671090602874756
-2.0453710556030273 10.018905639648438 -1.4111167192459106
-2.961601495742798 10.224648475646973 -1.4689908027648926
-3.9637255668640137 10.4514741897583 -1.5425336360931396
-6.276347637176514 10.870956420898438 -1.7322601079940796
-9.327768325805664 11.424443244934082 -2.035311222076416
-13.599892616271973 10.21963882446289 -2.3476004600524902
-14.378129959106445 9.09218692779541 -2.3476004600524902
-15.063119888305664 7.905722618103027 -2.3476004600524902
-17.58963394165039 4.33544921875 -2.500000476837158
-17.881450653076172 2.906005859375 -2.500000476837158
16.7437686920166 2.9296874345163815e-05 -2.500000476837158
13.3701171875 3.2954492568969727 -2.0560269355773926
15.882075309753418 5.302236080169678 -2.500000476837158
15.403915405273438 6.563027381896973 -2.500000476837158
13.28897476196289 8.40346622467041 -2.3476004600524902
12.56969165802002 9.445517539978027 -2.3476004600524902
10.891742706298828 11.339521408081055 -2.3476004600524902
8.931714057922363 12.939824104309082 -2.3476004600524902
3.145014524459839 15.405302047729492 -2.3476004600524902
1.2254540920257568 10.092509269714355 -1.5179708003997803
-0.3929394483566284 9.750555992126465 -1.4570302963256836
-1.2047460079193115 9.921923637390137 -1.4923150539398193
-3.9637255668640137 10.4514741897583 -1.6689578294754028
-6.276347637176514 10.870956420898438 -1.874233603477478
-7.679340839385986 11.125439643859863 -2.018425226211548
-11.768877029418945 10.4263277053833 -2.3476004600524902
-12.569686889648438 9.445517539978027 -2.3476004600524902
-16.257221221923828 4.007021427154541 -2.500000476837158
-16.526927947998047 2.6858885288238525 -2.500000476837158
-16.68946647644043 1.3472949266433716 -2.500000476837158
15.5610933303833 2.9296874345163815e-05 -2.500000476837158
15.510634422302246 1.2521679401397705 -2.500000476837158
12.024589538574219 1.954199194908142 -1.9571806192398071
14.760272979736328 4.927714824676514 -2.500000476837158
12.9775390625 6.811142444610596 -2.3546433448791504
12.350326538085938 7.809882640838623 -2.3476004600524902
11.681855201721191 8.778349876403809 -2.3476004600524902
10.937597274780273 9.689882278442383 -2.3476004600524902
9.24160099029541 11.318925857543945 -2.3476004600524902
8.300829887390137 12.02586841583252 -2.3476004600524902
7.306235313415527 12.654804229736328 -2.3476004600524902
4.065444469451904 14.035585403442383 -2.3476004600524902
0.38935545086860657 9.661904335021973 -1.5535106658935547
-1.2083642482757568 9.951699256896973 -1.6105520725250244
-2.9753808975219727 10.272207260131836 -1.7181371450424194
-5.053046703338623 10.64907169342041 -1.8936811685562134
-6.276347637176514 10.870956420898438 -2.016678810119629
-7.679340839385986 11.125439643859863 -2.1718270778656006
-10.122431755065918 10.538554191589355 -2.3476004600524902
-12.938715934753418 6.790771484375 -2.3476004600524902
-14.270888328552246 6.080253601074219 -2.492143154144287
-15.510629653930664 1.252138614654541 -2.500000476837158
14.4839448928833 1.1692968606948853 -2.500000476837158
13.36827564239502 5.695703029632568 -2.500000476837158
12.082260131835938 6.341279029846191 -2.3476004600524902
10.908588409423828 8.197284698486328 -2.3476004600524902
8.629873275756836 10.569686889648438 -2.3476004600524902
7.751386642456055 11.229833602905273 -2.3476004600524902
5.849614143371582 12.327832221984863 -2.3476004600524902
3.796342611312866 13.106523513793945 -2.3476004600524902
2.7293944358825684 13.369521141052246 -2.3476004600524902
1.2254540920257568 10.092509269714355 -1.7491189241409302
0.38935545086860657 9.661904335021973 -1.6636312007904053
-3.9637255668640137 10.4514741897583 -1.9230965375900269
-5.053051471710205 10.649062156677246 -2.0279152393341064
-6.276347637176514 10.870956420898438 -2.1596312522888184
-10.213618278503418 9.048466682434082 -2.3476004600524902
-12.08226490020752 6.341269493103027 -2.3476004600524902
-13.78323745727539 4.601513385772705 -2.500000476837158
-14.342875480651855 2.330947160720825 -2.500000476837158
13.625682830810547 9.765624781721272e-06 -2.500000476837158
13.449233055114746 2.185722589492798 -2.500000476837158
13.229741096496582 3.2608397006988525 -2.500000476837158
12.924448013305664 4.314824104309082 -2.500000476837158
11.831250190734863 6.209521293640137 -2.45157790184021
10.22891616821289 7.686542987823486 -2.3476004600524902
9.577221870422363 8.48470687866211 -2.3476004600524902
8.863447189331055 9.227850914001465 -2.3476004600524902
8.092153549194336 9.911211013793945 -2.3476004600524902
7.268413066864014 10.530126571655273 -2.3476004600524902
5.485146522521973 11.559706687927246 -2.3476004600524902
2.559335947036743 12.5364351272583 -2.3476004600524902
0.38935545086860657 9.661904335021973 -1.7741742134094238
-0.39510253071784973 9.804189682006836 -1.800302267074585
-1.2083642482757568 9.951699256896973 -1.8393185138702393
-2.0633153915405273 10.10677719116211 -1.892608404159546
-2.9753856658935547 10.272216796875 -1.9621845483779907
-6.276347637176514 10.870956420898438 -2.303131580352783
-7.26842737197876 10.53011703491211 -2.3476004600524902
-8.092172622680664 9.911112785339355 -2.3476004600524902
-8.863447189331055 9.227831840515137 -2.3476004600524902
-10.228920936584473 7.6865234375 -2.3476004600524902
-10.814257621765137 6.838515281677246 -2.3476004600524902
-11.32945728302002 5.94616174697876 -2.3476004600524902
-12.924448013305664 4.314804553985596 -2.500000476837158
-13.449213981628418 2.185722589492798 -2.500000476837158
-13.581488609313965 1.0964062213897705 -2.500000476837158
12.82345199584961 1.9531249563442543e-05 -2.500000476837158
12.781865119934082 1.031894564628601 -2.500000476837158
12.657387733459473 2.0570507049560547 -2.500000476837158
12.45082950592041 3.0688672065734863 -2.500000476837158
11.797308921813965 5.026386737823486 -2.500000476837158
11.326313018798828 5.944511413574219 -2.49377179145813
8.341601371765137 8.684531211853027 -2.3476004600524902
7.615742206573486 9.327597618103027 -2.3476004600524902
6.840473651885986 9.91015625 -2.3476004600524902
6.02086877822876 10.428457260131836 -2.3476004600524902
5.162207126617432 10.879120826721191 -2.3476004600524902
4.270058631896973 11.259228706359863 -2.3476004600524902
3.3502197265625 11.56630802154541 -2.3476004600524902
2.4086523056030273 11.798378944396973 -2.3476004600524902
1.2254540920257568 10.092509269714355 -1.9820369482040405
-2.0633153915405273 10.10677719116211 -2.0110085010528564
-2.9753808975219727 10.272207260131836 -2.0849368572235107
-5.053051471710205 10.649062156677246 -2.2979578971862793
-6.02086877822876 10.428446769714355 -2.3476004600524902
-6.840487957000732 9.910165786743164 -2.3476004600524902
-9.62667465209961 7.233964920043945 -2.3476004600524902
-11.797308921813965 5.026376724243164 -2.500000476837158
-12.1635103225708 4.060781002044678 -2.500000476837158
-12.450834274291992 3.068798780441284 -2.500000476837158
-12.781869888305664 1.0318554639816284 -2.500000476837158
12.068256378173828 0.9742675423622131 -2.500000476837158
11.950727462768555 1.9421972036361694 -2.500000476837158
11.755698204040527 2.897529125213623 -2.500000476837158
11.484423637390137 3.8340721130371094 -2.500000476837158
11.13866138458252 4.745761394500732 -2.500000476837158
10.702665328979492 5.6171875 -2.495800495147705
9.089213371276855 6.830126762390137 -2.3476004600524902
7.875888347625732 8.199667930603027 -2.3476004600524902
7.190556526184082 8.806836128234863 -2.3476004600524902
5.684716701507568 9.846230506896973 -2.3476004600524902
4.031664848327637 10.630624771118164 -2.3476004600524902
3.1631736755371094 10.920546531677246 -2.3476004600524902
2.274179697036743 11.139687538146973 -2.3476004600524902
1.2254540920257568 10.092509269714355 -2.0992376804351807
0.38935545086860657 9.661904335021973 -1.9966377019882202
-0.39510253071784973 9.804179191589355 -2.0260417461395264
-1.2083642482757568 9.951699256896973 -2.069950580596924
-2.0633153915405273 10.10677719116211 -2.12992262840271
-3.9637255668640137 10.4514741897583 -2.308040142059326
-5.684716701507568 9.8462495803833 -2.3476004600524902
-6.458583831787109 9.356874465942383 -2.3476004600524902
-8.510146141052246 7.539345741271973 -2.3476004600524902
-9.60934066772461 6.076581954956055 -2.3476004600524902
-10.342557907104492 5.428183555603027 -2.4118263721466064
-11.950727462768555 1.9421874284744263 -2.500000476837158
-12.068256378173828 0.97425776720047 -2.500000476837158
11.427348136901855 0.9225195050239563 -2.500000476837158
10.87451171875 3.6304686069488525 -2.500000476837158
8.606508255004883 6.467382431030273 -2.3476004600524902
8.058197975158691 7.138964653015137 -2.3476004600524902
6.115581035614014 8.859960556030273 -2.3476004600524902
4.615146160125732 9.72623062133789 -2.3476004600524902
3.8175535202026367 10.06606388092041 -2.3476004600524902
2.995190382003784 10.340595245361328 -2.3476004600524902
-2.0633153915405273 10.10677719116211 -2.2493810653686523
-2.9753808975219727 10.272207260131836 -2.3320729732513428
-4.615156173706055 9.72623062133789 -2.3476004600524902
-5.382822036743164 9.32332992553711 -2.3476004600524902
-7.457626819610596 7.764199256896973 -2.3476004600524902
-10.547123908996582 4.493710994720459 -2.500000476837158
-11.13138198852539 2.7436327934265137 -2.500000476837158
-11.316059112548828 1.8390429019927979 -2.500000476837158
-11.427338600158691 0.9225195050239563 -2.500000476837158
10.883710861206055 0.0 -2.500000476837158
10.567450523376465 2.604628801345825 -2.500000476837158
10.323588371276855 3.446523427963257 -2.500000476837158
10.01278305053711 4.266064167022705 -2.500000476837158
8.638041496276855 5.462382793426514 -2.3476004600524902
7.649950981140137 6.777285099029541 -2.3476004600524902
7.079799652099609 7.370869159698486 -2.3476004600524902
6.463735103607178 7.916659832000732 -2.3476004600524902
5.805751800537109 8.411103248596191 -2.3476004600524902
4.381337642669678 9.233476638793945 -2.3476004600524902
3.624150276184082 9.556103706359863 -2.3476004600524902
2.84344220161438 9.816728591918945 -2.3476004600524902
2.044306516647339 10.013700485229492 -2.3476004600524902
0.38935545086860657 9.661904335021973 -2.2211482524871826
-0.39510253071784973 9.804189682006836 -2.253859519958496
-1.2083642482757568 9.951699256896973 -2.302704334259033
-2.843447208404541 9.816728591918945 -2.3476004600524902
-4.381342887878418 9.233466148376465 -2.3476004600524902
-5.805761814117432 8.411093711853027 -2.3476004600524902
-6.463735103607178 7.916650295257568 -2.3476004600524902
-7.649950981140137 6.777275085449219 -2.3476004600524902
-8.170493125915527 6.139726638793945 -2.3476004600524902
-10.012778282165527 4.266044616699219 -2.500000476837158
-10.323588371276855 3.4465136528015137 -2.500000476837158
-10.567445755004883 2.6046385765075684 -2.500000476837158
-10.742758750915527 1.7458593845367432 -2.500000476837158
10.32277774810791 0.8333593606948853 -2.500000476837158
10.055424690246582 2.478456974029541 -2.500000476837158
9.82338809967041 3.279531240463257 -2.500000476837158
9.527641296386719 4.059374809265137 -2.500000476837158
7.774613857269287 5.842255592346191 -2.3476004600524902
6.736767292022705 7.013730525970459 -2.3476004600524902
5.52444314956665 8.00357437133789 -2.3476004600524902
4.169047832489014 8.786103248596191 -2.3476004600524902
3.448549747467041 9.093066215515137 -2.3476004600524902
-0.39158689975738525 9.717167854309082 -2.3476004600524902
-1.1722314357757568 9.65414047241211 -2.3476004600524902
-2.705678701400757 9.341073989868164 -2.3476004600524902
-6.150546550750732 7.533066272735596 -2.3476004600524902
-9.166801452636719 4.811113357543945 -2.4991023540496826
-9.527631759643555 4.05935525894165 -2.500000476837158
-10.055415153503418 2.478447198867798 -2.500000476837158
-10.322768211364746 0.8333398103713989 -2.500000476837158
9.588349342346191 2.3633203506469727 -2.500000476837158
9.36708927154541 3.127207040786743 -2.500000476837158
9.085078239440918 3.870790958404541 -2.500000476837158
8.744145393371582 4.589296817779541 -2.500000476837158
6.423847675323486 6.687949180603027 -2.3476004600524902
5.267836570739746 7.631796836853027 -2.3476004600524902
2.5799951553344727 8.907196998596191 -2.3476004600524902
1.8549022674560547 9.085917472839355 -2.3476004600524902
1.117773413658142 9.205702781677246 -2.3476004600524902
-0.37340331077575684 9.265790939331055 -2.3476004600524902
-1.1177783012390137 9.205702781677246 -2.3476004600524902
-1.854897379875183 9.085907936096191 -2.3476004600524902
-2.5799951553344727 8.907206535339355 -2.3476004600524902
-3.975395441055298 8.377968788146973 -2.3476004600524902
-6.423847675323486 6.687939167022705 -2.3476004600524902
-7.413476467132568 5.570868968963623 -2.3476004600524902
-7.950644493103027 5.027666091918945 -2.3814282417297363
-8.744145393371582 4.589277267456055 -2.500000476837158
-9.367084503173828 3.127197265625 -2.500000476837158
-9.747416496276855 1.5841113328933716 -2.500000476837158
9.312426567077637 1.5134375095367432 -2.500000476837158
9.160453796386719 2.257861375808716 -2.500000476837158
8.949067115783691 2.9876561164855957 -2.500000476837158
8.679643630981445 3.69805645942688 -2.500000476837158
8.353925704956055 4.384491920471191 -2.500000476837158
7.0826416015625 5.322265625 -2.3476004600524902
5.603125095367432 6.862597465515137 -2.3476004600524902
5.032748699188232 7.291220664978027 -2.3476004600524902
3.141611337661743 8.2837495803833 -2.3476004600524902
-1.067895531654358 8.794882774353027 -2.3476004600524902
-1.7721190452575684 8.680429458618164 -2.3476004600524902
-2.464858293533325 8.509706497192383 -2.3476004600524902
-3.141611337661743 8.2837495803833 -2.3476004600524902
-3.7979931831359863 8.004101753234863 -2.3476004600524902
-5.032753944396973 7.291210651397705 -2.3476004600524902
-5.603134632110596 6.862597465515137 -2.3476004600524902
-7.08263635635376 5.322265625 -2.3476004600524902
-7.910575866699219 5.002343654632568 -2.480104923248291
-8.679638862609863 3.698066234588623 -2.500000476837158
-8.949067115783691 2.9876365661621094 -2.500000476837158
-9.404008865356445 0.7591601610183716 -2.500000476837158
8.7669038772583 2.1608593463897705 -2.500000476837158
7.995028972625732 4.196113109588623 -2.500000476837158
6.778359413146973 5.093613147735596 -2.3476004600524902
4.816542625427246 6.977978229522705 -2.3476004600524902
3.63482403755188 7.660243988037109 -2.3476004600524902
3.006645441055298 7.927880764007568 -2.3476004600524902
-0.34141600131988525 8.4719820022583 -2.3476004600524902
-1.0220165252685547 8.417031288146973 -2.3476004600524902
-1.6959911584854126 8.307509422302246 -2.3476004600524902
-3.006645441055298 7.927870750427246 -2.3476004600524902
-4.239423751831055 7.342909812927246 -2.3476004600524902
-4.816537857055664 6.977968692779541 -2.3476004600524902
-5.362407207489014 6.567763328552246 -2.3476004600524902
-5.873505592346191 6.114970684051514 -2.3476004600524902
-6.346508502960205 5.622529029846191 -2.3476004600524902
-6.778354167938232 5.093603610992432 -2.3476004600524902
-7.615043640136719 4.815478324890137 -2.494626045227051
-7.995034217834473 4.196113109588623 -2.500000476837158
-8.564604759216309 2.8592772483825684 -2.500000476837158
-8.766908645629883 2.160839796066284 -2.500000476837158
8.655160903930664 1.9531249563442543e-05 -2.500000476837158
8.543075561523438 1.3883984088897705 -2.500000476837158
8.403661727905273 2.0713281631469727 -2.500000476837158
7.663759708404541 4.022255897521973 -2.500000476837158
6.083539962768555 5.389570236206055 -2.3476004600524902
5.140224456787109 6.295644283294678 -2.3476004600524902
4.616962909698486 6.688857078552246 -2.3476004600524902
1.6257128715515137 7.963290691375732 -2.3476004600524902
0.32726073265075684 8.120946884155273 -2.3476004600524902
-0.3272656202316284 8.120946884155273 -2.3476004600524902
-0.9796728491783142 8.068281173706055 -2.3476004600524902
-2.261220693588257 7.806660175323486 -2.3476004600524902
-2.8820605278015137 7.599384784698486 -2.3476004600524902
-4.063769340515137 7.038671493530273 -2.3476004600524902
-5.140219688415527 6.295624732971191 -2.3476004600524902
-6.083539962768555 5.389560222625732 -2.3476004600524902
-8.209731101989746 2.7408103942871094 -2.500000476837158
-8.627084732055664 0.6964355111122131 -2.500000476837158
8.30868148803711 1.9531249563442543e-05 -2.500000476837158
8.281743049621582 0.6685937643051147 -2.500000476837158
8.067255973815918 1.9884082078933716 -2.500000476837158
7.643818378448486 3.2567381858825684 -2.500000476837158
7.356967449188232 3.861259698867798 -2.500000476837158
5.840014457702637 5.173808574676514 -2.3476004600524902
5.404765605926514 5.626972675323486 -2.3476004600524902
4.432138442993164 6.421073913574219 -2.3476004600524902
2.7666943073272705 7.295185565948486 -2.3476004600524902
2.170707941055298 7.494160175323486 -2.3476004600524902
0.9404491782188416 7.745302677154541 -2.3476004600524902
0.31416502594947815 7.795859336853027 -2.3476004600524902
-0.31416502594947815 7.795868873596191 -2.3476004600524902
-0.9404540657997131 7.745302677154541 -2.3476004600524902
-2.7666943073272705 7.295175552368164 -2.3476004600524902
-3.9010887145996094 6.756894588470459 -2.3476004600524902
-4.934457778930664 6.043612957000732 -2.3476004600524902
-7.881073951721191 2.631093740463257 -2.500000476837158
-8.067240715026855 1.9884179830551147 -2.500000476837158
-8.281733512878418 0.6685742139816284 -2.500000476837158
7.986821174621582 1.9531249563442543e-05 -2.500000476837158
7.960912704467773 0.6426953077316284 -2.500000476837158
7.575786113739014 2.529169797897339 -2.500000476837158
5.613774299621582 4.973398208618164 -2.3476004600524902
4.260454177856445 6.172324180603027 -2.3476004600524902
3.7499754428863525 6.495156288146973 -2.3476004600524902
3.215165853500366 6.775839805603027 -2.3476004600524902
2.6595213413238525 7.01256799697876 -2.3476004600524902
2.086611270904541 7.203847408294678 -2.3476004600524902
0.9040185213088989 7.445263385772705 -2.3476004600524902
-0.9040234088897705 7.445263385772705 -2.3476004600524902
-1.5001757144927979 7.348378658294678 -2.3476004600524902
-2.086616277694702 7.203847408294678 -2.3476004600524902
-2.6595115661621094 7.012578010559082 -2.3476004600524902
-3.7499706745147705 6.495136737823486 -2.3476004600524902
-4.260448932647705 6.172333717346191 -2.3476004600524902
-5.195385456085205 5.408984184265137 -2.3476004600524902
-6.295717716217041 4.730927467346191 -2.4650425910949707
-7.347700119018555 3.130566358566284 -2.500000476837158
-7.754741191864014 1.911376953125 -2.500000476837158
7.686967372894287 1.9531249563442543e-05 -2.500000476837158
7.29137659072876 2.434218645095825 -2.500000476837158
6.496953010559082 4.108437538146973 -2.500000476837158
6.131596565246582 4.607597351074219 -2.494431257247925
4.565219402313232 5.591396331787109 -2.3476004600524902
4.100497722625732 5.940605163574219 -2.3476004600524902
3.60918927192688 6.251298904418945 -2.3476004600524902
2.5596630573272705 6.749306678771973 -2.3476004600524902
2.0082762241363525 6.933388710021973 -2.3476004600524902
1.4438574314117432 7.072499752044678 -2.3476004600524902
0.2906543016433716 7.21251916885376 -2.3476004600524902
-0.8700829744338989 7.165741920471191 -2.3476004600524902
-1.4438623189926147 7.072499752044678 -2.3476004600524902
-2.5596678256988525 6.749306678771973 -2.3476004600524902
-3.609184503555298 6.251298904418945 -2.3476004600524902
-4.100502967834473 5.940605163574219 -2.3476004600524902
-5.000336647033691 5.205927848815918 -2.3476004600524902
-5.403017520904541 4.786660194396973 -2.3476004600524902
-6.13036584854126 4.606679439544678 -2.493931770324707
-6.806469440460205 3.5723142623901367 -2.500000476837158
-7.291362285614014 2.434218645095825 -2.500000476837158
-7.587416648864746 1.233095645904541 -2.500000476837158
-7.662035942077637 0.6185644268989563 -2.500000476837158
7.406884670257568 1.9531249563442543e-05 -2.500000476837158
7.382865905761719 0.5960156321525574 -2.500000476837158
7.191650390625 1.7725781202316284 -2.500000476837158
7.025693416595459 2.3455467224121094 -2.500000476837158
6.814174652099609 2.903271436691284 -2.500000476837158
6.5584716796875 3.4421679973602295 -2.500000476837158
5.212651252746582 4.618017673492432 -2.350529432296753
4.81814432144165 5.016230583190918 -2.3476004600524902
4.398881912231445 5.387665748596191 -2.3476004600524902
3.477675676345825 6.023525238037109 -2.3476004600524902
2.9817137718200684 6.283827781677246 -2.3476004600524902
2.4664013385772705 6.503368854522705 -2.3476004600524902
1.935097575187683 6.680742263793945 -2.3476004600524902
1.3912451267242432 6.81481409072876 -2.3476004600524902
0.8383740186691284 6.904648303985596 -2.3476004600524902
0.2800537049770355 6.949726581573486 -2.3476004600524902
-0.2800634801387787 6.949726581573486 -2.3476004600524902
-2.4664013385772705 6.503378868103027 -2.3476004600524902
-2.981703996658325 6.283818244934082 -2.3476004600524902
-3.4776806831359863 6.023525238037109 -2.3476004600524902
-3.9510936737060547 5.724140644073486 -2.3476004600524902
-4.818134784698486 5.016230583190918 -2.3476004600524902
-5.206152439117432 4.612265586853027 -2.3476004600524902
-6.260219573974609 3.9587206840515137 -2.500000476837158
-6.558461666107178 3.442148447036743 -2.500000476837158
-7.025678634643555 2.345517635345459 -2.500000476837158
-7.382856369018555 0.5960156321525574 -2.500000476837158
7.144594669342041 1.9531249563442543e-05 -2.500000476837158
7.121420860290527 0.574902355670929 -2.500000476837158
6.936986923217773 1.7098242044448853 -2.500000476837158
6.776904106140137 2.2624707221984863 -2.500000476837158
6.326225280761719 3.320253849029541 -2.500000476837158
5.708622932434082 4.289765357971191 -2.498657703399658
5.188173770904541 4.596347332000732 -2.4253783226013184
4.647524356842041 4.838593482971191 -2.3476004600524902
2.8761229515075684 6.06130838394165 -2.3476004600524902
2.3790674209594727 6.273085594177246 -2.3476004600524902
1.8665771484375 6.444169998168945 -2.3476004600524902
1.3419774770736694 6.573476314544678 -2.3476004600524902
-1.3419774770736694 6.573495864868164 -2.3476004600524902
-1.8665820360183716 6.444179534912109 -2.3476004600524902
-2.3790674209594727 6.273085594177246 -2.3476004600524902
-4.647519588470459 4.838613033294678 -2.3476004600524902
-5.159228324890137 4.570683479309082 -2.4118475914001465
-5.707597732543945 4.288993835449219 -2.4982118606567383
-6.038530349731445 3.818544864654541 -2.500000476837158
-6.326215744018555 3.320253849029541 -2.500000476837158
-6.936977386474609 1.709804654121399 -2.500000476837158
-7.052070140838623 1.146093726158142 -2.500000476837158
6.898412704467773 1.9531249563442543e-05 -2.500000476837158
6.876049518585205 0.5551074147224426 -2.500000476837158
6.543393611907959 2.184511661529541 -2.500000476837158
6.346396446228027 2.7039549350738525 -2.500000476837158
6.108246803283691 3.2058496475219727 -2.500000476837158
5.830468654632568 3.686962842941284 -2.500000476837158
5.148364067077637 4.561074256896973 -2.4926576614379883
3.6798582077026367 5.331191062927246 -2.3476004600524902
2.777026414871216 5.852450847625732 -2.3476004600524902
2.2970898151397705 6.056933403015137 -2.3476004600524902
1.8022607564926147 6.222148418426514 -2.3476004600524902
-1.295742154121399 6.346972465515137 -2.3476004600524902
-2.2970945835113525 6.056933403015137 -2.3476004600524902
-3.2389402389526367 5.610019207000732 -2.3476004600524902
-3.6798582077026367 5.331191062927246 -2.3476004600524902
-4.096904277801514 5.017822265625 -2.3476004600524902
-5.139784812927246 4.553456783294678 -2.4885060787200928
-6.543393611907959 2.184511661529541 -2.500000476837158
-6.697954177856445 1.6508984565734863 -2.500000476837158
-6.876029968261719 0.5550976395606995 -2.500000476837158
6.133359432220459 2.6131834983825684 -2.500000476837158
5.903203010559082 3.0982420444488525 -2.500000476837158
5.634755611419678 3.5632128715515137 -2.500000476837158
3.1302146911621094 5.421699047088623 -2.3476004600524902
1.7417577505111694 6.013271331787109 -2.3476004600524902
0.9740039110183716 4.771015644073486 -1.8259800672531128
0.7546142339706421 6.214785099029541 -2.3476004600524902
-1.2522460222244263 6.133925437927246 -2.3476004600524902
-1.7417675256729126 6.013261795043945 -2.3476004600524902
-2.219975471496582 5.853593826293945 -2.3476004600524902
-3.9593799114227295 4.849374771118164 -2.3476004600524902
-4.336748123168945 4.515038967132568 -2.3476004600524902
-5.634750843048096 3.5632030963897705 -2.500000476837158
-6.133354187011719 2.6131834983825684 -2.500000476837158
-6.473119735717773 1.59548819065094 -2.500000476837158
-6.645219802856445 0.5364648103713989 -2.500000476837158
6.427660942077637 0.5189160108566284 -2.500000476837158
6.365053653717041 1.0344433784484863 -2.500000476837158
6.11669921875 2.042060613632202 -2.500000476837158
5.450263500213623 3.4465625286102295 -2.500000476837158
5.155268669128418 3.8739354610443115 -2.500000476837158
4.820395469665527 4.270497798919678 -2.496673583984375
3.8297460079193115 4.690595626831055 -2.3476004600524902
3.0277295112609863 5.244199275970459 -2.3476004600524902
2.1472997665405273 5.661962985992432 -2.3476004600524902
0.9693652391433716 4.748291015625 -1.8787966966629028
0.24382811784744263 6.050556659698486 -2.3476004600524902
-0.729907214641571 6.011318206787109 -2.3476004600524902
-1.2112499475479126 5.933095455169678 -2.3476004600524902
-1.684731364250183 5.816386699676514 -2.3476004600524902
-2.147294759750366 5.661952972412109 -2.3476004600524902
-2.5959277153015137 5.470820426940918 -2.3476004600524902
-3.0277295112609863 5.244189262390137 -2.3476004600524902
-4.283632755279541 4.45974588394165 -2.3973352909088135
-4.819736003875732 4.269941329956055 -2.4963302612304688
-5.709921836853027 2.9968066215515137 -2.500000476837158
-5.932543754577637 2.5276269912719727 -2.500000476837158
-6.11669921875 2.042060613632202 -2.500000476837158
-6.261176586151123 1.54324209690094 -2.500000476837158
-6.365058422088623 1.034423828125 -2.500000476837158
6.242421627044678 9.765624781721272e-06 -2.500000476837158
6.222182273864746 0.5023242235183716 -2.500000476837158
6.161586761474609 1.001367211341858 -2.500000476837158
5.742905139923096 2.446826219558716 -2.500000476837158
5.527392387390137 2.901005744934082 -2.500000476837158
4.990458965301514 3.7500975131988525 -2.500000476837158
4.289721488952637 4.46609354019165 -2.480025053024292
3.7073192596435547 4.540664196014404 -2.3476004600524902
3.3299267292022705 4.82424783706665 -2.3476004600524902
2.9309375286102295 5.076562404632568 -2.3476004600524902
2.512944221496582 5.295917987823486 -2.3476004600524902
2.0786571502685547 5.48095703125 -2.3476004600524902
1.6308789253234863 5.630468845367432 -2.3476004600524902
0.9664160013198853 4.733828067779541 -1.9349253177642822
0.7065722346305847 5.819159984588623 -2.3476004600524902
0.23604004085063934 5.857148170471191 -2.3476004600524902
-0.7065771222114563 5.819159984588623 -2.3476004600524902
-1.1725292205810547 5.743427753448486 -2.3476004600524902
-2.0786523818969727 5.480976581573486 -2.3476004600524902
-2.9309473037719727 5.076552391052246 -2.3476004600524902
-3.3299267292022705 4.824238300323486 -2.3476004600524902
-3.7073192596435547 4.540644645690918 -2.3476004600524902
-4.269526481628418 4.445048809051514 -2.46834659576416
-4.990458965301514 3.7500975131988525 -2.500000476837158
-5.276025295257568 3.336357355117798 -2.500000476837158
-5.527387619018555 2.901005744934082 -2.500000476837158
-5.921156883239746 1.9767870903015137 -2.500000476837158
-6.161577224731445 1.001367211341858 -2.500000476837158
-6.222172737121582 0.5023144483566284 -2.500000476837158
6.047377586364746 9.765624781721272e-06 -2.500000476837158
6.027763366699219 0.4866308569908142 -2.500000476837158
5.969067096710205 0.9700781106948853 -2.500000476837158
5.871654987335205 1.4472362995147705 -2.500000476837158
5.736156940460205 1.9150195121765137 -2.500000476837158
5.563466548919678 2.3703906536102295 -2.500000476837158
5.111186504364014 3.232128858566284 -2.500000476837158
4.834540843963623 3.6329197883605957 -2.500000476837158
4.526523113250732 4.010165691375732 -2.500000476837158
3.603037118911743 4.412909984588623 -2.3551454544067383
3.22588849067688 4.673515319824219 -2.3476004600524902
2.839365243911743 4.917939186096191 -2.3476004600524902
2.4344286918640137 5.130468845367432 -2.3476004600524902
2.0137109756469727 5.309726238250732 -2.3476004600524902
1.579921841621399 5.454531192779541 -2.3476004600524902
0.964038074016571 4.72216796875 -1.9924131631851196
0.6844872832298279 5.637333869934082 -2.3476004600524902
-0.22866210341453552 5.674140453338623 -2.3476004600524902
-1.1358935832977295 5.56396484375 -2.3476004600524902
-1.579921841621399 5.454540729522705 -2.3476004600524902
-2.0136961936950684 5.309716701507568 -2.3476004600524902
-2.4344286918640137 5.130449295043945 -2.3476004600524902
-3.593925714492798 4.401777267456055 -2.3491973876953125
-4.178667068481445 4.350468635559082 -2.4937403202056885
-5.111176490783691 3.232119083404541 -2.500000476837158
-5.354682445526123 2.810351610183716 -2.500000476837158
-5.563457012176514 2.370371103286743 -2.500000476837158
-5.871650218963623 1.4472460746765137 -2.500000476837158
-6.027758598327637 0.4866113066673279 -2.500000476837158
5.786606311798096 0.9404296875 -2.500000476837158
4.686752796173096 3.5218749046325684 -2.500000476837158
4.388168811798096 3.887578010559082 -2.500000476837158
4.054653167724609 4.221357345581055 -2.4960243701934814
3.591870069503784 4.399228572845459 -2.421879768371582
3.127275228500366 4.530644416809082 -2.3476004600524902
2.3600096702575684 4.9736328125 -2.3476004600524902
1.9521533250808716 5.147411823272705 -2.3476004600524902
0.9619335532188416 4.711874961853027 -2.0507652759552
0.22166991233825684 5.500683307647705 -2.3476004600524902
-0.6635693311691284 5.465019226074219 -2.3476004600524902
-1.101171851158142 5.393906116485596 -2.3476004600524902
-1.9521484375 5.147392272949219 -2.3476004600524902
-2.3600146770477295 4.9736328125 -2.3476004600524902
-2.752568244934082 4.767597675323486 -2.3476004600524902
-3.127275228500366 4.530644416809082 -2.3476004600524902
-3.5789012908935547 4.383378982543945 -2.4131410121917725
-4.054130554199219 4.220800876617432 -2.4957077503204346
-4.954946041107178 3.1333301067352295 -2.500000476837158
-5.692162990570068 1.4029979705810547 -2.500000476837158
-5.786606311798096 0.9404296875 -2.500000476837158
-5.84350061416626 0.471748024225235 -2.500000476837158
5.687026023864746 1.9531249563442543e-05 -2.500000476837158
5.613383769989014 0.9122851490974426 -2.500000476837158
4.546454906463623 3.416455030441284 -2.500000476837158
4.256796836853027 3.7712109088897705 -2.500000476837158
2.670170783996582 4.624892711639404 -2.3476004600524902
1.8937108516693115 4.993319988250732 -2.3476004600524902
0.9598437547683716 4.701630592346191 -2.109452247619629
0.6437060236930847 5.301415920257568 -2.3476004600524902
-0.2150292992591858 5.336025238037109 -2.3476004600524902
-0.6437060236930847 5.301435470581055 -2.3476004600524902
-2.289365291595459 4.824746131896973 -2.3476004600524902
-2.670166015625 4.624882698059082 -2.3476004600524902
-3.56780743598938 4.369794845581055 -2.4798991680145264
-3.935722589492798 4.097538948059082 -2.4975786209106445
-5.231938362121582 2.229140520095825 -2.500000476837158
-5.394340515136719 1.8008984327316284 -2.500000476837158
-5.521777153015137 1.3609960079193115 -2.500000476837158
