ply
format ascii 1.0
element vertex 780
property float x
property float y
property float z
end_header
-24.408710479736328 -10.399619102478027 7.109170913696289
-24.064844131469727 -12.630224227905273 7.282291889190674
-24.638593673706055 -10.49755859375 6.8589630126953125
12.813486099243164 -1.0344336032867432 3.2922990322113037
-24.074413299560547 -8.037236213684082 6.201268672943115
-23.61048698425293 -10.059521675109863 6.2705535888671875
-24.34794807434082 -12.778818130493164 6.718538761138916
15.390625 -2.501230478286743 3.809753894805908
13.048798561096191 -1.0534276962280273 3.198608875274658
-25.764238357543945 -6.350331783294678 6.1726298332214355
-23.833690643310547 -10.154619216918945 6.026420593261719
-23.360136032104492 -12.260371208190918 6.136976718902588
17.633525848388672 -2.865732431411743 4.15572452545166
13.687118530273438 -1.1049609184265137 3.194255828857422
-26.28116226196289 -6.477753639221191 5.9810967445373535
-24.7412109375 -8.259843826293945 5.763632774353027
-23.293407440185547 -14.729863166809082 6.089870929718018
10.17081069946289 -7.642890453338623 2.8112425804138184
18.043935775756836 -2.932441234588623 4.039448261260986
-25.0052433013916 -8.34798812866211 5.5194807052612305
-24.255273818969727 -10.334228515625 5.520135879516602
-26.769784927368164 -6.598183631896973 5.4544267654418945
-25.4112491607666 -8.48354434967041 5.299925804138184
-24.159433364868164 -12.679872512817383 5.397809982299805
9.451464653015137 -8.373281478881836 2.498040199279785
12.35472583770752 -5.263866901397705 2.656766414642334
17.799726486206055 -1.4369677305221558 3.5328240394592285
-26.854110717773438 -6.618974685668945 5.153812885284424
-25.291805267333984 -10.775869369506836 5.122862339019775
-23.035409927368164 -12.08993148803711 4.847743988037109
3.237861156463623 -15.860468864440918 3.016433000564575
9.451464653015137 -8.373281478881836 2.352949380874634
-27.485790252685547 -6.774658203125 4.951108932495117
-25.520273208618164 -10.87320327758789 4.8517069816589355
-23.50146484375 -10.013075828552246 4.17672061920166
2.067216634750366 -17.025175094604492 2.804063081741333
28.602264404296875 -4.648310661315918 4.737832546234131
-27.789569854736328 -6.849531173706055 4.354514122009277
-25.579687118530273 -8.539774894714355 4.102909564971924
-24.474462509155273 -10.427626609802246 4.047497272491455
0.7402245998382568 -18.368749618530273 2.796940326690674
-24.70463752746582 -10.5256929397583 3.781597137451172
-2.6452343463897705 -21.78557586669922 3.0904533863067627
2.067216634750366 -17.025175094604492 2.415151834487915
-24.627763748168945 -10.492938995361328 3.4677555561065674
-27.555849075317383 -6.791923522949219 3.3570666313171387
-28.653827667236328 -7.062548637390137 2.829240560531616
-28.00188446044922 -9.348427772521973 2.830178737640381
-16.489013671875 -20.19538116455078 1.047874093055725
-16.557743072509766 -20.279560089111328 0.4714904725551605
-10.004677772521973 -26.380146026611328 0.5081042647361755
-10.033173561096191 -26.455322265625 0.19596190750598907
-16.75200080871582 -20.517480850219727 -0.11007354408502579
13.913759231567383 -3.429443359375 -0.05955154448747635
-16.779970169067383 -20.551738739013672 -0.404296875
-9.952890396118164 -26.24358367919922 -0.738859236240387
13.913759231567383 -3.429443359375 -0.3772318959236145
-24.734277725219727 -15.640975952148438 -1.0950093269348145
-16.519609451293945 -20.232851028442383 -0.9773484468460083
4.661366939544678 -12.291025161743164 -0.491860955953598
13.913768768310547 -3.429433584213257 -0.5361971855163574
-29.350332260131836 -4.769931316375732 -1.4427425861358643
-24.488582611083984 -8.175458908081055 -1.2526342868804932
-24.833925247192383 -15.703993797302246 -1.4256280660629272
-16.519609451293945 -20.232851028442383 -1.2673360109329224
-9.952890396118164 -26.24358367919922 -1.3618168830871582
4.291835784912109 -11.316650390625 -0.587237536907196
5.92678689956665 -12.490497589111328 -0.6707965135574341
-24.616151809692383 -8.218066215515137 -1.547585368156433
-22.99580955505371 -9.797587394714355 -1.4905935525894165
-9.952890396118164 -26.24358367919922 -1.6737580299377441
2.401249885559082 -11.762167930603027 -0.7158846855163574
5.845146179199219 -12.318368911743164 -0.8130889534950256
-28.955448150634766 -4.705741882324219 -2.075828790664673
-26.576923370361328 -6.550605297088623 -1.9369133710861206
-22.959823608398438 -9.782245635986328 -1.7659969329833984
-21.177587509155273 -11.114843368530273 -1.6924262046813965
-24.859676361083984 -15.720293045043945 -2.0813345909118652
-9.952890396118164 -26.24358367919922 -1.9861140251159668
2.2477734088897705 -11.010332107543945 -0.7951840162277222
3.022158145904541 -10.43375015258789 -0.7686613202095032
4.008261680603027 -10.56893539428711 -0.7998570203781128
5.774228572845459 -12.168973922729492 -0.9531252980232239
-28.661434173583984 -2.9296874345163815e-05 -2.347599983215332
-28.568437576293945 -2.306288957595825 -2.347599983215332
-28.29026222229004 -4.597641468048096 -2.347599983215332
-24.616161346435547 -8.218056678771973 -2.1256582736968994
-21.177587509155273 -11.11483383178711 -1.959012508392334
-24.35196304321289 -15.399248123168945 -2.3599727153778076
-23.050077438354492 -17.321014404296875 -2.3616349697113037
-16.519609451293945 -20.232851028442383 -2.139458179473877
-16.400957107543945 -23.760889053344727 -2.3648195266723633
-12.394257545471191 -26.120330810546875 -2.368107318878174
-8.054335594177246 -27.806785583496094 -2.3712260723114014
-5.797333717346191 -28.34974479675293 -2.370624303817749
-2.601503849029541 -21.425283432006836 -1.767796277999878
3.4547460079193115 -28.452430725097656 -2.347599983215332
2.1730663776397705 -10.644472122192383 -0.8898536562919617
3.9936132431030273 -10.530302047729492 -0.9224604368209839
5.768525123596191 -12.156923294067383 -1.1021648645401
24.22427749633789 -15.318486213684082 -2.347599983215332
25.37837791442871 -13.319589614868164 -2.347599983215332
26.36783218383789 -11.234267234802246 -2.347599983215332
27.186298370361328 -9.076132774353027 -2.347599983215332
27.828475952148438 -6.859111309051514 -2.347599983215332
29.370731353759766 -4.773202896118164 -2.4372687339782715
-26.006689071655273 -1.4648437172581907e-05 -2.4205636978149414
-25.140975952148438 -2.029599666595459 -2.347599983215332
-24.489843368530273 -6.036220550537109 -2.347599983215332
-23.92473602294922 -7.987265586853027 -2.347599983215332
-21.397830963134766 -13.53189468383789 -2.3564352989196777
-18.975038528442383 -16.810449600219727 -2.3594813346862793
-17.572343826293945 -18.294755935668945 -2.361025094985962
-16.05278205871582 -19.663368225097656 -2.3625755310058594
-14.428730010986328 -20.90422821044922 -2.364116907119751
-12.708319664001465 -22.011444091796875 -2.3656415939331055
-10.866727828979492 -22.90243148803711 -2.359395742416382
1.015625 -25.202295303344727 -2.347599983215332
3.200800657272339 -26.361034393310547 -2.4715638160705566
2.1730761528015137 -10.644462585449219 -1.0111652612686157
2.862138509750366 -9.881278991699219 -0.9575010538101196
5.756064414978027 -12.130643844604492 -1.2497155666351318
18.606679916381836 -19.371601104736328 -2.5
23.37578010559082 -12.26854419708252 -2.457143545150757
24.351757049560547 -10.375311851501465 -2.463676929473877
25.463993072509766 -8.501142501831055 -2.498642683029175
-23.977617263793945 -1.9531249563442543e-05 -2.5
-22.224355697631836 -3.6118359565734863 -2.347599983215332
-21.861629486083984 -5.388417720794678 -2.347599983215332
-20.714168548583984 -8.825517654418945 -2.347599983215332
-19.93685531616211 -10.4636812210083 -2.347599983215332
-19.03023338317871 -12.034003257751465 -2.347599983215332
-18.000185012817383 -13.52626895904541 -2.347599983215332
-16.8533878326416 -14.93080997467041 -2.347599983215332
-10.510048866271973 -15.226435661315918 -1.9290409088134766
-11.257948875427246 -19.499345779418945 -2.347599983215332
-9.652392387390137 -20.34200096130371 -2.347599983215332
-7.984267234802246 -21.052724838256836 -2.347599983215332
-6.264326095581055 -21.626943588256836 -2.347599983215332
-2.5959765911102295 -21.379735946655273 -2.2454984188079834
0.9644726514816284 -23.9337100982666 -2.4974496364593506
2.1730663776397705 -10.644472122192383 -1.1327263116836548
2.862138509750366 -9.881278991699219 -1.0726121664047241
3.982734203338623 -10.501591682434082 -1.1710366010665894
5.752021312713623 -12.122118949890137 -1.3989702463150024
11.988808631896973 -20.76520538330078 -2.5
16.609853744506836 -17.292705535888672 -2.5
17.947490692138672 -15.900087356567383 -2.5
19.168670654296875 -14.404345512390137 -2.5
20.265615463256836 -12.815204620361328 -2.5
22.058876037597656 -9.398427963256836 -2.5
23.66706085205078 -3.846259593963623 -2.5
-21.64892578125 -2.4414061044808477e-05 -2.5
-21.368555068969727 -3.4727587699890137 -2.5
-18.702430725097656 -7.968388557434082 -2.347599983215332
-18.00057601928711 -9.447441101074219 -2.347599983215332
-17.182010650634766 -10.865253448486328 -2.347599983215332
-16.25202178955078 -12.212607383728027 -2.347599983215332
-14.08251953125 -14.661444664001465 -2.347599983215332
-12.85708999633789 -15.747079849243164 -2.347599983215332
-10.4890718460083 -15.196063995361328 -2.1322784423828125
-10.164579391479492 -17.605575561523438 -2.347599983215332
-8.714970588684082 -18.366405487060547 -2.347599983215332
-7.208827972412109 -19.008113861083984 -2.347599983215332
-5.655937194824219 -19.526552200317383 -2.347599983215332
-4.066367149353027 -19.91834831237793 -2.347599983215332
-2.5686328411102295 -21.154598236083984 -2.460862636566162
-0.8717284798622131 -21.631338119506836 -2.5
2.1730663776397705 -10.644472122192383 -1.2545702457427979
5.746718406677246 -12.110957145690918 -1.5480270385742188
14.996688842773438 -15.613242149353027 -2.5
16.204423904418945 -14.35586929321289 -2.5
19.169139862060547 -10.060731887817383 -2.5
19.916532516479492 -8.485634803771973 -2.5
21.3685245513916 -3.47271466255188 -2.5
21.57868194580078 -1.7420165538787842 -2.5
-19.472518920898438 -3.164604425430298 -2.5
-19.154735565185547 -4.721230506896973 -2.5
-18.688915252685547 -6.23928689956665 -2.496819019317627
-17.669471740722656 -7.528281211853027 -2.43390154838562
-16.45985221862793 -8.638808250427246 -2.3556783199310303
-15.65746021270752 -9.901171684265137 -2.347599983215332
-14.809969902038574 -11.128973960876465 -2.347599983215332
-10.364785194396973 -15.015995979309082 -2.3121774196624756
-9.262675285339355 -16.043437957763672 -2.347599983215332
-6.637909889221191 -17.502714157104492 -2.3721542358398438
-0.7943750023841858 -19.71198272705078 -2.5
2.3779492378234863 -19.58414077758789 -2.5
2.1730663776397705 -10.644472122192383 -1.3767277002334595
5.741425514221191 -12.099814414978027 -1.6971936225891113
13.666034698486328 -14.227880477905273 -2.5
15.771395683288574 -11.851435661315918 -2.5
16.67387580871582 -10.543935775756836 -2.5
18.14934539794922 -7.732724666595459 -2.5
19.664043426513672 -1.5874755382537842 -2.5
-17.18375015258789 -5.736777305603027 -2.5
-14.19100570678711 -10.663857460021973 -2.449638605117798
-13.128300666809082 -11.630663871765137 -2.4203948974609375
-12.081992149353027 -12.578680992126465 -2.4068801403045654
-11.038827896118164 -13.520116806030273 -2.408663272857666
-9.9856538772583 -14.466718673706055 -2.4257988929748535
-8.908876419067383 -15.43065357208252 -2.4588372707366943
-7.748095512390137 -16.32874870300293 -2.494161367416382
-6.424052715301514 -16.938817977905273 -2.5
-3.623671770095825 -17.749950408935547 -2.5
0.7294530868530273 -18.101356506347656 -2.5
2.1730663776397705 -10.644472122192383 -1.4992257356643677
5.736123085021973 -12.088642120361328 -1.8465005159378052
9.058027267456055 -15.68895435333252 -2.5
10.291083335876465 -14.909228324890137 -2.5
11.45742130279541 -14.032782554626465 -2.5
14.482744216918945 -10.883075714111328 -2.5
15.3115234375 -9.682392120361328 -2.5
16.040956497192383 -8.4189453125 -2.5
16.66639518737793 -7.100888729095459 -2.5
13.816367149353027 -3.405449151992798 -1.9637113809585571
17.011571884155273 -1.3733203411102295 -2.355220079421997
-16.743759155273438 -2.9296874345163815e-05 -2.5
-16.689472198486328 -1.3473241329193115 -2.5
-16.25721549987793 -4.007045745849609 -2.5
-14.1516695022583 -8.948974609375 -2.5
-13.385683059692383 -10.05868148803711 -2.5
-11.598808288574219 -12.075644493103027 -2.5
-9.511552810668945 -13.7798433303833 -2.5
-8.3718843460083 -14.500536918640137 -2.5
-7.177939414978027 -15.127158164978027 -2.5
-4.658417701721191 -16.082685470581055 -2.5
-3.349189281463623 -16.4053897857666 -2.5
-0.6742089986801147 -16.73018455505371 -2.5
0.6741894483566284 -16.73018455505371 -2.5
2.018242120742798 -16.62166976928711 -2.5
2.1730761528015137 -10.644462585449219 -1.6221002340316772
8.3718843460083 -14.500516891479492 -2.5
9.5115327835083 -13.7798433303833 -2.5
10.58951187133789 -12.9697847366333 -2.5
14.151650428771973 -8.948965072631836 -2.5
14.825859069824219 -7.781210899353027 -2.5
13.793505668640137 -3.3998045921325684 -2.121138572692871
15.56981372833252 -2.530341625213623 -2.355220079421997
-15.561083793640137 -2.4414061044808477e-05 -2.5
-15.510634422302246 -1.2521581649780273 -2.5
-15.108915328979492 -3.7240283489227295 -2.5
-14.315888404846191 -6.099443435668945 -2.5
-13.77865219116211 -7.231620788574219 -2.5
-12.440204620361328 -9.348212242126465 -2.5
-11.647656440734863 -10.318915367126465 -2.5
-9.841543197631836 -12.05370044708252 -2.5
-7.78054666519165 -13.47630786895752 -2.5
-6.67092752456665 -14.05868148803711 -2.5
-5.518046855926514 -14.549872398376465 -2.5
-3.1126365661621094 -15.246630668640137 -2.5
-1.8756933212280273 -15.447627067565918 -2.5
-0.6266112923622131 -15.54848575592041 -2.5
2.862138509750366 -9.881278991699219 -1.65275239944458
6.670907974243164 -14.058671951293945 -2.5
7.78054666519165 -13.476298332214355 -2.5
8.839696884155273 -12.806532859802246 -2.5
12.440185546875 -9.348212242126465 -2.5
13.152079582214355 -8.316864967346191 -2.5
14.315868377685547 -6.099423885345459 -2.5
14.7603120803833 -4.927558422088623 -2.5
13.730439186096191 -3.384267568588257 -2.27191424369812
14.470067977905273 -2.351621150970459 -2.355220079421997
14.612372398376465 -1.1796435117721558 -2.355220079421997
-14.483935356140137 -1.1692675352096558 -2.5
-14.342880249023438 -2.3309619426727295 -2.5
-14.108827590942383 -3.4775242805480957 -2.5
-12.281503677368164 -7.766357421875 -2.5
-11.616747856140137 -8.729423522949219 -2.5
-10.876649856567383 -9.635869026184082 -2.5
-6.229335784912109 -13.128095626831055 -2.5
-5.152792930603027 -13.586787223815918 -2.5
-1.7515429258346558 -14.425116539001465 -2.5
0.5850781202316284 -14.519287109375 -2.5
1.7515233755111694 -14.4251070022583 -2.5
2.862138509750366 -9.881278991699219 -1.769907832145691
3.943789005279541 -10.398896217346191 -1.9134222269058228
6.229345798492432 -13.12807559967041 -2.5
7.265527248382568 -12.584257125854492 -2.5
9.190107345581055 -11.255820274353027 -2.5
10.876649856567383 -9.635869026184082 -2.5
11.616747856140137 -8.729413986206055 -2.5
12.281494140625 -7.766357421875 -2.5
13.848456382751465 -1.1179882287979126 -2.390317678451538
-13.625673294067383 -9.765624781721272e-06 -2.5
-13.229745864868164 -3.260859251022339 -2.5
-12.924452781677246 -4.314824104309082 -2.5
-12.064921379089355 -6.332167625427246 -2.5
-10.892949104309082 -8.185517311096191 -2.5
-10.198974609375 -9.035497665405273 -2.5
-9.438838005065918 -9.826874732971191 -2.5
-5.841220378875732 -12.310126304626465 -2.5
-4.831737995147705 -12.740234375 -2.5
-2.7255077362060547 -13.350321769714355 -2.5
0.5486425757408142 -13.614628791809082 -2.5
1.6423827409744263 -13.526337623596191 -2.5
3.7908787727355957 -13.087714195251465 -2.5
5.841230392456055 -12.3101167678833 -2.5
8.617480278015137 -10.554511070251465 -2.5
10.892939567565918 -8.185517311096191 -2.5
12.06493091583252 -6.332158088684082 -2.5
12.535322189331055 -5.340810298919678 -2.5
12.777949333190918 -3.149492025375366 -2.414628744125366
-11.797304153442383 -5.026371955871582 -2.5
-10.838261604309082 -6.853701114654541 -2.5
-8.110136985778809 -9.933115005493164 -2.5
-7.284560203552246 -10.553505897521973 -2.5
-6.41173791885376 -11.105439186096191 -2.5
-1.5457128286361694 -12.729960441589355 -2.5
0.5163183212280273 -12.813055992126465 -2.5
2.3623242378234863 -11.571474075317383 -2.3024520874023438
3.9384472370147705 -10.384804725646973 -2.165282964706421
5.497314453125 -11.58535099029541 -2.5
8.110126495361328 -9.933095932006836 -2.5
8.883105278015137 -9.248310089111328 -2.5
10.838232040405273 -6.853701114654541 -2.5
11.797285079956055 -5.026376724243164 -2.5
12.163496017456055 -4.060781002044678 -2.5
12.65738296508789 -2.0570311546325684 -2.5
-12.10750961303711 -1.4648437172581907e-05 -2.5
-11.484423637390137 -3.8340721130371094 -2.5
-10.720683097839355 -5.626650333404541 -2.5
-9.062606811523438 -8.028769493103027 -2.5
-7.657333850860596 -9.378535270690918 -2.5
-6.877851486206055 -9.964296340942383 -2.5
-6.053759574890137 -10.485419273376465 -2.5
-5.190390586853027 -10.938544273376465 -2.5
-4.293378829956055 -11.320722579956055 -2.5
-2.4218358993530273 -11.862841606140137 -2.5
1.4594042301177979 -12.019238471984863 -2.5
2.421806573867798 -11.862832069396973 -2.5
3.3685154914855957 -11.62948226928711 -2.5
3.934033155441284 -10.373231887817383 -2.290761947631836
10.720654487609863 -5.626650333404541 -2.5
11.138651847839355 -4.745741844177246 -2.5
11.755682945251465 -2.89751935005188 -2.5
-11.46451187133789 4.882812390860636e-06 -2.5
-11.31606388092041 -1.839052677154541 -2.5
-11.131396293640137 -2.743657112121582 -2.5
-10.874521255493164 -3.6304638385772705 -2.5
-4.914755821228027 -10.357626914978027 -2.5
-4.065380573272705 -10.719511032104492 -2.5
-2.293203115463257 -11.232831954956055 -2.5
-1.3819042444229126 -11.380927085876465 -2.5
0.4616113305091858 -11.45522403717041 -2.5
1.3818846940994263 -11.380937576293945 -2.5
3.9296483993530273 -10.361620903015137 -2.4165334701538086
4.914765357971191 -10.357626914978027 -2.5
5.732236385345459 -9.928573608398438 -2.5
7.250673770904541 -8.880477905273438 -2.5
9.165224075317383 -6.887226581573486 -2.5
9.689687728881836 -6.127392292022705 -2.5
10.151318550109863 -5.327831745147705 -2.5
10.874491691589355 -3.6304588317871094 -2.5
11.131357192993164 -2.74365234375 -2.5
11.316035270690918 -1.839052677154541 -2.5
-10.883720397949219 -1.9531249563442543e-05 -2.5
-10.742773056030273 -1.745888590812683 -2.5
-10.323603630065918 -3.446528196334839 -2.5
-9.198798179626465 -5.816972732543945 -2.5
-8.700907707214355 -6.538300514221191 -2.5
-6.883368968963623 -8.430595397949219 -2.5
-6.182656288146973 -8.95711898803711 -2.5
-5.441855430603027 -9.425576210021973 -2.5
-3.85943341255188 -10.176445007324219 -2.5
-3.028027296066284 -10.453993797302246 -2.5
2.177011728286743 -10.663749694824219 -2.5
3.8593945503234863 -10.176445007324219 -2.5
5.441845417022705 -9.425565719604492 -2.5
6.88332986831665 -8.43057632446289 -2.5
7.539394378662109 -7.849345684051514 -2.5
8.146552085876465 -7.217236042022705 -2.5
9.1987886428833 -5.816972732543945 -2.5
10.567421913146973 -2.6046533584594727 -2.5
-10.322782516479492 -0.8333446979522705 -2.5
-10.22225570678711 -1.66128408908844 -2.5
-9.82338809967041 -3.279531240463257 -2.5
-9.527636528015137 -4.059360027313232 -2.5
-9.170106887817383 -4.812846660614014 -2.5
-8.753105163574219 -5.535126686096191 -2.5
-7.174120903015137 -7.469033241271973 -2.5
-6.549824237823486 -8.022089958190918 -2.5
-5.883076190948486 -8.523115158081055 -2.5
-5.178173542022705 -8.968876838684082 -2.5
-0.4170312285423279 -10.347968101501465 -2.5
2.0715136528015137 -10.14706039428711 -2.5
2.881298780441284 -9.947470664978027 -2.5
3.6724119186401367 -9.683368682861328 -2.5
4.439687252044678 -9.356454849243164 -2.5
5.178153991699219 -8.968876838684082 -2.5
5.883066177368164 -8.523115158081055 -2.5
7.174081802368164 -7.469033241271973 -2.5
9.170097351074219 -4.812831878662109 -2.5
9.527626991271973 -4.059345722198486 -2.5
9.823369026184082 -3.279531240463257 -2.5
10.055419921875 -2.478447198867798 -2.5
10.222246170043945 -1.6612744331359863 -2.5
-9.875322341918945 -1.4648437172581907e-05 -2.5
-9.843290328979492 -0.7946386337280273 -2.5
-9.588369369506836 -2.363330125808716 -2.5
-8.346503257751465 -5.278007507324219 -2.5
-7.391787052154541 -6.548544883728027 -2.5
-6.245595455169678 -7.649462699890137 -2.5
-4.937655925750732 -8.552265167236328 -2.5
-3.501835823059082 -9.233573913574219 -2.5
-2.7474803924560547 -9.485400199890137 -2.5
-1.9753026962280273 -9.675732612609863 -2.5
-0.3976464867591858 -9.867294311523438 -2.5
1.1903417110443115 -9.803300857543945 -2.5
2.7474706172943115 -9.485419273376465 -2.5
3.501835823059082 -9.233573913574219 -2.5
6.245585918426514 -7.649462699890137 -2.5
6.84084939956665 -7.12209939956665 -2.5
8.744140625 -4.589282035827637 -2.5
9.747411727905273 -1.5841064453125 -2.5
-9.434589385986328 -4.882812390860636e-06 -2.5
-9.312421798706055 -1.5134228467941284 -2.5
-8.949071884155273 -2.9876415729522705 -2.5
-8.679648399353027 -3.69805645942688 -2.5
-8.353935241699219 -4.384482383728027 -2.5
-7.542450904846191 -5.667773246765137 -2.5
-7.061903953552246 -6.256298542022705 -2.5
-6.535575866699219 -6.804257869720459 -2.5
-5.966875076293945 -7.308095455169678 -2.5
-5.359453201293945 -7.764540672302246 -2.5
-4.71731424331665 -8.170624732971191 -2.5
-4.044560432434082 -8.523700714111328 -2.5
-3.3455662727355957 -8.821503639221191 -2.5
-1.1372168064117432 -9.36581039428711 -2.5
0.3798925578594208 -9.426953315734863 -2.5
2.6248533725738525 -9.062118530273438 -2.5
5.359453201293945 -7.764540672302246 -2.5
6.535566329956055 -6.804267406463623 -2.5
8.35391616821289 -4.384482383728027 -2.5
8.679628372192383 -3.6980466842651367 -2.5
9.160439491271973 -2.2578563690185547 -2.5
9.404004096984863 -0.7591845393180847 -2.5
-9.000009536743164 -0.7265625 -2.5
-8.564589500427246 -2.8592822551727295 -2.5
-8.306757926940918 -3.539189338684082 -2.5
-7.995038986206055 -4.196127891540527 -2.5
-7.63146448135376 -4.825849533081055 -2.5
-7.218398094177246 -5.424267292022705 -2.5
-5.129228591918945 -7.430966854095459 -2.5
-2.512099504470825 -8.672782897949219 -2.5
-1.0883691310882568 -8.963446617126465 -2.5
2.512079954147339 -8.672792434692383 -2.5
4.5146484375 -7.819589614868164 -2.5
6.254794597625732 -6.511952877044678 -2.5
6.758505821228027 -5.987529277801514 -2.5
7.995028972625732 -4.196113109588623 -2.5
8.766894340515137 -2.1608593463897705 -2.5
8.912353515625 -1.44839346408844 -2.5
-8.655165672302246 -9.765624781721272e-06 -2.5
-8.62709903717041 -0.696459949016571 -2.5
-8.209735870361328 -2.7408201694488525 -2.5
-7.962568283081055 -3.3925437927246094 -2.5
-6.91930627822876 -5.199521541595459 -2.5
-6.478486061096191 -5.739443302154541 -2.5
-5.995644569396973 -6.242128849029541 -2.5
-5.473916053771973 -6.704335689544678 -2.5
-4.916698932647705 -7.123066425323486 -2.5
-4.327587604522705 -7.495595455169678 -2.5
-3.7104101181030273 -7.819501876831055 -2.5
0.34849607944488525 -8.648144721984863 -2.5
1.043251872062683 -8.592060089111328 -2.5
1.731240153312683 -8.480243682861328 -2.5
2.4079980850219727 -8.313437461853027 -2.5
3.710380792617798 -7.819501876831055 -2.5
4.327548503875732 -7.495595455169678 -2.5
4.916669845581055 -7.123056411743164 -2.5
5.99563455581665 -6.242118835449219 -2.5
7.315234184265137 -4.625888347625732 -2.5
7.663740158081055 -4.022255897521973 -2.5
8.209716796875 -2.7408201694488525 -2.5
8.403632164001465 -2.0713281631469727 -2.5
8.543046951293945 -1.3883886337280273 -2.5
8.627070426940918 -0.696459949016571 -2.5
-8.201093673706055 -1.3328173160552979 -2.5
-8.067235946655273 -1.9883984327316284 -2.5
-7.881093502044678 -2.631093740463257 -2.5
-7.356972694396973 -3.8612401485443115 -2.5
-6.219150066375732 -5.509677410125732 -2.5
-5.254794597625732 -6.435956954956055 -2.5
-4.719862937927246 -6.83791971206665 -2.5
-3.561884641647339 -7.506484031677246 -2.5
-1.661953091621399 -8.14077091217041 -2.5
3.5618553161621094 -7.506484031677246 -2.5
4.154335975646973 -7.195537090301514 -2.5
4.719862937927246 -6.837910175323486 -2.5
5.254765510559082 -6.435946941375732 -2.5
6.219120979309082 -5.509677410125732 -2.5
7.022402286529541 -4.440712928771973 -2.5
7.356972694396973 -3.8612303733825684 -2.5
7.643798828125 -3.256723642349243 -2.5
7.881073951721191 -2.631093740463257 -2.5
8.067216873168945 -1.9884082078933716 -2.5
8.20108413696289 -1.332802653312683 -2.5
-7.98684549331665 -1.9531249563442543e-05 -2.5
-7.883398056030273 -1.2811864614486694 -2.5
-7.754745960235596 -1.9113818407058716 -2.5
-7.575790882110596 -2.529179573059082 -2.5
-7.347714900970459 -3.130571126937866 -2.5
-7.071972370147705 -3.711660146713257 -2.5
-6.385009765625 -4.798027038574219 -2.5
-5.532665729522705 -5.760117053985596 -2.5
-5.051230430603027 -6.186630725860596 -2.5
-2.8321874141693115 -7.46780252456665 -2.5
-1.5975780487060547 -7.825419902801514 -2.5
-0.3216015696525574 -7.98034143447876 -2.5
0.9626855254173279 -7.92858362197876 -2.5
3.4238767623901367 -7.21569299697876 -2.5
5.532656192779541 -5.760107517242432 -2.5
5.978212833404541 -5.296240329742432 -2.5
6.384990215301514 -4.798012733459473 -2.5
7.575780868530273 -2.529169797897339 -2.5
7.754706859588623 -1.9113818407058716 -2.5
7.960907936096191 -0.6426855325698853 -2.5
-7.686992168426514 -1.9531249563442543e-05 -2.5
-7.662060260772705 -0.6185497641563416 -2.5
-7.587421894073486 -1.2330760955810547 -2.5
-7.071855545043945 -3.0130419731140137 -2.5
-6.496933460235596 -4.108417987823486 -2.5
-6.145312309265137 -4.617895603179932 -2.5
-5.75377893447876 -5.097412109375 -2.5
-5.324941158294678 -5.543867111206055 -2.5
-3.2953319549560547 -6.944794654846191 -2.5
-2.7258594036102295 -7.187450885772705 -2.5
-1.53759765625 -7.531620979309082 -2.5
-0.9265527129173279 -7.630918025970459 -2.5
-0.30953124165534973 -7.680732250213623 -2.5
0.3095117211341858 -7.680732250213623 -2.5
2.1386327743530273 -7.383466720581055 -2.5
2.725820302963257 -7.187450885772705 -2.5
3.8434667587280273 -6.657109260559082 -2.5
4.366679668426514 -6.326250076293945 -2.5
5.324941158294678 -5.543867111206055 -2.5
6.49694299697876 -4.108422756195068 -2.5
6.806445121765137 -3.572319269180298 -2.5
7.291357040405273 -2.434218645095825 -2.5
-7.406894207000732 -9.765624781721272e-06 -2.5
-7.191669940948486 -1.7725927829742432 -2.5
-7.025683403015137 -2.345522403717041 -2.5
-6.260224342346191 -3.9587254524230957 -2.5
-5.921376705169678 -4.449618816375732 -2.5
-5.544130802154541 -4.911674499511719 -2.5
-4.684463024139404 -5.737411975860596 -2.5
-3.1752734184265137 -6.691747665405273 -2.5
-0.8928124904632568 -7.352880477905273 -2.5
0.2982226610183716 -7.40087890625 -2.5
0.8927831649780273 -7.352870941162109 -2.5
1.4815527200698853 -7.25719690322876 -2.5
2.626513719558716 -6.925546646118164 -2.5
3.1752636432647705 -6.691747665405273 -2.5
3.7034177780151367 -6.41455078125 -2.5
4.207578182220459 -6.095742225646973 -2.5
5.130908012390137 -5.341865062713623 -2.5
5.544111251831055 -4.911674499511719 -2.5
5.921357154846191 -4.449628829956055 -2.5
6.260204792022705 -3.9587206840515137 -2.5
6.558456897735596 -3.442138671875 -2.5
7.191630840301514 -1.7725878953933716 -2.5
7.38284158706665 -0.5960156321525574 -2.5
-7.144589900970459 -4.882812390860636e-06 -2.5
-7.121435165405273 -0.5749120712280273 -2.5
-7.052080154418945 -1.1460888385772705 -2.5
-6.57287073135376 -2.8004443645477295 -2.5
-6.326230525970459 -3.320263624191284 -2.5
-5.347812175750732 -4.737749099731445 -2.5
-4.51858377456665 -5.534247875213623 -2.5
-3.0628318786621094 -6.454784870147705 -2.5
-2.533505916595459 -6.680312156677246 -2.5
-1.9877636432647705 -6.862509727478027 -2.5
-0.28767576813697815 -7.13878870010376 -2.5
0.2876562476158142 -7.138798713684082 -2.5
0.8611718416213989 -7.092499732971191 -2.5
1.4290918111801147 -7.000205039978027 -2.5
1.987734317779541 -6.862519264221191 -2.5
3.062812328338623 -6.454794883728027 -2.5
4.058574199676514 -5.8798828125 -2.5
4.949228286743164 -5.152695178985596 -2.5
5.711679458618164 -4.292065143585205 -2.5
6.038535118103027 -3.818535089492798 -2.5
6.776904106140137 -2.262460947036743 -2.5
7.052060604095459 -1.1460741758346558 -2.5
7.121416091918945 -0.574902355670929 -2.5
-6.80908203125 -1.1065967082977295 -2.5
-6.697978496551514 -1.650917887687683 -2.5
-6.108232498168945 -3.2058544158935547 -2.5
-5.830468654632568 -3.686962842941284 -2.5
-5.514892578125 -4.144179821014404 -2.5
-5.163554668426514 -4.574496746063232 -2.5
-4.362880706787109 -5.343554496765137 -2.5
-3.9187498092651367 -5.677285194396973 -2.5
-3.4491991996765137 -5.974199295043945 -2.5
-2.957285165786743 -6.232372760772705 -2.5
-1.9192675352096558 -6.626064300537109 -2.5
0.8314843773841858 -6.848124980926514 -2.5
1.3798437118530273 -6.759013652801514 -2.5
1.9192382097244263 -6.626064300537109 -2.5
2.4461913108825684 -6.450126647949219 -2.5
3.9187400341033936 -5.677285194396973 -2.5
5.163525104522705 -4.574496746063232 -2.5
5.514873027801514 -4.144169807434082 -2.5
5.830458641052246 -3.6869726181030273 -2.5
6.876035213470459 -0.5550878643989563 -2.5
-6.666835784912109 -4.882812390860636e-06 -2.5
-6.133349418640137 -2.6131885051727295 -2.5
-5.903203010559082 -3.0982470512390137 -2.5
-5.329755783081055 -4.005053520202637 -2.5
-4.618290901184082 -4.808144569396973 -2.5
-4.216425895690918 -5.164179801940918 -2.5
-3.7872068881988525 -5.486708641052246 -2.5
-3.3334178924560547 -5.773662090301514 -2.5
-1.3335546255111694 -6.532109260559082 -2.5
-0.26847654581069946 -6.661445140838623 -2.5
0.8035937547683716 -6.618232250213623 -2.5
1.3335254192352295 -6.532118797302246 -2.5
2.8580174446105957 -6.023163795471191 -2.5
3.3334178924560547 -5.773662090301514 -2.5
3.78716778755188 -5.486708641052246 -2.5
4.216406345367432 -5.164169788360596 -2.5
4.990195274353027 -4.420937538146973 -2.5
5.329755783081055 -4.005048751831055 -2.5
5.634746074676514 -3.5632030963897705 -2.5
5.90319299697876 -3.0982322692871094 -2.5
6.133339881896973 -2.6131932735443115 -2.5
6.580497741699219 -1.069433569908142 -2.5
6.645214557647705 -0.5364599227905273 -2.5
-6.427646160125732 -0.5188915729522705 -2.5
-6.365068435668945 -1.0344336032867432 -2.5
-6.261200904846191 -1.5432469844818115 -2.5
-5.932548522949219 -2.527636766433716 -2.5
-5.709941387176514 -2.9968113899230957 -2.5
-5.1552734375 -3.8739306926727295 -2.5
-4.467099666595459 -4.650732517242432 -2.5
-3.663212776184082 -5.307070255279541 -2.5
-3.2242772579193115 -5.584619045257568 -2.5
-2.764462947845459 -5.825966835021973 -2.5
-2.2867088317871094 -6.029511451721191 -2.5
0.2596484422683716 -6.443329811096191 -2.5
1.7941112518310547 -6.193954944610596 -2.5
3.2242870330810547 -5.584619045257568 -2.5
3.663203001022339 -5.307070255279541 -2.5
4.467060565948486 -4.650727272033691 -2.5
4.826796531677246 -4.276201248168945 -2.5
5.155234336853027 -3.8739354610443115 -2.5
5.450253963470459 -3.446533203125 -2.5
5.932538986206055 -2.5276219844818115 -2.5
6.116689205169678 -2.042065382003784 -2.5
6.261161804199219 -1.543251872062683 -2.5
6.365048885345459 -1.034423828125 -2.5
6.427646160125732 -0.5188964605331421 -2.5
-6.161591529846191 -1.001367211341858 -2.5
-5.527392387390137 -2.9010009765625 -2.5
-5.276044845581055 -3.336367130279541 -2.5
-4.990458965301514 -3.7500877380371094 -2.5
-3.948007822036743 -4.835419654846191 -2.5
-3.5461132526397705 -5.137412071228027 -2.5
-2.676084041595459 -5.639716625213623 -2.5
-2.2136034965515137 -5.836767673492432 -2.5
-0.2513671815395355 -6.237363338470459 -2.5
0.2513378858566284 -6.237372875213623 -2.5
0.7524316310882568 -6.196904182434082 -2.5
1.248632788658142 -6.116279125213623 -2.5
1.7367479801177979 -5.99596643447876 -2.5
2.676074266433716 -5.639716625213623 -2.5
3.546093702316284 -5.137421607971191 -2.5
4.324267387390137 -4.502055644989014 -2.5
4.672509670257568 -4.139492034912109 -2.5
5.276025295257568 -3.336357355117798 -2.5
5.527392387390137 -2.900995969772339 -2.5
5.921152114868164 -1.9767870903015137 -2.5
-6.027763366699219 -0.4866113066673279 -2.5
-5.736152172088623 -1.915014624595642 -2.5
-5.354706764221191 -2.810366153717041 -2.5
-4.834550857543945 -3.632929563522339 -2.5
-3.435312509536743 -4.976899147033691 -2.5
-3.0237011909484863 -5.237187385559082 -2.5
-2.592460870742798 -5.463505744934082 -2.5
-0.24351562559604645 -6.042470455169678 -2.5
0.2434960901737213 -6.04248046875 -2.5
0.7289062142372131 -6.00329065322876 -2.5
1.209619164466858 -5.92516565322876 -2.5
2.144423723220825 -5.654394626617432 -2.5
4.526513576507568 -4.010156154632568 -2.5
5.111171722412109 -3.232119083404541 -2.5
5.354687213897705 -2.81036114692688 -2.5
5.563446998596191 -2.370375871658325 -2.5
5.736142635345459 -1.915014624595642 -2.5
5.871650218963623 -1.4472265243530273 -2.5
5.969062328338623 -0.9700634479522705 -2.5
-5.78662109375 -0.9404345750808716 -2.5
-5.69216775894165 -1.4029979705810547 -2.5
-4.954951286315918 -3.1333203315734863 -2.5
-4.388173580169678 -3.887583017349243 -2.5
-4.061122894287109 -4.228075981140137 -2.5
-3.7077343463897705 -4.541142463684082 -2.5
-3.330312490463257 -4.824765682220459 -2.5
-2.9312596321105957 -5.077104568481445 -2.5
-2.513232469558716 -5.296513557434082 -2.5
-1.1726659536361694 -5.744042873382568 -2.5
1.172646403312683 -5.744052410125732 -2.5
1.631044864654541 -5.631064414978027 -2.5
2.0788769721984863 -5.481562614440918 -2.5
3.707714796066284 -4.541142463684082 -2.5
4.388144493103027 -3.887578010559082 -2.5
5.393378734588623 -2.297919988632202 -2.5
5.560791015625 -1.856484293937683 -2.5
5.692158222198486 -1.4029979705810547 -2.5
5.786581993103027 -0.9404199123382568 -2.5
-5.68704080581665 -9.765624781721272e-06 -2.5
-5.668593406677246 -0.45762205123901367 -2.5
-5.61339807510376 -0.912280261516571 -2.5
-5.394345760345459 -1.8009033203125 -2.5
-5.035605430603027 -2.642900228500366 -2.5
-4.806630611419678 -3.0395359992980957 -2.5
-4.546464920043945 -3.416450023651123 -2.5
-4.256806373596191 -3.7712011337280273 -2.5
-3.59673810005188 -4.405204772949219 -2.5
-2.843515634536743 -4.925112247467041 -2.5
-2.43798828125 -5.137948989868164 -2.5
-2.016660213470459 -5.317470550537109 -2.5
-1.5822460651397705 -5.462490081787109 -2.5
-0.6854882836341858 -5.645566463470459 -2.5
-0.22901366651058197 -5.682412147521973 -2.5
0.22898437082767487 -5.682412147521973 -2.5
0.6854882836341858 -5.645556449890137 -2.5
3.230585813522339 -4.680331707000732 -2.5
3.939521312713623 -4.101503849029541 -2.5
5.231923580169678 -2.229130744934082 -2.5
5.394326210021973 -1.8009130954742432 -2.5
5.52175760269165 -1.3609960079193115 -2.5
5.613359451293945 -0.9122655987739563 -2.5
5.66857385635376 -0.45762205123901367 -2.5
-5.502255916595459 -0.44419431686401367 -2.5
-5.359765529632568 -1.3210644721984863 -2.5
-5.236054420471191 -1.7480517625808716 -2.5
-5.078437328338623 -2.1637206077575684 -2.5
-4.887870788574219 -2.565356492996216 -2.5
-4.665595531463623 -2.9503417015075684 -2.5
-4.131904125213623 -3.6605420112609863 -2.5
-3.4912109375 -4.275947093963623 -2.5
-2.7600975036621094 -4.780605316162109 -2.5
-1.9574902057647705 -5.161445140838623 -2.5
-1.5358104705810547 -5.302226543426514 -2.5
-1.1041991710662842 -5.408622741699219 -2.5
1.104160189628601 -5.408603191375732 -2.5
1.535791039466858 -5.302216529846191 -2.5
1.957460880279541 -5.161445140838623 -2.5
2.366445302963257 -4.987196922302246 -2.5
3.823925733566284 -3.9811620712280273 -2.5
4.131884574890137 -3.6605517864227295 -2.5
4.413036823272705 -3.3161962032318115 -2.5
4.665575981140137 -2.9503417015075684 -2.5
4.887851238250732 -2.565356492996216 -2.5
5.078417778015137 -2.1637303829193115 -2.5
5.359755516052246 -1.3210644721984863 -2.5
5.448661804199219 -0.885498046875 -2.5
5.502255916595459 -0.44419920444488525 -2.5
-5.291835784912109 -0.8600097298622131 -2.5
-5.205488204956055 -1.2830370664596558 -2.5
-5.085361003875732 -1.6977441310882568 -2.5
-4.932265281677246 -2.101445198059082 -2.5
-4.747177600860596 -2.491513729095459 -2.5
-4.531289100646973 -2.865410089492798 -2.5
-4.286035060882568 -3.2207517623901367 -2.5
-3.713876962661743 -3.8665623664855957 -2.5
-3.3907127380371094 -4.152871131896973 -2.5
-2.29833984375 -4.843652248382568 -2.5
-1.9011328220367432 -5.012876033782959 -2.5
-0.646240234375 -5.322177410125732 -2.5
-0.21588866412639618 -5.356923580169678 -2.5
2.6806249618530273 -4.643007755279541 -2.5
4.286015510559082 -3.2207469940185547 -2.5
4.531289100646973 -2.865410089492798 -2.5
4.747158050537109 -2.491513729095459 -2.5
4.932246208190918 -2.1014404296875 -2.5
5.085351467132568 -1.69775390625 -2.5
5.343876838684082 -0.43141111731529236 -2.5
