ply
format ascii 1.0
element vertex 870
property float x
property float y
property float z
end_header
17.409753799438477 15.423715591430664 6.2322821617126465
12.371538162231445 15.152397155761719 5.241470813751221
10.763466835021973 15.593573570251465 5.0769944190979
9.013444900512695 15.611762046813965 4.830292701721191
3.226857900619507 6.800473690032959 2.0169124603271484
6.265603065490723 21.63138198852539 6.034356594085693
17.522445678710938 15.52354907989502 5.995396137237549
14.936437606811523 15.550493240356445 5.522144794464111
6.211550235748291 16.378509521484375 4.486175537109375
6.265607833862305 21.631391525268555 5.767663478851318
24.277503967285156 15.352191925048828 7.018254280090332
7.253542423248291 15.2865571975708 4.134133338928223
6.70046854019165 17.667692184448242 4.616787433624268
20.61524200439453 15.491347312927246 5.998563766479492
17.522451400756836 15.52354907989502 5.4455695152282715
14.936447143554688 15.550493240356445 5.015718936920166
12.299125671386719 15.063705444335938 4.523741245269775
10.762374877929688 15.591991424560547 4.407137393951416
6.699550628662109 17.665250778198242 4.3948798179626465
6.320119380950928 21.819576263427734 5.284296989440918
15.970698356628418 6.804467678070068 3.8359735012054443
20.61524200439453 15.491347312927246 5.698109149932861
14.93618106842041 15.550214767456055 4.764404296875
10.770858764648438 15.604267120361328 4.189689636230469
9.08517074584961 15.73598575592041 4.015069484710693
6.723146915435791 17.72747230529785 4.189454078674316
6.320119380950928 21.819557189941406 5.019612789154053
23.774364471435547 15.034013748168945 5.889467716217041
20.615230560302734 15.491347312927246 5.3991193771362305
17.522445678710938 15.52354907989502 4.901379108428955
7.253551959991455 15.2865571975708 3.542640209197998
6.784570217132568 17.889429092407227 4.005890369415283
15.83211612701416 6.745419979095459 3.4045939445495605
20.615236282348633 15.491347312927246 5.101509094238281
10.849291801452637 15.717905044555664 3.7783403396606445
9.324750900268555 16.15094757080078 3.6894798278808594
7.253551959991455 15.2865571975708 3.3473637104034424
7.000124454498291 18.457822799682617 3.905341625213623
6.284421443939209 21.696359634399414 4.4686784744262695
15.764144897460938 6.716474533081055 3.1929101943969727
17.520917892456055 15.522196769714355 4.361843585968018
15.015434265136719 15.632719039916992 4.03913688659668
12.436996459960938 15.232563018798828 3.664409637451172
10.89400863647461 15.78268051147461 3.5735559463500977
7.18615198135376 18.948341369628906 3.776270627975464
6.403984069824219 22.109100341796875 4.2891716957092285
15.149750709533691 15.772562980651855 3.8250110149383545
7.253551959991455 15.2865571975708 2.95932674407959
7.333076000213623 19.335731506347656 3.616838216781616
23.612314224243164 14.931532859802246 4.567751884460449
20.654682159423828 15.520980834960938 4.22424840927124
12.961737632751465 22.450395584106445 4.238486289978027
7.474845886230469 19.709545135498047 3.446479320526123
-21.370525360107422 1.7252050638198853 3.505452871322632
23.900131225585938 15.113544464111328 4.302267551422119
17.531841278076172 15.531865119934082 3.563533306121826
12.436996459960938 15.232563018798828 2.9918761253356934
11.0198974609375 15.965067863464355 2.9514191150665283
7.253542423248291 15.2865571975708 2.574284076690674
6.403984069824219 22.109111785888672 3.501986026763916
15.722731590270996 6.698818206787109 2.4067165851593018
23.900136947631836 15.113544464111328 3.982182502746582
21.305238723754883 16.00984764099121 3.7529594898223877
12.436996459960938 15.23256778717041 2.7692809104919434
11.044411659240723 16.000585556030273 2.7379119396209717
12.961737632751465 22.450389862060547 3.650627851486206
6.403984069824219 22.109098434448242 3.2414379119873047
15.716598510742188 6.696200847625732 2.213003396987915
23.90012550354004 15.113544464111328 3.663080930709839
17.577709197998047 15.572519302368164 3.0420494079589844
12.436996459960938 15.23256778717041 2.5473854541778564
11.045339584350586 16.001928329467773 2.5187366008758545
7.253547191619873 15.2865571975708 2.1918296813964844
7.719228267669678 20.35391616821289 2.8198790550231934
-21.03091049194336 3.4178709983825684 2.760073184967041
15.710490226745605 6.69359827041626 2.019998073577881
12.436996459960938 15.23256778717041 2.3261282444000244
10.774003982543945 15.608827590942383 2.2434606552124023
12.961737632751465 22.450389862060547 3.066415309906006
15.704399108886719 6.691005706787109 1.827644944190979
21.393463134765625 16.076141357421875 2.865114688873291
17.598142623901367 15.590615272521973 2.5171961784362793
7.253547191619873 15.2865571975708 1.8115661144256592
6.543466567993164 17.253700256347656 1.975657343864441
15.69832992553711 6.688422679901123 1.6358975172042847
21.35342788696289 16.046058654785156 2.560713529586792
17.326332092285156 15.349809646606445 2.219165086746216
12.436996459960938 15.232563018798828 1.8852699995040894
10.900160789489746 15.791596412658691 1.839566946029663
12.961737632751465 22.450397491455078 2.4852511882781982
7.253547191619873 15.2865571975708 1.6221309900283813
6.626298904418945 17.47209930419922 1.7914587259292603
15.692275047302246 6.685844421386719 1.4447057247161865
12.436996459960938 15.232563018798828 1.665562391281128
12.961732864379883 22.450387954711914 2.1956305503845215
6.403984069824219 22.109100341796875 1.949514389038086
15.686240196228027 6.683266639709473 1.2540191411972046
23.900131225585938 15.113544464111328 2.0797150135040283
17.451723098754883 15.460898399353027 1.7147631645202637
10.90093994140625 15.792729377746582 1.411332368850708
6.403979301452637 22.109094619750977 1.6929010152816772
23.9001407623291 15.113544464111328 1.764892578125
10.901325225830078 15.793285369873047 1.1977416276931763
7.253547191619873 15.2865571975708 1.0560559034347534
15.674208641052246 6.678144454956055 0.8739684820175171
17.4499454498291 15.459321022033691 1.195872187614441
7.253547191619873 15.2865571975708 0.8679479956626892
23.900136947631836 15.113544464111328 1.1365182399749756
17.44905662536621 15.458535194396973 0.9369399547576904
12.436996459960938 15.23256778717041 0.7903695702552795
3.8860766887664795 6.730883598327637 0.3123767077922821
23.900131225585938 15.113544464111328 0.8227782845497131
12.436996459960938 15.23256778717041 0.5721899271011353
10.902484893798828 15.794975280761719 0.5584381222724915
3.8860766887664795 6.730883598327637 0.22614532709121704
7.253547191619873 15.2865571975708 0.4923260509967804
6.403979301452637 22.10910415649414 0.6697543263435364
23.900131225585938 15.113544464111328 0.5092498660087585
17.447282791137695 15.4569673538208 0.4197833240032196
10.902873039245605 15.795536994934082 0.345651239156723
3.8860766887664795 6.730883598327637 0.13997039198875427
6.403979301452637 22.109100341796875 0.4145523011684418
15.6502685546875 6.667939186096191 0.11782073974609375
23.900131225585938 15.113544464111328 0.19583648443222046
17.446401596069336 15.456181526184082 0.1614309698343277
12.436996459960938 15.232563018798828 0.13619811832904816
10.903298377990723 15.796147346496582 0.1329345703125
7.253551959991455 15.2865571975708 0.11718841642141342
6.621376991271973 17.45912742614746 0.129322811961174
15.644301414489746 6.66540002822876 -0.07066711038351059
23.900131225585938 15.113544464111328 -0.11752593517303467
3.8860766887664795 6.730883598327637 -0.03229843080043793
7.253547191619873 15.2865571975708 -0.07031448185443878
23.900136947631836 15.113544464111328 -0.4309205412864685
17.44461441040039 15.454594612121582 -0.35514938831329346
12.436996459960938 15.23256778717041 -0.2996574342250824
10.904142379760742 15.797368049621582 -0.29249998927116394
7.253547191619873 15.2865571975708 -0.2578321695327759
6.62014627456665 17.455888748168945 -0.2844882011413574
15.632380485534668 6.660317420959473 -0.44730833172798157
23.900136947631836 15.113544464111328 -0.7444097995758057
12.436996459960938 15.232563018798828 -0.5176675319671631
3.8860790729522705 6.730883598327637 -0.20459747314453125
7.253547191619873 15.2865571975708 -0.44541364908218384
6.619538307189941 17.45427703857422 -0.4914093017578125
6.403979301452637 22.109094619750977 -0.605912446975708
15.626420974731445 6.657783031463623 -0.635556161403656
23.90012550354004 15.113544464111328 -1.0581083297729492
17.44282341003418 15.453007698059082 -0.8719598054885864
12.436991691589355 15.23256778717041 -0.7358096241950989
10.904980659484863 15.798583984375 -0.7182897925376892
7.253547191619873 15.2865571975708 -0.6331079006195068
23.900131225585938 15.113544464111328 -1.372023582458496
12.436991691589355 15.232563018798828 -0.9541307091712952
10.905402183532715 15.7991943359375 -0.9314483404159546
12.961732864379883 22.450395584106445 -1.2578388452529907
7.253547191619873 15.2865571975708 -0.8209567070007324
6.618308067321777 17.451040267944336 -0.9055644273757935
-3.4131712913513184 28.109893798828125 -1.373891830444336
28.55064582824707 4.639945983886719 -1.7249090671539307
15.61449909210205 6.65270471572876 -1.0121363401412964
23.900136947631836 15.113544464111328 -1.6863138675689697
17.4410400390625 15.451420783996582 -1.3895214796066284
12.436996459960938 15.23256778717041 -1.1726861000061035
10.905817985534668 15.7998046875 -1.1448527574539185
6.403979301452637 22.10910415649414 -1.3726354837417603
23.900131225585938 15.113544464111328 -2.000990867614746
12.436996459960938 15.23256778717041 -1.391530990600586
10.906245231628418 15.8004150390625 -1.3585561513900757
-3.23687744140625 26.657995223999023 -1.900228500366211
-5.479978084564209 18.91904067993164 -1.3937784433364868
28.290170669555664 4.597617149353027 -2.347599983215332
27.828481674194336 6.859116077423096 -2.347599983215332
27.186307907104492 9.076123237609863 -2.347599983215332
15.60256290435791 6.647622108459473 -1.3891385793685913
25.37834930419922 13.319589614868164 -2.347599983215332
22.913095474243164 17.21806526184082 -2.347599983215332
12.43700122833252 15.23256778717041 -1.6107211112976074
10.906669616699219 15.801034927368164 -1.5726133584976196
1.1540673971176147 28.63808822631836 -2.347599983215332
-18.126710891723633 22.201215744018555 -2.347599983215332
-22.913087844848633 17.21807289123535 -2.347599983215332
-26.36783790588379 11.23427677154541 -2.347599983215332
-27.18631935119629 9.076117515563965 -2.347599983215332
-27.828561782836914 6.859101295471191 -2.347599983215332
-28.29021644592285 4.597587585449219 -2.347599983215332
26.773056030273438 2.1613476276397705 -2.5
15.596586227416992 6.645068168640137 -1.5779125690460205
22.333646774291992 11.721596717834473 -2.347599983215332
21.318021774291992 13.480717658996582 -2.347599983215332
20.164152145385742 15.152372360229492 -2.347599983215332
12.436996459960938 15.23256778717041 -1.8303078413009644
10.844850540161133 15.711469650268555 -1.7768762111663818
12.611373901367188 21.843551635742188 -2.347599983215332
7.253547191619873 15.2865571975708 -1.574840784072876
6.561147212982178 17.300321578979492 -1.7221328020095825
6.403979301452637 22.109106063842773 -2.14237117767334
3.0402612686157227 25.03885841369629 -2.347599983215332
1.0156152248382568 25.202301025390625 -2.347599983215332
-3.2376391887664795 26.66431427001953 -2.5
-13.430085182189941 23.261571884155273 -2.5
-15.258322715759277 22.10546112060547 -2.5
-18.042707443237305 18.784454345703125 -2.424224853515625
-18.87950325012207 16.725788116455078 -2.347599983215332
-21.318035125732422 13.480697631835938 -2.347599983215332
-22.333654403686523 11.721586227416992 -2.347599983215332
-23.204425811767578 9.886465072631836 -2.347599983215332
-24.489831924438477 6.036205768585205 -2.347599983215332
-26.77305793762207 2.161332845687866 -2.5
23.977567672729492 0.0 -2.5
23.89981460571289 1.9293993711471558 -2.5
23.65200424194336 3.8438377380371094 -2.4984092712402344
21.86161994934082 5.388422966003418 -2.347599983215332
16.59325408935547 5.539648532867432 -1.8239474296569824
14.72851276397705 7.730136394500732 -1.7343106269836426
19.030202865600586 12.033988952636719 -2.347599983215332
18.000173568725586 13.526249885559082 -2.347599983215332
15.597307205200195 16.238525390625 -2.347599983215332
7.253547191619873 15.2865571975708 -1.764168381690979
6.264316082000732 21.626928329467773 -2.347599983215332
0.9083813428878784 22.54140853881836 -2.352168083190918
-4.340929985046387 21.263225555419922 -2.262716293334961
-5.143312931060791 17.75674819946289 -1.9274930953979492
-8.502555847167969 22.419435501098633 -2.5
-10.278996467590332 21.662546157836914 -2.5
-11.988791465759277 20.765180587768555 -2.5
-13.62082290649414 19.73314094543457 -2.5
-15.164494514465332 18.573148727416992 -2.5
-16.609846115112305 17.29268455505371 -2.5
-17.908571243286133 15.865610122680664 -2.494581460952759
-19.030216217041016 12.033979415893555 -2.347599983215332
-19.936847686767578 10.463642120361328 -2.347599983215332
-20.714157104492188 8.825469017028809 -2.347599983215332
-21.357154846191406 7.130063533782959 -2.347599983215332
-21.86164665222168 5.388422966003418 -2.347599983215332
-23.667062759399414 3.8462791442871094 -2.5
21.648893356323242 4.882812390860636e-06 -2.5
21.578693389892578 1.7420214414596558 -2.5
16.5932559967041 5.539648532867432 -2.0201423168182373
14.753371238708496 7.7431640625 -1.9241039752960205
17.182010650634766 10.865262985229492 -2.347599983215332
16.25200843811035 12.212597846984863 -2.347599983215332
15.216596603393555 13.480751991271973 -2.347599983215332
14.082511901855469 14.66146469116211 -2.347599983215332
12.43700122833252 15.232563018798828 -2.270894765853882
7.253556728363037 15.2865571975708 -1.953932285308838
6.559916973114014 17.297067642211914 -2.1362767219543457
5.655934810638428 19.526540756225586 -2.347599983215332
-2.609494686126709 21.491044998168945 -2.5
-5.146643161773682 17.768230438232422 -2.136204719543457
-13.691730499267578 16.769346237182617 -2.5
-17.307058334350586 13.005410194396973 -2.5
-18.41747283935547 9.666220664978027 -2.401968002319336
-19.08177375793457 8.129975318908691 -2.395217180252075
-20.091407775878906 6.707494735717773 -2.446024179458618
-21.019811630249023 5.180927753448486 -2.5
-21.578699111938477 1.7419921159744263 -2.5
19.472511291503906 3.164604425430298 -2.5
17.987051010131836 4.433422565460205 -2.347599983215332
16.324281692504883 5.449848651885986 -2.180908679962158
14.828920364379883 6.318007469177246 -2.0426251888275146
15.657448768615723 9.901185989379883 -2.347599983215332
13.86642837524414 12.284599304199219 -2.347599983215332
11.71627426147461 14.349848747253418 -2.347599983215332
9.262673377990723 16.043437957763672 -2.347599983215332
7.253551959991455 15.2865571975708 -2.14418625831604
6.559298992156982 17.29542350769043 -2.3440639972686768
5.154077053070068 17.793949127197266 -2.347599983215332
-0.7943676710128784 19.71198272705078 -2.5
-2.3779563903808594 19.584144592285156 -2.5
-3.946110725402832 19.329288482666016 -2.5
-6.995636940002441 18.44598388671875 -2.5
-8.45723819732666 17.823253631591797 -2.5
-9.863996505737305 17.084936141967773 -2.5
-11.20678424835205 16.23580551147461 -2.5
-13.666047096252441 14.22787094116211 -2.5
-15.771393775939941 11.8514404296875 -2.5
-16.673898696899414 10.543935775756836 -2.5
-17.46826934814453 9.168042182922363 -2.5
-18.149343490600586 7.732699871063232 -2.5
-19.15471839904785 4.721215724945068 -2.5
-19.664005279541016 1.587441325187683 -2.5
18.11605453491211 4.882812390860636e-06 -2.5
17.0862979888916 4.211396217346191 -2.4284615516662598
16.136215209960938 5.387060642242432 -2.347599983215332
14.6577730178833 7.692997932434082 -2.2844276428222656
14.378114700317383 9.092177391052246 -2.347599983215332
13.59988021850586 10.219648361206055 -2.347599983215332
12.73343276977539 11.280854225158691 -2.347599983215332
9.663747787475586 14.000350952148438 -2.347599983215332
8.505846977233887 14.732563018798828 -2.347599983215332
7.253551959991455 15.2865571975708 -2.3349716663360596
6.032423973083496 15.906220436096191 -2.347599983215332
4.732949256896973 16.340044021606445 -2.347599983215332
2.050529718399048 16.88766860961914 -2.347599983215332
0.72791987657547 18.06326675415039 -2.4947385787963867
-0.7294677495956421 18.101362228393555 -2.5
-2.183649778366089 17.98396873474121 -2.5
-6.424035549163818 16.938812255859375 -2.5
-9.058029174804688 15.688960075378418 -2.5
-12.549421310424805 13.06534194946289 -2.5
-14.48275089263916 10.88308048248291 -2.5
-16.66640281677246 7.100878715515137 -2.5
-18.05731201171875 1.457729458808899 -2.5
16.229631423950195 4.000248908996582 -2.495758056640625
14.913890838623047 4.978989124298096 -2.347599983215332
11.212475776672363 4.777182579040527 -1.8197451829910278
13.922077178955078 7.306869983673096 -2.347599983215332
12.569686889648438 9.445508003234863 -2.347599983215332
10.891742706298828 11.33951187133789 -2.347599983215332
8.931714057922363 12.9398193359375 -2.347599983215332
6.740331649780273 14.205004692077637 -2.347599983215332
5.575473308563232 14.701308250427246 -2.347599983215332
4.374433517456055 15.102279663085938 -2.347599983215332
-0.6742041110992432 16.730180740356445 -2.5
-7.177931785583496 15.127153396606445 -2.5
-9.511554718017578 13.779838562011719 -2.5
-13.385676383972168 10.058686256408691 -2.5
-15.882062911987305 5.302202224731445 -2.5
-16.526926040649414 2.6858935356140137 -2.5
-16.689464569091797 1.3473047018051147 -2.5
15.561091423034668 4.882812390860636e-06 -2.5
15.10891056060791 3.7240233421325684 -2.5
11.146891593933105 4.749243259429932 -1.9465950727462769
12.350324630737305 7.809877872467041 -2.347599983215332
11.681845664978027 8.778339385986328 -2.347599983215332
6.264247894287109 13.20166015625 -2.347599983215332
5.181664943695068 13.662909507751465 -2.347599983215332
4.065446853637695 14.03555679321289 -2.347599983215332
2.9228782653808594 14.31717300415039 -2.347599983215332
1.7613378763198853 14.505942344665527 -2.347599983215332
0.6256664991378784 15.5257568359375 -2.4963483810424805
-5.518029689788818 14.549877166748047 -2.5
-7.780544281005859 13.476298332214355 -2.5
-9.841540336608887 12.05370044708252 -2.5
-12.440197944641113 9.348207473754883 -2.5
-13.778664588928223 7.231586933135986 -2.5
-15.10891342163086 3.724008798599243 -2.5
-15.359567642211914 2.4961864948272705 -2.5
-15.510622024536133 1.2521435022354126 -2.5
14.483935356140137 1.1692724227905273 -2.5
14.342878341674805 2.330947160720825 -2.5
12.943007469177246 4.321010589599609 -2.347599983215332
11.532816886901855 7.292919635772705 -2.347599983215332
10.908588409423828 8.197270393371582 -2.347599983215332
10.213603019714355 9.048446655273438 -2.347599983215332
9.452387809753418 9.840986251831055 -2.347599983215332
8.629865646362305 10.569677352905273 -2.347599983215332
6.822614669799805 11.81712818145752 -2.347599983215332
3.796318292617798 13.106498718261719 -2.347599983215332
1.6447484493255615 13.545746803283691 -2.347599983215332
-0.5851122736930847 14.519271850585938 -2.5
-2.9065747261047363 14.23739242553711 -2.5
-4.042805194854736 13.9573335647583 -2.5
-5.152780532836914 13.58678150177002 -2.5
-6.229362487792969 13.12808609008789 -2.5
-7.265534400939941 12.58426284790039 -2.5
-11.61674976348877 8.729413986206055 -2.5
-12.281506538391113 7.766357421875 -2.5
-12.866618156433105 6.752910137176514 -2.5
-13.368268966674805 5.69567346572876 -2.5
-14.108805656433105 3.4775097370147705 -2.5
-14.483932495117188 1.1692577600479126 -2.5
13.449220657348633 2.185717821121216 -2.5
13.229731559753418 3.2608447074890137 -2.5
12.608844757080078 4.209462642669678 -2.4389536380767822
11.329455375671387 5.94616174697876 -2.347599983215332
10.228910446166992 7.686532974243164 -2.347599983215332
9.577223777770996 8.484697341918945 -2.347599983215332
8.863444328308105 9.227827072143555 -2.347599983215332
8.092167854309082 9.911123275756836 -2.347599983215332
7.268417835235596 10.530112266540527 -2.347599983215332
6.39752197265625 11.080839157104492 -2.347599983215332
4.537182331085205 11.963583946228027 -2.347599983215332
2.559338331222534 12.53646469116211 -2.347599983215332
-0.5486499071121216 13.614619255065918 -2.5
-1.6423999071121216 13.526323318481445 -2.5
-2.7254955768585205 13.350302696228027 -2.5
-3.790905714035034 13.087699890136719 -2.5
-10.198962211608887 9.035492897033691 -2.5
-10.89294147491455 8.185517311096191 -2.5
-12.06493854522705 6.332162857055664 -2.5
-12.535334587097168 5.340805530548096 -2.5
-12.924440383911133 4.3148193359375 -2.5
12.657384872436523 2.0570361614227295 -2.5
12.450819969177246 3.068862199783325 -2.5
10.662424087524414 5.596074104309082 -2.347599983215332
10.177543640136719 6.435903072357178 -2.347599983215332
9.013359069824219 7.985146522521973 -2.347599983215332
8.341598510742188 8.684531211853027 -2.347599983215332
7.615732192993164 9.327588081359863 -2.347599983215332
6.840485572814941 9.910146713256836 -2.347599983215332
6.020864009857178 10.428442001342773 -2.347599983215332
4.270056247711182 11.2592134475708 -2.347599983215332
3.350212335586548 11.566293716430664 -2.347599983215332
2.4086499214172363 11.798368453979492 -2.347599983215332
0.5159472823143005 12.80318832397461 -2.498075485229492
-0.5163476467132568 12.813051223754883 -2.5
-1.5457030534744263 12.72994613647461 -2.5
-2.5650267601013184 12.564291954040527 -2.5
-4.547248363494873 11.99013614654541 -2.5
-7.284557819366455 10.55349063873291 -2.5
-8.88311767578125 9.248300552368164 -2.5
-9.598517417907715 8.50350570678711 -2.5
-10.83825397491455 6.853696346282959 -2.5
-11.354597091674805 5.9593505859375 -2.5
-12.163508415222168 4.060776233673096 -2.5
-12.450818061828613 3.068852424621582 -2.5
-12.657384872436523 2.0570361614227295 -2.5
-12.781862258911133 1.0318554639816284 -2.5
12.107514381408691 4.882812390860636e-06 -2.5
11.950722694396973 1.9421923160552979 -2.5
11.755685806274414 2.89751935005188 -2.5
11.478036880493164 3.8319385051727295 -2.4986109733581543
10.067133903503418 5.283613204956055 -2.347599983215332
9.609333038330078 6.076601505279541 -2.347599983215332
9.089213371276855 6.83010721206665 -2.347599983215332
8.510141372680664 7.539340496063232 -2.347599983215332
7.87588357925415 8.199667930603027 -2.347599983215332
6.458588600158691 9.3568696975708 -2.347599983215332
5.684714317321777 9.846220016479492 -2.347599983215332
4.031647682189941 10.630599975585938 -2.347599983215332
3.1631786823272705 10.920551300048828 -2.347599983215332
2.274174690246582 11.139662742614746 -2.347599983215332
1.3704125881195068 11.286538124084473 -2.347599983215332
0.4872778356075287 12.09183120727539 -2.498788595199585
-0.4875195324420929 12.09769058227539 -2.5
-2.421823740005493 11.86282730102539 -2.5
-3.36852765083313 11.629477500915527 -2.5
-6.053757190704346 10.4854097366333 -2.5
-6.87786340713501 9.964282035827637 -2.5
-7.657336235046387 9.378544807434082 -2.5
-8.387165069580078 8.731972694396973 -2.5
-9.062604904174805 8.028764724731445 -2.5
-9.67926025390625 7.273490905761719 -2.5
-10.720670700073242 5.626635551452637 -2.5
-11.138664245605469 4.745741844177246 -2.5
-11.950719833374023 1.9421874284744263 -2.5
-12.068249702453613 0.9742480516433716 -2.5
11.464516639709473 4.882812390860636e-06 -2.5
10.87451171875 3.630449056625366 -2.5
9.099005699157715 5.753871917724609 -2.347599983215332
8.606511116027832 6.467368125915527 -2.347599983215332
7.457622051239014 7.764204025268555 -2.347599983215332
6.808676719665527 8.339125633239746 -2.347599983215332
2.1534056663513184 10.548070907592773 -2.347599983215332
-0.46163085103034973 11.455219268798828 -2.5
-1.38189697265625 11.380932807922363 -2.5
-3.189640998840332 11.011869430541992 -2.5
-4.06536865234375 10.719511032104492 -2.5
-4.914753437042236 10.357622146606445 -2.5
-7.250680923461914 8.880468368530273 -2.5
-8.581311225891113 7.602377891540527 -2.5
-9.68969440460205 6.127392292022705 -2.5
-10.151320457458496 5.327817440032959 -2.5
-10.547121047973633 4.493705749511719 -2.5
-11.13137435913086 2.743642568588257 -2.5
-11.316052436828613 1.8390477895736694 -2.5
-11.42734146118164 0.9225097298622131 -2.5
10.84841251373291 0.875781238079071 -2.5
9.869030952453613 4.204799652099609 -2.464108467102051
8.170485496520996 6.139716625213623 -2.347599983215332
7.649946212768555 6.777270317077637 -2.347599983215332
5.8057541847229 8.411084175109863 -2.347599983215332
4.381325721740723 9.233471870422363 -2.347599983215332
3.624138116836548 9.556074142456055 -2.347599983215332
2.0443115234375 10.013681411743164 -2.347599983215332
-3.0280444622039795 10.453989028930664 -2.5
-3.8594114780426025 10.176435470581055 -2.5
-4.665759086608887 9.8328857421875 -2.5
-6.182658672332764 8.957104682922363 -2.5
-6.883347034454346 8.43057632446289 -2.5
-8.146574974060059 7.217226505279541 -2.5
-8.700896263122559 6.538300514221191 -2.5
-9.637038230895996 5.057900428771973 -2.5
-10.012784957885742 4.266049861907959 -2.5
-10.323586463928223 3.4465184211730957 -2.5
-10.567448616027832 2.6046385765075684 -2.5
-10.74276065826416 1.74587881565094 -2.5
10.356354713439941 0.0 -2.5
10.222243309020996 1.6603808403015137 -2.5
9.508185386657715 4.051059246063232 -2.49489688873291
8.611085891723633 4.519448280334473 -2.347599983215332
8.219496726989746 5.197690486907959 -2.347599983215332
7.774604320526123 5.842241287231445 -2.347599983215332
7.279286861419678 6.448896408081055 -2.347599983215332
3.8358569145202637 6.643901348114014 -1.8519343137741089
2.705683469772339 9.341069221496582 -2.347599983215332
-0.41700926423072815 10.347953796386719 -2.5
-3.6724095344543457 9.683359146118164 -2.5
-5.883088111877441 8.523110389709473 -2.5
-7.174098968505859 7.469033241271973 -2.5
-9.170100212097168 4.812836647033691 -2.5
-10.322775840759277 0.8333398103713989 -2.5
9.87530517578125 0.0 -2.5
9.747414588928223 1.5841113328933716 -2.5
9.58834457397461 2.3633203506469727 -2.5
9.367084503173828 3.127192258834839 -2.5
9.077951431274414 3.867753744125366 -2.4980390071868896
6.941162109375 6.149335861206055 -2.347599983215332
6.423840045928955 6.687924861907959 -2.347599983215332
5.267839431762695 7.631777286529541 -2.347599983215332
3.9753880500793457 8.377973556518555 -2.347599983215332
2.5799999237060547 8.907177925109863 -2.347599983215332
1.8549047708511353 9.085888862609863 -2.347599983215332
0.3976367115974426 9.867294311523438 -2.5
-1.1903369426727295 9.803296089172363 -2.5
-4.233469009399414 8.92184066772461 -2.5
-4.937648773193359 8.552265167236328 -2.5
-7.391759872436523 6.548540115356445 -2.5
-9.588336944580078 2.3633203506469727 -2.5
-9.747419357299805 1.5841162204742432 -2.5
-9.843274116516113 0.794628918170929 -2.5
9.434601783752441 0.0 -2.5
9.404008865356445 0.7591796517372131 -2.5
9.160444259643555 2.2578516006469727 -2.5
8.94905948638916 2.9876415729522705 -2.5
8.679640769958496 3.69805645942688 -2.5
7.487926959991455 4.735083103179932 -2.347599983215332
6.631398677825928 5.87490701675415 -2.347599983215332
5.032746315002441 7.291191101074219 -2.347599983215332
3.797978401184082 8.004091262817383 -2.347599983215332
2.4648633003234863 8.50967788696289 -2.347599983215332
1.7784154415130615 8.711244583129883 -2.355936050415039
0.379890114068985 9.426947593688965 -2.5
-0.37989500164985657 9.426947593688965 -2.5
-1.1372265815734863 9.365805625915527 -2.5
-5.359475135803223 7.764516353607178 -2.5
-5.966867446899414 7.308090686798096 -2.5
-8.353922843933105 4.384472370147705 -2.5
-8.679636001586914 3.698051691055298 -2.5
-8.949065208435059 2.9876365661621094 -2.5
-9.160446166992188 2.2578465938568115 -2.5
-9.312418937683105 1.5134228467941284 -2.5
-9.404010772705078 0.75916987657547 -2.5
9.029276847839355 4.882812390860636e-06 -2.5
8.91235065460205 1.448403239250183 -2.5
8.564594268798828 2.8592822551727295 -2.5
8.306750297546387 3.539179563522339 -2.5
6.778356552124023 5.093598365783691 -2.347599983215332
5.362407207489014 6.567758560180664 -2.347599983215332
4.816540241241455 6.977958679199219 -2.347599983215332
3.00665020942688 7.927870750427246 -2.347599983215332
2.358959913253784 8.144086837768555 -2.347599983215332
1.7726317644119263 8.682914733886719 -2.453687906265259
1.088356852531433 8.9634370803833 -2.5
0.36356931924819946 9.021957397460938 -2.5
-0.36357176303863525 9.021947860717773 -2.5
-1.0883593559265137 8.963441848754883 -2.5
-1.80609130859375 8.846796989440918 -2.5
-2.512101888656616 8.672782897949219 -2.5
-3.201833486557007 8.442519187927246 -2.5
-3.870778799057007 8.157509803771973 -2.5
-4.514646053314209 7.819580078125 -2.5
-6.758508205413818 5.987519264221191 -2.5
-7.631452560424805 4.825839519500732 -2.5
-8.56460189819336 2.8592772483825684 -2.5
-8.766901969909668 2.1608495712280273 -2.5
-8.99999713897705 0.7265478372573853 -2.5
8.6551513671875 0.0 -2.5
8.627087593078613 0.6964550614356995 -2.5
8.543073654174805 1.3883984088897705 -2.5
8.403647422790527 2.0713183879852295 -2.5
8.209726333618164 2.7408154010772705 -2.5
7.962563514709473 3.392529249191284 -2.5
6.083544731140137 5.389550685882568 -2.347599983215332
5.630146503448486 5.86160135269165 -2.347599983215332
5.140222072601318 6.295634746551514 -2.347599983215332
2.8820629119873047 7.599370002746582 -2.347599983215332
2.2759790420532227 7.857583045959473 -2.362919330596924
1.0432641506195068 8.592041015625 -2.5
0.3485058546066284 8.6481294631958 -2.5
-1.7312573194503784 8.480238914489746 -2.5
-4.327570915222168 7.495585918426514 -2.5
-4.916696548461914 7.123036861419678 -2.5
-5.473908424377441 6.704330921173096 -2.5
-5.995632171630859 6.242118835449219 -2.5
-6.478474140167236 5.739433288574219 -2.5
-6.919299125671387 5.199521541595459 -2.5
-8.40364933013916 2.0713133811950684 -2.5
-8.543073654174805 1.3883886337280273 -2.5
-8.627081871032715 0.6964452862739563 -2.5
8.281740188598633 0.6685791015625 -2.5
8.201086044311523 1.3328124284744263 -2.5
8.067238807678223 1.9884033203125 -2.5
7.643815517425537 3.256723642349243 -2.5
7.00347375869751 4.428730487823486 -2.493257999420166
4.432136058807373 6.421054363250732 -2.347599983215332
3.344736337661743 7.048881530761719 -2.347599983215332
2.7666943073272705 7.295166015625 -2.347599983215332
2.269660711288452 7.835766315460205 -2.4546170234680176
1.6608251333236694 8.135233879089355 -2.4983034133911133
0.33455565571784973 8.301942825317383 -2.5
-1.661953091621399 8.140761375427246 -2.5
-2.3116235733032227 7.980629920959473 -2.5
-2.946296215057373 7.768744945526123 -2.5
-3.5618724822998047 7.506474494934082 -2.5
-4.154338359832764 7.195527076721191 -2.5
-5.755617618560791 5.992240905761719 -2.5
-7.022409439086914 4.440707683563232 -2.5
-7.356969833374023 3.8612303733825684 -2.5
-7.881076335906982 2.631093740463257 -2.5
-8.201081275939941 1.3328124284744263 -2.5
-8.281730651855469 0.6685693264007568 -2.5
7.986814022064209 0.0 -2.5
7.960917949676514 0.6426806449890137 -2.5
7.883388519287109 1.2811815738677979 -2.5
7.575780868530273 2.529165029525757 -2.5
7.071969985961914 3.7116551399230957 -2.5
6.279233455657959 4.71853494644165 -2.458587646484375
5.644660472869873 5.000737190246582 -2.3605141639709473
5.195390701293945 5.408974647521973 -2.347599983215332
3.7499682903289795 6.495136737823486 -2.347599983215332
3.215161085128784 6.775815486907959 -2.347599983215332
2.7377660274505615 7.218911170959473 -2.4166789054870605
2.2173728942871094 7.655253887176514 -2.4947140216827393
1.597570776939392 7.825400352478027 -2.5
0.9627026319503784 7.928578853607178 -2.5
-0.9627050757408142 7.928578853607178 -2.5
-1.5975658893585205 7.825400352478027 -2.5
-2.2220726013183594 7.671469688415527 -2.5
-2.832160472869873 7.467792987823486 -2.5
-4.537028789520264 6.573017597198486 -2.5
-5.53265380859375 5.760112285614014 -2.5
-5.97821044921875 5.296235084533691 -2.5
-6.385002136230469 4.798012733459473 -2.5
-7.071974754333496 3.7116503715515137 -2.5
-7.347702503204346 3.130561351776123 -2.5
-7.575778484344482 2.529169797897339 -2.5
-7.960915565490723 0.6426708698272705 -2.5
7.686964988708496 4.882812390860636e-06 -2.5
7.662035942077637 0.6185497641563416 -2.5
7.4635910987854 1.8396142721176147 -2.5
7.291362285614014 2.434213876724243 -2.5
6.132702350616455 4.60842752456665 -2.4948811531066895
5.074572563171387 5.283193111419678 -2.3824524879455566
4.571389198303223 5.598935604095459 -2.3507723808288574
4.100500583648682 5.940600395202637 -2.347599983215332
3.640031576156616 6.304721355438232 -2.367666721343994
3.189872980117798 6.722524166107178 -2.4199888706207275
2.137468099594116 7.37939453125 -2.498619318008423
-0.926562488079071 7.630912780761719 -2.5
-3.29534912109375 6.944785118103027 -2.5
-3.8434836864471436 6.6571044921875 -2.5
-5.753771781921387 5.097397327423096 -2.5
-7.071843147277832 3.0130321979522705 -2.5
-7.291364669799805 2.434213876724243 -2.5
-7.463595867156982 1.8396142721176147 -2.5
7.025688171386719 2.345517635345459 -2.5
6.814174652099609 2.903247117996216 -2.5
5.918285846710205 4.447304725646973 -2.4986963272094727
4.55935525894165 5.584198951721191 -2.4332449436187744
4.086054801940918 5.919662952423096 -2.427790403366089
3.6320483684539795 6.2908935546875 -2.451810359954834
3.166372060775757 6.673007488250732 -2.49299955368042
2.060722589492798 7.114433288574219 -2.5
1.4815648794174194 7.257182598114014 -2.5
0.8928002715110779 7.352866172790527 -2.5
0.2982446253299713 7.400864124298096 -2.5
-1.4815673828125 7.257187366485596 -2.5
-2.060724973678589 7.114433288574219 -2.5
-2.6265063285827637 6.925541877746582 -2.5
-3.703434944152832 6.414535999298096 -2.5
-4.207585334777832 6.095727443695068 -2.5
-5.921369552612305 4.449618816375732 -2.5
-6.260212421417236 3.9587254524230957 -2.5
-7.02569055557251 2.345517635345459 -2.5
-7.191642761230469 1.7725878953933716 -2.5
-7.382853984832764 0.5960009694099426 -2.5
7.14459228515625 -4.882812390860636e-06 -2.5
7.121420860290527 0.5749072432518005 -2.5
6.776901721954346 2.262460947036743 -2.5
6.572873592376709 2.8004393577575684 -2.5
5.711689472198486 4.292055606842041 -2.5
5.343974590301514 4.734355449676514 -2.4982128143310547
4.939772605895996 5.142846584320068 -2.4952235221862793
4.506972789764404 5.520043849945068 -2.49358868598938
4.047739028930664 5.864160060882568 -2.4933176040649414
3.059072256088257 6.446860313415527 -2.4969334602355957
1.9877489805221558 6.862509727478027 -2.5
0.2876830995082855 7.138798713684082 -2.5
-0.8611840605735779 7.092494964599609 -2.5
-2.533503293991089 6.680307388305664 -2.5
-3.5722973346710205 6.187392234802246 -2.5
-4.518557071685791 5.534233093261719 -2.5
-4.949225902557373 5.152695178985596 -2.5
-5.347795486450195 4.737739086151123 -2.5
-6.326218128204346 3.320253849029541 -2.5
-6.9369797706604 1.709814429283142 -2.5
-7.121418476104736 0.5748974680900574 -2.5
6.876042366027832 0.5550878643989563 -2.5
6.80907678604126 1.1065869331359863 -2.5
5.163532733917236 4.57449197769165 -2.5
4.776928424835205 4.973310470581055 -2.4990761280059814
3.446965217590332 5.970317363739014 -2.4983773231506348
2.957292318344116 6.232372760772705 -2.5
2.4462108612060547 6.450121879577637 -2.5
1.9192553758621216 6.626044750213623 -2.5
1.379860758781433 6.758998870849609 -2.5
0.8315111994743347 6.848110198974609 -2.5
-0.2777758836746216 6.892812252044678 -2.5
-0.8315160870552063 6.848105430603027 -2.5
-1.3798632621765137 6.758994102478027 -2.5
-2.4462034702301025 6.450126647949219 -2.5
-2.9572973251342773 6.232372760772705 -2.5
-4.778693675994873 4.975146293640137 -2.5
-5.163532733917236 4.574487209320068 -2.5
-6.346394062042236 2.7039501667022705 -2.5
-6.697956562042236 1.6508935689926147 -2.5
-6.876042366027832 0.5550878643989563 -2.5
6.666840553283691 -4.882812390860636e-06 -2.5
6.473114967346191 1.595483422279358 -2.5
6.323742389678955 2.1111767292022705 -2.5
6.133354187011719 2.613173723220825 -2.5
5.634748458862305 3.5632030963897705 -2.5
5.329758167266846 4.005043983459473 -2.5
4.990200042724609 4.420937538146973 -2.5
4.216408729553223 5.164165019989014 -2.5
3.7871997356414795 5.486703872680664 -2.5
2.858020067214966 6.023163795471191 -2.5
2.3640942573547363 6.233608245849609 -2.5
1.8548388481140137 6.403623104095459 -2.5
1.3335399627685547 6.5321044921875 -2.5
0.26844725012779236 6.661435604095459 -2.5
-1.3335424661636353 6.532109260559082 -2.5
-2.364089250564575 6.233603477478027 -2.5
-2.858020067214966 6.023159027099609 -2.5
-3.333425283432007 5.773652076721191 -2.5
-4.216408729553223 5.164165019989014 -2.5
-4.618278503417969 4.808139324188232 -2.5
-4.990192890167236 4.420937538146973 -2.5
-5.329758167266846 4.005048751831055 -2.5
-5.634748458862305 3.5631980895996094 -2.5
-6.323742389678955 2.1111717224121094 -2.5
-6.4731125831604 1.5954785346984863 -2.5
6.448561668395996 0.0 -2.5
6.427653789520264 0.5188915729522705 -2.5
6.365056037902832 1.034423828125 -2.5
6.261176586151123 1.54324209690094 -2.5
5.932543754577637 2.5276172161102295 -2.5
5.155258655548096 3.8739256858825684 -2.5
4.467074871063232 4.650717735290527 -2.5
1.7941014766693115 6.193959712982178 -2.5
-0.777294933795929 6.401542663574219 -2.5
-1.289880394935608 6.318242073059082 -2.5
-3.663200616836548 5.307065486907959 -2.5
-4.826818943023682 4.276181697845459 -2.5
6.242419242858887 0.0 -2.5
6.161581993103027 1.0013476610183716 -2.5
5.742895603179932 2.4468114376068115 -2.5
5.527385234832764 2.900995969772339 -2.5
4.990454196929932 3.750077962875366 -2.5
4.672516822814941 4.139496803283691 -2.5
4.324272155761719 4.502050876617432 -2.5
3.546098470687866 5.137407302856445 -2.5
3.121206045150757 5.406093597412109 -2.5
1.7367479801177979 5.995952129364014 -2.5
1.2486449480056763 6.116254806518555 -2.5
0.7524389624595642 6.1968994140625 -2.5
0.2513525187969208 6.237353324890137 -2.5
-1.2486547231674194 6.116259574890137 -2.5
-1.736757755279541 5.995956897735596 -2.5
-2.2135913372039795 5.836762428283691 -2.5
-3.5461010932922363 5.137402057647705 -2.5
-4.324275016784668 4.502050876617432 -2.5
-4.672516822814941 4.139492034912109 -2.5
-4.990456581115723 3.7500877380371094 -2.5
-6.222175121307373 0.5023046731948853 -2.5
6.047375202178955 0.0 -2.5
5.969064712524414 0.9700683355331421 -2.5
5.736154556274414 1.9150097370147705 -2.5
5.111178874969482 3.232119083404541 -2.5
4.834528923034668 3.6329100131988525 -2.5
4.526520729064941 4.010151386260986 -2.5
4.189162731170654 4.361381530761719 -2.5
3.43530011177063 4.976884841918945 -2.5
1.2096288204193115 5.925156116485596 -2.5
-0.7289355397224426 6.003276348114014 -2.5
-1.209633708000183 5.925156116485596 -2.5
-2.1444287300109863 5.654389381408691 -2.5
-2.592463254928589 5.463505744934082 -2.5
-3.43530011177063 4.976889610290527 -2.5
-3.8246312141418457 4.684326171875 -2.5
-4.189157485961914 4.361381530761719 -2.5
-4.526525974273682 4.010151386260986 -2.5
-5.354680061340332 2.810351610183716 -2.5
-5.563459396362305 2.370366096496582 -2.5
-5.736154556274414 1.9150097370147705 -2.5
-5.969069480895996 0.9700683355331421 -2.5
5.862514495849609 -4.882812390860636e-06 -2.5
5.786599159240723 0.9404150247573853 -2.5
5.560810565948486 1.8564794063568115 -2.5
3.707719564437866 4.5411376953125 -2.5
1.1726561784744263 5.744038105010986 -2.5
0.2360571175813675 5.857763767242432 -2.5
-0.7066503763198853 5.819765567779541 -2.5
-1.6310571432113647 5.631054401397705 -2.5
-2.078874349594116 5.481547832489014 -2.5
-2.9312572479248047 5.077085018157959 -2.5
-4.061110973358154 4.228061199188232 -2.5
-4.686750411987305 3.521865129470825 -2.5
-4.954938888549805 3.133315324783325 -2.5
-5.393395900726318 2.297910213470459 -2.5
-5.560808181762695 1.85647451877594 -2.5
5.687023639678955 -4.882812390860636e-06 -2.5
5.613383769989014 0.9122607111930847 -2.5
5.521770000457764 1.3609960079193115 -2.5
5.39434814453125 1.8008886575698853 -2.5
5.231943130493164 2.229116201400757 -2.5
5.035607814788818 2.642885684967041 -2.5
4.8066086769104 3.0395164489746094 -2.5
4.546445369720459 3.41644024848938 -2.5
3.596730947494507 4.405195236206055 -2.5
3.230597972869873 4.680322170257568 -2.5
2.437978506088257 5.137948989868164 -2.5
1.5822290182113647 5.462485313415527 -2.5
1.137548804283142 5.572089672088623 -2.5
0.22899168729782104 5.682406902313232 -2.5
-0.6854956150054932 5.645556449890137 -2.5
-1.5822290182113647 5.462490081787109 -2.5
-2.0166454315185547 5.317455768585205 -2.5
-3.9395384788513184 4.101493835449219 -2.5
-4.54644775390625 3.416435480117798 -2.5
-4.806613445281982 3.0395214557647705 -2.5
-5.035607814788818 2.642885684967041 -2.5
-5.231945514678955 2.2291259765625 -2.5
-5.613376140594482 0.9122655987739563 -2.5
-5.668581485748291 0.4576171636581421 -2.5
5.520161151885986 -4.882812390860636e-06 -2.5
5.502255916595459 0.4441845715045929 -2.5
5.448676586151123 0.885498046875 -2.5
4.887854099273682 2.5653514862060547 -2.5
4.413049221038818 3.3161962032318115 -2.5
4.13189697265625 3.6605420112609863 -2.5
3.8239476680755615 3.981147289276123 -2.5
3.4911985397338867 4.275942325592041 -2.5
2.760077953338623 4.780600547790527 -2.5
2.366442918777466 4.987187385559082 -2.5
1.9574779272079468 5.161435604095459 -2.5
1.535805583000183 5.302206993103027 -2.5
1.1041747331619263 5.408603191375732 -2.5
0.22227294743061066 5.515678405761719 -2.5
-0.6653808355331421 5.479911804199219 -2.5
-1.535805583000183 5.302206993103027 -2.5
-2.366452693939209 4.987192153930664 -2.5
-2.760080575942993 4.780595779418945 -2.5
-3.135807991027832 4.54299783706665 -2.5
-3.4911985397338867 4.275942325592041 -2.5
-4.413049221038818 3.3161962032318115 -2.5
-4.665578365325928 2.9503369331359863 -2.5
-5.502253532409668 0.4441894292831421 -2.5
5.36126708984375 0.0 -2.5
5.343881607055664 0.4314062297344208 -2.5
5.291842937469482 0.8600146174430847 -2.5
4.932255744934082 2.101435422897339 -2.5
4.286025524139404 3.2207372188568115 -2.5
4.012961387634277 3.555180549621582 -2.5
3.713876962661743 3.8665575981140137 -2.5
3.3907055854797363 4.152865886688232 -2.5
3.045549154281616 4.412236213684082 -2.5
1.9011328220367432 5.012866020202637 -2.5
1.4915990829467773 5.149594783782959 -2.5
-0.2158789038658142 5.356918811798096 -2.5
-0.6462329030036926 5.322167873382568 -2.5
-1.9011303186416626 5.012876033782959 -2.5
-3.390700578689575 4.15286111831665 -2.5
-4.531291484832764 2.86541485786438 -2.5
-4.932258129119873 2.101435422897339 -2.5
-5.085358619689941 1.6977490186691284 -2.5
-5.343879222869873 0.4314062297344208 -2.5
