ply
format ascii 1.0
element vertex 754
property float x
property float y
property float z
end_header
-11.235634803771973 -19.460693359375 6.021149635314941
-15.507040977478027 -11.652783393859863 4.967785358428955
-16.5816593170166 -17.26335906982422 6.13039493560791
-14.642050743103027 -17.933290481567383 5.929257869720459
-10.502734184265137 -18.19129753112793 5.379647254943848
-10.263603210449219 -21.630096435546875 6.131613254547119
-8.108495712280273 -21.38037109375 5.856212615966797
-18.00326156616211 -18.743398666381836 6.349946975708008
-14.562460899353027 -17.8358097076416 5.625888347625732
-10.666738510131836 -18.475332260131836 5.212431907653809
-9.633047103881836 -20.30122947692871 5.4903130531311035
-8.779228210449219 -23.148935317993164 6.049099445343018
-13.033309936523438 -18.882061004638672 5.3370795249938965
-10.161356925964355 -21.414628982543945 5.513813495635986
-11.533495903015137 -19.97661018371582 5.097073078155518
-10.0313081741333 -21.140546798706055 5.170604228973389
-8.84244155883789 -23.315595626831055 5.510061740875244
-14.840194702148438 -18.17598533630371 4.912903785705566
-13.19027328491211 -19.10944366455078 4.861584186553955
-12.089765548706055 -20.94011688232422 5.062559127807617
-9.330702781677246 -24.603036880493164 5.509227752685547
-17.32585906982422 -18.038145065307617 4.94802713394165
-15.993417739868164 -19.588417053222656 5.002839088439941
-18.933935165405273 -19.712324142456055 5.093209266662598
-17.373769760131836 -21.279062271118164 5.1189680099487305
-12.976737976074219 -18.80009651184082 3.9953601360321045
-10.262343406677246 -21.627460479736328 4.186859607696533
-14.548213005065918 -17.818359375 3.761017322540283
15.350878715515137 -11.535429000854492 3.1395263671875
17.160350799560547 -2.788896322250366 2.8425323963165283
17.472900390625 -1.410498023033142 2.8661139011383057
-12.17471694946289 -17.638153076171875 3.2607133388519287
-11.476152420043945 -19.877294540405273 3.4920263290405273
15.086709022521973 -13.365663528442383 2.838386058807373
-15.173798561096191 -18.584569931030273 3.1079442501068115
-12.0642671585083 -20.895946502685547 3.1255950927734375
-12.13377857208252 -21.016326904296875 2.870554208755493
0.9817870855331421 -24.362489700317383 0.9799669981002808
0.9865624904632568 -24.48069190979004 0.7128921151161194
0.9865624904632568 -24.48069190979004 0.44123566150665283
0.9876074194908142 -24.506473541259766 0.1698678582906723
0.9994140267372131 -24.799951553344727 -0.10314376652240753
-7.241757869720459 -19.094961166381836 -0.31119459867477417
1.0019237995147705 -24.86235237121582 -0.37916380167007446
0.9933496117591858 -24.649520874023438 -0.6494100689888
8.037372589111328 -27.748231887817383 -0.7604804635047913
10.03554630279541 -26.46151351928711 -0.7449954152107239
-24.322988510131836 -15.380887985229492 -1.396295428276062
-18.63652229309082 -16.510498046875 -1.2080402374267578
-16.341249465942383 -17.012998580932617 -1.144561767578125
-14.273476600646973 -17.481796264648438 -1.0950180292129517
-7.296494007110596 -19.239179611206055 -0.9983486533164978
8.855360984802246 -6.654345512390137 -0.5374447703361511
9.159228324890137 -5.791943073272705 -0.5257987976074219
-18.7452335357666 -16.6068058013916 -1.493418574333191
-12.348310470581055 -17.889570236206055 -1.2962771654129028
-10.556435585021973 -18.28422737121582 -1.259028434753418
-8.852988243103027 -18.657176971435547 -1.2314902544021606
0.9853417873382568 -24.45050811767578 -1.4592477083206177
8.037372589111328 -27.748231887817383 -1.722736120223999
10.03554630279541 -26.46151351928711 -1.687661051750183
8.508008003234863 -5.380136489868164 -0.6002923250198364
-24.32297706604004 -15.380878448486328 -2.0363926887512207
-10.618017196655273 -18.390888214111328 -1.502699851989746
0.9853417873382568 -24.45050811767578 -1.731571912765503
8.037392616271973 -27.74822235107422 -2.0442304611206055
10.03554630279541 -26.46151351928711 -2.0026071071624756
7.395791053771973 -6.552099227905273 -0.6991767883300781
7.705497741699219 -5.790302753448486 -0.6820460557937622
7.982255458831787 -5.047675609588623 -0.6683001518249512
-25.378408432006836 -13.319619178771973 -2.347599983215332
-24.224306106567383 -15.318514823913574 -2.347599983215332
-21.537450790405273 -16.184316635131836 -2.206651449203491
-18.745243072509766 -16.606796264648438 -2.051258087158203
-14.35921859741211 -17.58680534362793 -1.8596627712249756
-5.789140701293945 -28.357118606567383 -2.37058424949646
-3.4880762100219727 -28.72705078125 -2.3702585697174072
-1.1647655963897705 -28.903564453125 -2.3693559169769287
12.411542892456055 -26.156776428222656 -2.3714122772216797
14.336161613464355 -24.83085823059082 -2.3484838008880615
18.12679672241211 -22.201250076293945 -2.347599983215332
7.525205135345459 -4.758662223815918 -0.729274570941925
-26.5123233795166 -4.308681488037109 -2.5
-26.07963752746582 -6.428075790405273 -2.5
-22.33363151550293 -11.721601486206055 -2.347599983215332
-16.436582565307617 -17.112245559692383 -2.2084224224090576
-12.42032241821289 -17.993896484375 -2.035006046295166
-5.071835994720459 -24.843496322631836 -2.359994649887085
-3.0564258098602295 -25.17209815979004 -2.3600916862487793
-1.0216503143310547 -25.352352142333984 -2.3615756034851074
5.084824085235596 -24.9046573638916 -2.3657877445220947
14.328153610229492 -20.757919311523438 -2.347599983215332
18.555078506469727 -19.31787109375 -2.4930667877197266
6.59426736831665 -5.842001914978027 -0.8199732899665833
6.878329753875732 -5.168720722198486 -0.8008044362068176
7.131962776184082 -4.509980201721191 -0.7853915095329285
9.092704772949219 -4.772226333618164 -0.9557792544364929
24.710790634155273 -10.528281211853027 -2.5
26.079647064208984 -6.428046703338623 -2.5
26.7730655670166 -2.161328077316284 -2.5
-14.59877872467041 -9.765624781721272e-06 -1.5221270322799683
-14.268183708190918 -1.15185546875 -1.4924982786178589
-23.28084945678711 -5.738222599029541 -2.5
-22.74361228942871 -7.592939376831055 -2.5
-20.757646560668945 -10.894462585449219 -2.4442503452301025
-19.030223846435547 -12.033974647521973 -2.347599983215332
-16.853378295898438 -14.930790901184082 -2.347599983215332
-9.077871322631836 -19.13123893737793 -2.2078680992126465
-7.192001819610596 -18.963651657104492 -2.1146457195281982
2.7157421112060547 -22.365663528442383 -2.3490593433380127
4.503769397735596 -22.060888290405273 -2.347599983215332
6.264316082000732 -21.626953125 -2.347599983215332
7.984267234802246 -21.052724838256836 -2.347599983215332
9.6524019241333 -20.342031478881836 -2.347599983215332
16.609872817993164 -17.292694091796875 -2.5
6.487255573272705 -5.747197151184082 -0.903643012046814
6.648759841918945 -4.996201038360596 -0.8671369552612305
22.743621826171875 -7.592929363250732 -2.5
23.28084945678711 -5.738193035125732 -2.5
23.667089462280273 -3.846269369125366 -2.5
-14.068115234375 -1.9531249563442543e-05 -1.624576210975647
-21.019794464111328 -5.180917739868164 -2.5
-20.534765243530273 -6.855556488037109 -2.5
-15.216581344604492 -13.480722427368164 -2.347599983215332
-14.08250904083252 -14.661444664001465 -2.347599983215332
-10.164589881896973 -17.605575561523438 -2.347599983215332
-4.066337585449219 -19.918319702148438 -2.347599983215332
-2.4504003524780273 -20.180946350097656 -2.347599983215332
-0.8185644149780273 -20.312694549560547 -2.347599983215332
0.8185839653015137 -20.312685012817383 -2.347599983215332
2.4504199028015137 -20.180946350097656 -2.347599983215332
4.066357135772705 -19.9183292388916 -2.347599983215332
5.655937194824219 -19.52654266357422 -2.347599983215332
7.208847522735596 -19.00810432434082 -2.347599983215332
10.164589881896973 -17.605575561523438 -2.347599983215332
6.798652172088623 -4.299199104309082 -0.9289083480834961
20.534765243530273 -6.855507850646973 -2.5
21.36854362487793 -3.472724437713623 -2.5
21.578691482543945 -1.7420116662979126 -2.5
-13.70839786529541 -9.765624781721272e-06 -1.7371773719787598
-18.712705612182617 -6.247226238250732 -2.5
-18.149335861206055 -7.732714653015137 -2.5
-17.468252182006836 -9.168046951293945 -2.5
-16.673887252807617 -10.543935775756836 -2.5
-12.832958221435547 -13.360527038574219 -2.347599983215332
-10.52358341217041 -15.246073722839355 -2.347599983215332
-9.262675285339355 -16.043437957763672 -2.347599983215332
-6.569189071655273 -17.321514129638672 -2.347599983215332
-5.154072284698486 -17.793954849243164 -2.347599983215332
-3.7055370807647705 -18.150976181030273 -2.347599983215332
-2.232978582382202 -18.390283584594727 -2.347599983215332
0.7459570169448853 -18.51034164428711 -2.347599983215332
2.232988119125366 -18.390283584594727 -2.347599983215332
5.154091835021973 -17.793935775756836 -2.347599983215332
8.130292892456055 -17.134258270263672 -2.4033560752868652
9.860761642456055 -17.07930564880371 -2.4991776943206787
11.20677661895752 -16.235809326171875 -2.5
12.476884841918945 -15.28139591217041 -2.5
9.053359031677246 -4.751572132110596 -1.295687198638916
18.149335861206055 -7.732705116271973 -2.5
19.664012908935547 -1.5874121189117432 -2.5
-13.586649894714355 -9.765624781721272e-06 -1.8749473094940186
-17.589628219604492 -4.335468769073486 -2.5
-16.6663761138916 -7.100888729095459 -2.5
-15.311503410339355 -9.682392120361328 -2.5
-14.482744216918945 -10.883085250854492 -2.5
-10.75894546508789 -13.177343368530273 -2.347599983215332
-9.66373062133789 -14.000361442565918 -2.347599983215332
-8.505849838256836 -14.73256778717041 -2.347599983215332
-6.032431602478027 -15.906220436096191 -2.347599983215332
-4.732949256896973 -16.34004783630371 -2.347599983215332
-2.050527334213257 -16.887664794921875 -2.347599983215332
0.6850000023841858 -16.997909545898438 -2.347599983215332
2.050527334213257 -16.887676239013672 -2.347599983215332
3.402773380279541 -16.667909622192383 -2.347599983215332
4.755214691162109 -16.41688346862793 -2.3586392402648926
7.766220569610596 -16.366952896118164 -2.5
10.291083335876465 -14.909228324890137 -2.5
11.45743179321289 -14.0327730178833 -2.5
6.648759841918945 -4.996201038360596 -1.1477020978927612
9.050078392028809 -4.749853610992432 -1.41046142578125
17.881454467773438 -2.906015634536743 -2.5
-13.587089538574219 -9.765624781721272e-06 -2.0286786556243896
-13.246356964111328 -1.0693652629852295 -1.984241008758545
-16.52692413330078 -2.6858885288238525 -2.5
-14.825849533081055 -7.781210899353027 -2.5
-14.151650428771973 -8.948974609375 -2.5
-13.385673522949219 -10.058691024780273 -2.5
-12.53287124633789 -11.103163719177246 -2.5
-11.598808288574219 -12.075624465942383 -2.5
-7.905966758728027 -13.693544387817383 -2.360870838165283
-5.57546854019165 -14.70131778717041 -2.347599983215332
-1.8951854705810547 -15.608407974243164 -2.347599983215332
1.9188964366912842 -15.803427696228027 -2.37693190574646
3.2833495140075684 -16.082860946655273 -2.4508535861968994
5.937441349029541 -15.655673027038574 -2.5
7.177919864654541 -15.127158164978027 -2.5
8.371893882751465 -14.500516891479492 -2.5
11.598808288574219 -12.075654029846191 -2.5
6.798652172088623 -4.299199104309082 -1.2010347843170166
9.046737670898438 -4.748095512390137 -1.5254992246627808
16.52692413330078 -2.6858885288238525 -2.5
16.689472198486328 -1.347314476966858 -2.5
-13.594130516052246 0.0 -2.1839959621429443
-13.213945388793945 -1.066748023033142 -2.129822015762329
-15.359569549560547 -2.4961814880371094 -2.5
-15.108905792236328 -3.7240331172943115 -2.5
-14.315878868103027 -6.099433422088623 -2.5
-13.778642654418945 -7.231591701507568 -2.5
-13.152070045471191 -8.316874504089355 -2.5
-12.44017505645752 -9.348193168640137 -2.5
-10.779541015625 -11.222704887390137 -2.5
-9.841532707214355 -12.0537109375 -2.5
-7.769277095794678 -13.456767082214355 -2.49637770652771
-6.618319988250732 -13.947851181030273 -2.4802916049957275
-5.392373085021973 -14.218534469604492 -2.443070411682129
-4.194238185882568 -14.480224609375 -2.4219720363616943
-1.820107340812683 -14.990029335021973 -2.4259445667266846
0.6246972680091858 -15.501269340515137 -2.4924123287200928
6.67092752456665 -14.05868148803711 -2.5
7.78054666519165 -13.47630786895752 -2.5
9.841543197631836 -12.053690910339355 -2.5
10.779541015625 -11.222695350646973 -2.5
6.487255573272705 -5.747197151184082 -1.39239501953125
9.034647941589355 -4.741767406463623 -1.639246940612793
14.760263442993164 -4.927695274353027 -2.5
-13.578378677368164 -9.765624781721272e-06 -2.336097002029419
-13.783231735229492 -4.601532936096191 -2.5
-12.86660099029541 -6.752919673919678 -2.5
-11.616727828979492 -8.729413986206055 -2.5
-9.19008731842041 -11.255829811096191 -2.5
-8.254560470581055 -11.958818435668945 -2.5
-6.229355335235596 -13.12807559967041 -2.5
-5.152773380279541 -13.586767196655273 -2.5
-4.042773246765137 -13.957324028015137 -2.5
-2.906572103500366 -14.23739242553711 -2.5
-0.5851073861122131 -14.519267082214355 -2.5
0.5851171612739563 -14.51927661895752 -2.5
1.7515331506729126 -14.425097465515137 -2.5
5.152782917022705 -13.586776733398438 -2.5
6.22936487197876 -13.12808609008789 -2.5
7.265546798706055 -12.584247589111328 -2.5
8.254570007324219 -11.95882797241211 -2.5
9.190107345581055 -11.255820274353027 -2.5
10.066015243530273 -10.479833602905273 -2.5
6.648759841918945 -4.996211051940918 -1.430855393409729
9.032206535339355 -4.740458965301514 -1.7549694776535034
13.368270874023438 -5.695693016052246 -2.5
-13.581474304199219 -1.0964062213897705 -2.5
-13.44920825958252 -2.1857128143310547 -2.5
-13.229736328125 -3.2608299255371094 -2.5
-12.924443244934082 -4.314824104309082 -2.5
-12.535341262817383 -5.340829849243164 -2.5
-12.06493091583252 -6.332167625427246 -2.5
-11.51626968383789 -7.282451152801514 -2.5
-10.198945045471191 -9.03548812866211 -2.5
-6.812841415405273 -11.800175666809082 -2.5
-5.841230392456055 -12.310126304626465 -2.5
-3.790898323059082 -13.087695121765137 -2.5
-2.725478410720825 -13.350302696228027 -2.5
-1.6423827409744263 -13.526317596435547 -2.5
3.790908098220825 -13.087714195251465 -2.5
7.74026346206665 -11.213720321655273 -2.5
8.617499351501465 -10.554511070251465 -2.5
6.487236022949219 -5.747206687927246 -1.590173602104187
6.648759841918945 -4.996201038360596 -1.5259310007095337
9.032217025756836 -4.740468502044678 -1.8715850114822388
13.581503868103027 -1.0964062213897705 -2.5
-12.823436737060547 0.0 -2.5
-12.65738296508789 -2.057021379470825 -2.5
-12.450819969177246 -3.068857431411743 -2.5
-11.797285079956055 -5.026357173919678 -2.5
-9.59847640991211 -8.50350570678711 -2.5
-8.883095741271973 -9.248281478881836 -2.5
-8.110107421875 -9.933115005493164 -2.5
-6.411728382110596 -11.105439186096191 -2.5
-5.497314453125 -11.58535099029541 -2.5
-1.54568350315094 -12.729941368103027 -2.5
0.516357421875 -12.813055992126465 -2.5
2.565019369125366 -12.56429672241211 -2.5
4.547265529632568 -11.99014663696289 -2.5
6.487255573272705 -5.747197151184082 -1.6896536350250244
6.798652172088623 -4.299199104309082 -1.5682079792022705
9.024149894714355 -4.736239910125732 -1.9868924617767334
11.797314643859863 -5.0263671875 -2.5
12.45082950592041 -3.0688672065734863 -2.5
12.657392501831055 -2.0570311546325684 -2.5
12.781865119934082 -1.0318554639816284 -2.5
-12.10750961303711 -1.9531249563442543e-05 -2.5
-12.068251609802246 -0.97425776720047 -2.5
-10.720664024353027 -5.626640319824219 -2.5
-9.062597274780273 -8.028769493103027 -2.5
-8.387177467346191 -8.731972694396973 -2.5
-5.190410137176514 -10.938544273376465 -2.5
-2.421806573867798 -11.862832069396973 -2.5
-1.4593846797943115 -12.019227981567383 -2.5
-0.4875195324420929 -12.097684860229492 -2.5
0.4875195324420929 -12.097704887390137 -2.5
3.368525266647339 -11.62948226928711 -2.5
5.190400123596191 -10.938544273376465 -2.5
6.877861022949219 -9.964286804199219 -2.5
8.387177467346191 -8.731963157653809 -2.5
6.487246036529541 -5.747206687927246 -1.7895655632019043
6.648759841918945 -4.996201038360596 -1.7172675132751465
6.798652172088623 -4.299199104309082 -1.6609387397766113
10.720664024353027 -5.626650333404541 -2.5
11.138671875 -4.745751857757568 -2.5
11.755682945251465 -2.89751935005188 -2.5
-11.46451187133789 -9.765624781721272e-06 -2.5
-11.131366729736328 -2.743642568588257 -2.5
-10.87451171875 -3.630449056625366 -2.5
-10.151318550109863 -5.327831745147705 -2.5
-9.689697265625 -6.127392292022705 -2.5
-9.165205001831055 -6.887226581573486 -2.5
-8.581289291381836 -7.602372646331787 -2.5
-6.512587547302246 -9.435126304626465 -2.5
-5.732245922088623 -9.928564071655273 -2.5
-2.2931933403015137 -11.23282241821289 -2.5
-1.3818846940994263 -11.380927085876465 -2.5
-0.46162107586860657 -11.45522403717041 -2.5
0.4616406261920929 -11.455214500427246 -2.5
3.189638614654541 -11.01186466217041 -2.5
4.065380573272705 -10.719511032104492 -2.5
4.914755821228027 -10.357626914978027 -2.5
6.750419616699219 -5.072617053985596 -1.8413125276565552
6.798652172088623 -4.299199104309082 -1.7540932893753052
10.874521255493164 -3.630439281463623 -2.5
11.131376266479492 -2.743642568588257 -2.5
11.42733383178711 -0.9225195050239563 -2.5
-10.88370132446289 -9.765624781721272e-06 -2.5
-10.567431449890137 -2.6046483516693115 -2.5
-10.323593139648438 -3.446523427963257 -2.5
-8.700888633728027 -6.538300514221191 -2.5
-6.883349418640137 -8.430595397949219 -2.5
-6.182636737823486 -8.95711898803711 -2.5
-4.665751934051514 -9.832880973815918 -2.5
-3.8594138622283936 -10.176445007324219 -2.5
-3.028027296066284 -10.453993797302246 -2.5
-2.1770215034484863 -10.663759231567383 -2.5
-1.3118749856948853 -10.80434513092041 -2.5
-0.4382421672344208 -10.874882698059082 -2.5
0.43825194239616394 -10.874873161315918 -2.5
1.3118945360183716 -10.804335594177246 -2.5
5.441864967346191 -9.425565719604492 -2.5
6.18264627456665 -8.957128524780273 -2.5
6.883368968963623 -8.43056583404541 -2.5
7.063896179199219 -6.258066177368164 -2.1677496433258057
7.171601295471191 -4.535038948059082 -1.9490565061569214
10.567450523376465 -2.6046385765075684 -2.5
-10.35634708404541 0.0 -2.5
-10.322763442993164 -0.8333495855331421 -2.5
-10.222235679626465 -1.6612889766693115 -2.5
-10.055410385131836 -2.478447198867798 -2.5
-9.527636528015137 -4.059345722198486 -2.5
-9.170097351074219 -4.812851428985596 -2.5
-7.17410135269165 -7.46902322769165 -2.5
-6.549814224243164 -8.022069931030273 -2.5
-5.883066177368164 -8.523124694824219 -2.5
-4.439687252044678 -9.356435775756836 -2.5
-2.8813085556030273 -9.947470664978027 -2.5
-2.071542978286743 -10.147069931030273 -2.5
1.248329997062683 -10.28084945678711 -2.5
2.071542978286743 -10.147050857543945 -2.5
3.6724119186401367 -9.683368682861328 -2.5
4.439706802368164 -9.356454849243164 -2.5
6.54983377456665 -8.022089958190918 -2.5
7.174091815948486 -7.469042778015137 -2.5
8.279315948486328 -6.221503734588623 -2.5
7.390507698059082 -4.673476696014404 -2.110830783843994
9.170097351074219 -4.812841892242432 -2.5
10.055419921875 -2.4784374237060547 -2.5
10.322772979736328 -0.8333398103713989 -2.5
-9.8753023147583 0.0 -2.5
-9.747411727905273 -1.5841211080551147 -2.5
-9.588339805603027 -2.3633203506469727 -2.5
-6.245575904846191 -7.649453163146973 -2.5
-5.609804630279541 -8.127216339111328 -2.5
-4.937646389007568 -8.552265167236328 -2.5
-1.1903222799301147 -9.803290367126465 -2.5
-0.3976367115974426 -9.867294311523438 -2.5
1.190332055091858 -9.803300857543945 -2.5
1.9753124713897705 -9.675722122192383 -2.5
4.937646389007568 -8.552265167236328 -2.5
6.24560546875 -7.649462699890137 -2.5
7.391777038574219 -6.548525333404541 -2.5
7.894745826721191 -5.932509422302246 -2.5
8.744150161743164 -4.589286804199219 -2.5
9.747411727905273 -1.5841113328933716 -2.5
-9.434598922729492 0.0 -2.5
-9.312431335449219 -1.5134179592132568 -2.5
-9.160449028015137 -2.2578516006469727 -2.5
-8.949052810668945 -2.9876365661621094 -2.5
-7.974013328552246 -5.042460918426514 -2.5
-7.542411804199219 -5.667763710021973 -2.5
-7.061903953552246 -6.256298542022705 -2.5
-6.535566329956055 -6.804267406463623 -2.5
-5.359453201293945 -7.76452112197876 -2.5
-4.044531345367432 -8.523700714111328 -2.5
-2.6248533725738525 -9.06209945678711 -2.5
-1.8871679306030273 -9.243926048278809 -2.5
-1.1372168064117432 -9.36581039428711 -2.5
2.624882698059082 -9.062108993530273 -2.5
3.3455662727355957 -8.821494102478027 -2.5
4.044560432434082 -8.523691177368164 -2.5
5.359462738037109 -7.76452112197876 -2.5
7.542431354522705 -5.667763710021973 -2.5
7.974032878875732 -5.042470455169678 -2.5
8.353925704956055 -4.384491920471191 -2.5
8.679648399353027 -3.69805645942688 -2.5
8.949071884155273 -2.9876365661621094 -2.5
9.312421798706055 -1.5134081840515137 -2.5
9.404013633728027 -0.75916987657547 -2.5
-9.029276847839355 0.0 -2.5
-8.912353515625 -1.4483983516693115 -2.5
-8.7669038772583 -2.1608593463897705 -2.5
-8.564589500427246 -2.8592870235443115 -2.5
-8.306747436523438 -3.5391697883605957 -2.5
-7.631444931030273 -4.825829982757568 -2.5
-5.710517406463623 -6.994140625 -2.5
-3.870781183242798 -8.157500267028809 -2.5
-3.201835870742798 -8.442519187927246 -2.5
-2.512099504470825 -8.672782897949219 -2.5
-1.0883593559265137 -8.963446617126465 -2.5
2.5121092796325684 -8.672782897949219 -2.5
3.201835870742798 -8.442519187927246 -2.5
3.870800733566284 -8.157489776611328 -2.5
8.306747436523438 -3.5391697883605957 -2.5
8.7669038772583 -2.1608495712280273 -2.5
8.999990463256836 -0.7265625 -2.5
-8.627079963684082 -0.6964550614356995 -2.5
-8.543075561523438 -1.3883886337280273 -2.5
-8.403642654418945 -2.0713281631469727 -2.5
-7.962558269500732 -3.392529249191284 -2.5
-7.663749694824219 -4.022255897521973 -2.5
-7.315244197845459 -4.625869274139404 -2.5
-5.99563455581665 -6.242109298706055 -2.5
-5.47390604019165 -6.704345703125 -2.5
-4.327578067779541 -7.495585918426514 -2.5
-3.06915020942688 -8.092704772949219 -2.5
-1.0432616472244263 -8.592041015625 -2.5
-0.3485058546066284 -8.648134231567383 -2.5
1.0432616472244263 -8.592041015625 -2.5
1.7312499284744263 -8.480254173278809 -2.5
3.710390567779541 -7.819521427154541 -2.5
4.327587604522705 -7.495575904846191 -2.5
4.916689395904541 -7.123036861419678 -2.5
5.473916053771973 -6.704316139221191 -2.5
6.478476524353027 -5.739433288574219 -2.5
6.91930627822876 -5.199511528015137 -2.5
7.315253734588623 -4.625878810882568 -2.5
7.663759708404541 -4.022255897521973 -2.5
8.209726333618164 -2.7408103942871094 -2.5
8.40365219116211 -2.0713183879852295 -2.5
-8.308671951293945 9.765624781721272e-06 -2.5
-8.281728744506836 -0.6685644388198853 -2.5
-8.20108413696289 -1.3328124284744263 -2.5
-8.067235946655273 -1.9883886575698853 -2.5
-7.881083965301514 -2.631093740463257 -2.5
-7.022411823272705 -4.44070291519165 -2.5
-5.755624771118164 -5.992255687713623 -2.5
-5.254785060882568 -6.435966491699219 -2.5
-4.719862937927246 -6.837910175323486 -2.5
-4.154335975646973 -7.195527076721191 -2.5
-2.946298837661743 -7.768759727478027 -2.5
-2.3116111755371094 -7.980644226074219 -2.5
-1.0014941692352295 -8.248095512390137 -2.5
-0.33455076813697815 -8.301942825317383 -2.5
0.3345703184604645 -8.301933288574219 -2.5
1.661962866783142 -8.140761375427246 -2.5
4.719872951507568 -6.837910175323486 -2.5
5.254785060882568 -6.435946941375732 -2.5
5.755624771118164 -5.992246150970459 -2.5
6.219130516052246 -5.509687423706055 -2.5
6.642323970794678 -4.991366863250732 -2.5
7.022411823272705 -4.44070291519165 -2.5
7.356972694396973 -3.8612303733825684 -2.5
8.20108413696289 -1.3328124284744263 -2.5
-7.98681640625 -9.765624781721272e-06 -2.5
-7.960917949676514 -0.6426855325698853 -2.5
-7.754726409912109 -1.9113671779632568 -2.5
-7.575780868530273 -2.529169797897339 -2.5
-7.071962833404541 -3.711660146713257 -2.5
-6.750370979309082 -4.268671989440918 -2.5
-6.384990215301514 -4.798027038574219 -2.5
-5.978212833404541 -5.296240329742432 -2.5
-5.532646179199219 -5.760097503662109 -2.5
-5.051210880279541 -6.186621189117432 -2.5
-4.537011623382568 -6.573017597198486 -2.5
-3.423896312713623 -7.215703010559082 -2.5
-2.832158088684082 -7.46780252456665 -2.5
-0.962695300579071 -7.928574085235596 -2.5
-0.32158201932907104 -7.980331897735596 -2.5
0.9627050757408142 -7.92858362197876 -2.5
1.5975682735443115 -7.825409889221191 -2.5
2.2220702171325684 -7.671483993530273 -2.5
3.993417978286743 -6.91677713394165 -2.5
5.532656192779541 -5.760117053985596 -2.5
6.385009765625 -4.798007488250732 -2.5
7.960917949676514 -0.6426659822463989 -2.5
-7.686962604522705 0.0 -2.5
-7.662050724029541 -0.618603527545929 -2.5
-7.587411880493164 -1.2330663204193115 -2.5
-7.463583946228027 -1.8396093845367432 -2.5
-7.071835994720459 -3.0130271911621094 -2.5
-6.806464672088623 -3.5723142623901367 -2.5
-6.49694299697876 -4.108417987823486 -2.5
-5.753759860992432 -5.097402095794678 -2.5
-4.861581802368164 -5.95437479019165 -2.5
-3.8434765338897705 -6.657109260559082 -2.5
-3.295341730117798 -6.944794654846191 -2.5
-2.725830078125 -7.187431335449219 -2.5
0.926562488079071 -7.630918025970459 -2.5
1.5375878810882568 -7.53161096572876 -2.5
2.1386425495147705 -7.383476257324219 -2.5
2.7258496284484863 -7.187441349029541 -2.5
3.295341730117798 -6.944794654846191 -2.5
5.324951171875 -5.543857097625732 -2.5
5.753769397735596 -5.097402095794678 -2.5
6.49694299697876 -4.108417987823486 -2.5
6.806464672088623 -3.5723142623901367 -2.5
7.071855545043945 -3.0130369663238525 -2.5
7.291367053985596 -2.434218645095825 -2.5
7.58743143081665 -1.2330760955810547 -2.5
-7.406865119934082 0.0 -2.5
-7.382851600646973 -0.5960156321525574 -2.5
-7.310956954956055 -1.1881542205810547 -2.5
-7.191640377044678 -1.7725878953933716 -2.5
-7.025683403015137 -2.345517635345459 -2.5
-6.260214805603027 -3.9587109088897705 -2.5
-5.921367168426514 -4.449628829956055 -2.5
-4.207578182220459 -6.095742225646973 -2.5
-3.703437328338623 -6.414540767669678 -2.5
-3.1752636432647705 -6.691738128662109 -2.5
-2.626523494720459 -6.925546646118164 -2.5
-2.0607128143310547 -7.114443302154541 -2.5
-1.4815624952316284 -7.257187366485596 -2.5
-0.8927929401397705 -7.352880477905273 -2.5
3.175283193588257 -6.691738128662109 -2.5
4.207587718963623 -6.095742225646973 -2.5
5.130927562713623 -5.341855525970459 -2.5
5.544130802154541 -4.911669731140137 -2.5
6.260224342346191 -3.958730459213257 -2.5
6.55846643447876 -3.442138671875 -2.5
7.310956954956055 -1.188134789466858 -2.5
7.382851600646973 -0.5960058569908142 -2.5
-7.144589900970459 -9.765624781721272e-06 -2.5
-7.121416091918945 -0.5749120712280273 -2.5
-6.326220512390137 -3.320253849029541 -2.5
-6.038525104522705 -3.818535089492798 -2.5
-5.711679458618164 -4.292060375213623 -2.5
-5.347792625427246 -4.737753868103027 -2.5
-4.949238300323486 -5.152695178985596 -2.5
-4.518564224243164 -5.534228324890137 -2.5
-3.062822103500366 -6.454765319824219 -2.5
-2.533505916595459 -6.680302619934082 -2.5
-1.429101586341858 -7.000205039978027 -2.5
0.8611913919448853 -7.092499732971191 -2.5
1.4291112422943115 -7.000214576721191 -2.5
1.9877636432647705 -6.862509727478027 -2.5
3.0628318786621094 -6.454794883728027 -2.5
4.518564224243164 -5.534228324890137 -2.5
6.038544654846191 -3.8185253143310547 -2.5
6.326220512390137 -3.320263624191284 -2.5
6.572880744934082 -2.8004393577575684 -2.5
6.936992168426514 -1.709814429283142 -2.5
7.052070140838623 -1.1460741758346558 -2.5
-6.898407936096191 0.0 -2.5
-6.809072017669678 -1.106591820716858 -2.5
-6.543388366699219 -2.184501886367798 -2.5
-6.108232498168945 -3.2058496475219727 -2.5
-5.830458641052246 -3.6869726181030273 -2.5
-5.514873027801514 -4.144169807434082 -2.5
-4.362861156463623 -5.343554496765137 -2.5
-3.4491991996765137 -5.974199295043945 -2.5
-2.4462108612060547 -6.450136661529541 -2.5
-1.9192479848861694 -6.626054763793945 -2.5
-1.3798632621765137 -6.759003639221191 -2.5
-0.8315038681030273 -6.848114967346191 -2.5
-0.2777636647224426 -6.892822265625 -2.5
0.27779296040534973 -6.892802715301514 -2.5
2.4462108612060547 -6.450126647949219 -2.5
2.9572949409484863 -6.232382774353027 -2.5
3.449208974838257 -5.974199295043945 -2.5
4.362880706787109 -5.34353494644165 -2.5
5.830468654632568 -3.6869726181030273 -2.5
6.80908203125 -1.1065820455551147 -2.5
6.876044750213623 -0.5550976395606995 -2.5
-6.645214557647705 -0.5364648103713989 -2.5
-6.473114967346191 -1.59548819065094 -2.5
-6.323740005493164 -2.1111717224121094 -2.5
-6.133359432220459 -2.613173723220825 -2.5
-4.618281364440918 -4.808144569396973 -2.5
-3.7871971130371094 -5.486708641052246 -2.5
-2.8580076694488525 -6.023144245147705 -2.5
-1.854824185371399 -6.403623104095459 -2.5
-1.3335448503494263 -6.532118797302246 -2.5
-0.8035839796066284 -6.618232250213623 -2.5
0.2684668004512787 -6.661416053771973 -2.5
0.80360347032547 -6.618222713470459 -2.5
2.364091634750366 -6.233613014221191 -2.5
2.858027219772339 -6.023163795471191 -2.5
4.216415882110596 -5.164169788360596 -2.5
4.990204811096191 -4.42092752456665 -2.5
5.90319299697876 -3.0982322692871094 -2.5
6.323750019073486 -2.1111814975738525 -2.5
6.645224571228027 -0.5364550948143005 -2.5
-6.448564529418945 9.765624781721272e-06 -2.5
-6.365048885345459 -1.0344336032867432 -2.5
-6.261171817779541 -1.54324209690094 -2.5
-6.11669921875 -2.042060613632202 -2.5
-5.155253887176514 -3.8739256858825684 -2.5
-4.826816082000732 -4.276191234588623 -2.5
-4.46707010269165 -4.650712966918945 -2.5
-4.078359127044678 -4.995097637176514 -2.5
-3.6631932258605957 -5.307060241699219 -2.5
-3.2242674827575684 -5.584619045257568 -2.5
-2.7644433975219727 -5.825947284698486 -2.5
-2.286689519882202 -6.029511451721191 -2.5
-0.777294933795929 -6.401542663574219 -2.5
-0.25965818762779236 -6.443349361419678 -2.5
1.289882779121399 -6.318251609802246 -2.5
1.7941112518310547 -6.19396448135376 -2.5
2.286699056625366 -6.029511451721191 -2.5
2.764453172683716 -5.82595682144165 -2.5
3.2242870330810547 -5.584628582000732 -2.5
5.709921836853027 -2.9968066215515137 -2.5
6.11669921875 -2.042060613632202 -2.5
6.261181354522705 -1.543251872062683 -2.5
6.427656173706055 -0.5189062356948853 -2.5
-6.242412090301514 0.0 -2.5
-6.222177505493164 -0.5023144483566284 -2.5
-6.061025142669678 -1.4939160346984863 -2.5
-5.742890357971191 -2.446826219558716 -2.5
-5.276025295257568 -3.336357355117798 -2.5
-4.990448951721191 -3.7500975131988525 -2.5
-4.672519207000732 -4.139502048492432 -2.5
-4.324277400970459 -4.502050876617432 -2.5
-2.2135839462280273 -5.836757659912109 -2.5
-1.7367382049560547 -5.995956897735596 -2.5
-0.7524316310882568 -6.196913719177246 -2.5
0.2513769567012787 -6.237353324890137 -2.5
1.2486523389816284 -6.116269588470459 -2.5
2.2135937213897705 -5.836767673492432 -2.5
2.676084041595459 -5.639707088470459 -2.5
3.121210813522339 -5.406103610992432 -2.5
3.5461034774780273 -5.137402057647705 -2.5
3.947998046875 -4.835400104522705 -2.5
4.990458965301514 -3.750077962875366 -2.5
5.92117166519165 -1.9767773151397705 -2.5
-6.027763366699219 -0.48662108182907104 -2.5
-5.871650218963623 -1.4472362995147705 -2.5
-5.563457012176514 -2.370371103286743 -2.5
-5.354677677154541 -2.810351610183716 -2.5
-4.834531307220459 -3.632929563522339 -2.5
-4.526513576507568 -4.010156154632568 -2.5
-3.8246288299560547 -4.684326171875 -2.5
-3.435292959213257 -4.976904392242432 -2.5
-2.592460870742798 -5.463505744934082 -2.5
-1.6824804544448853 -5.808613300323486 -2.5
-0.7289257645606995 -6.00329065322876 -2.5
1.2096288204193115 -5.92516565322876 -2.5
2.592470645904541 -5.463505744934082 -2.5
3.023691415786743 -5.237187385559082 -2.5
3.435302734375 -4.976884841918945 -2.5
4.189159870147705 -4.361386775970459 -2.5
4.526533126831055 -4.010156154632568 -2.5
4.834531307220459 -3.6329197883605957 -2.5
5.871650218963623 -1.4472362995147705 -2.5
5.969062328338623 -0.9700683355331421 -2.5
6.027773380279541 -0.4866113066673279 -2.5
-5.843505859375 -0.471748024225235 -2.5
-5.692158222198486 -1.4029979705810547 -2.5
-5.190996170043945 -2.724443197250366 -2.5
-4.388154029846191 -3.887568235397339 -2.5
-3.707714796066284 -4.541132926940918 -2.5
-3.3302831649780273 -4.824755668640137 -2.5
-2.9312596321105957 -5.077089786529541 -2.5
-2.5132129192352295 -5.296494007110596 -2.5
-2.0788769721984863 -5.481552600860596 -2.5
-1.631044864654541 -5.631044864654541 -2.5
0.23606444895267487 -5.857763767242432 -2.5
0.7066503763198853 -5.819775104522705 -2.5
1.1726561784744263 -5.744042873382568 -2.5
2.0788867473602295 -5.481543064117432 -2.5
2.5132226943969727 -5.296494007110596 -2.5
3.7077245712280273 -4.541132926940918 -2.5
4.388164043426514 -3.887568235397339 -2.5
4.954941272735596 -3.133310556411743 -2.5
5.191005706787109 -2.7244529724121094 -2.5
5.393398284912109 -2.297919988632202 -2.5
5.56082010269165 -1.8564647436141968 -2.5
-5.521767616271973 -1.3610057830810547 -2.5
-5.394345760345459 -1.8008984327316284 -2.5
-5.231943130493164 -2.229120969772339 -2.5
-4.806621074676514 -3.039541006088257 -2.5
-4.256796836853027 -3.7712011337280273 -2.5
-2.843505859375 -4.925097465515137 -2.5
-2.43798828125 -5.137939453125 -2.5
-2.0166406631469727 -5.317461013793945 -2.5
-1.137548804283142 -5.572089672088623 -2.5
0.685498058795929 -5.645566463470459 -2.5
1.1375585794448853 -5.572089672088623 -2.5
3.230595588684082 -4.680312633514404 -2.5
5.231943130493164 -2.229130744934082 -2.5
5.394345760345459 -1.8008984327316284 -2.5
5.613379001617432 -0.9122753739356995 -2.5
5.668583869934082 -0.4576171636581421 -2.5
-5.502255916595459 -0.4441894292831421 -2.5
-5.359755516052246 -1.3210546970367432 -2.5
-5.236073970794678 -1.7480664253234863 -2.5
-4.665575981140137 -2.950331926345825 -2.5
-4.413056373596191 -3.3162012100219727 -2.5
-3.8239355087280273 -3.981152296066284 -2.5
-2.760077953338623 -4.780595779418945 -2.5
-1.9574706554412842 -5.161435604095459 -2.5
-1.535791039466858 -5.302206993103027 -2.5
-1.1041698455810547 -5.408593654632568 -2.5
-0.6653808355331421 -5.479902267456055 -2.5
0.22227539122104645 -5.515683650970459 -2.5
0.6653906106948853 -5.479911804199219 -2.5
1.1041698455810547 -5.408613204956055 -2.5
2.366455078125 -4.987196922302246 -2.5
2.760087728500366 -4.780585765838623 -2.5
3.135810375213623 -4.543007850646973 -2.5
4.413066387176514 -3.3161816596984863 -2.5
4.887861251831055 -2.5653417110443115 -2.5
5.078427791595459 -2.1637206077575684 -2.5
5.236064434051514 -1.7480664253234863 -2.5
5.359765529632568 -1.3210644721984863 -2.5
5.448671817779541 -0.8854882717132568 -2.5
5.502265453338623 -0.4441894292831421 -2.5
-5.291845798492432 -0.8600097298622131 -2.5
-5.205478191375732 -1.2830370664596558 -2.5
-4.932246208190918 -2.101445198059082 -2.5
-4.747158050537109 -2.491513729095459 -2.5
-4.286025524139404 -3.2207517623901367 -2.5
-2.6806347370147705 -4.642997741699219 -2.5
-2.298330068588257 -4.843632698059082 -2.5
-1.901123046875 -5.012870788574219 -2.5
-1.491601586341858 -5.149609088897705 -2.5
-0.6462304592132568 -5.322177410125732 -2.5
0.2158789038658142 -5.356923580169678 -2.5
1.0724023580551147 -5.252919673919678 -2.5
1.491601586341858 -5.149589538574219 -2.5
1.9011328220367432 -5.012880802154541 -2.5
2.29833984375 -4.843632698059082 -2.5
2.6806445121765137 -4.642988204956055 -2.5
3.3907225131988525 -4.15286111831665 -2.5
3.7138867378234863 -3.8665525913238525 -2.5
4.01296854019165 -3.555185556411743 -2.5
4.531289100646973 -2.865419864654541 -2.5
4.747168064117432 -2.4914941787719727 -2.5
5.291835784912109 -0.85999995470047 -2.5
5.343886375427246 -0.4314062297344208 -2.5
