ply
format ascii 1.0
element vertex 775
property float x
property float y
property float z
end_header
-27.5029296875 -2.220278263092041 7.393354415893555
-27.22425651550293 -6.710195064544678 7.513026714324951
-27.02230453491211 -9.021376609802246 7.633440971374512
-3.9747166633605957 -19.469438552856445 5.324423313140869
13.626649856567383 -4.549242973327637 3.849355459213257
13.84634780883789 -3.412832021713257 3.821157217025757
11.631288528442383 -1.89028799533844 3.1574864387512207
11.648681640625 -0.9403856992721558 3.131411075592041
-26.584911346435547 -4.320468425750732 6.897895812988281
-27.25212860107422 -6.717060565948486 7.188333511352539
-26.38884735107422 -8.80990219116211 7.125037670135498
13.43155288696289 -1.0843065977096558 3.4511070251464844
-26.819520950317383 -4.358598709106445 6.638822555541992
7.392929553985596 -9.054706573486328 2.856099843978882
8.102030754089355 -8.435277938842773 2.857705593109131
12.40257740020752 -2.015629768371582 3.070099353790283
-25.62313461303711 -6.3155517578125 6.13883113861084
-25.336366653442383 -8.45853042602539 6.21350622177124
5.248261451721191 -11.060531616210938 2.8478546142578125
16.583662033081055 -4.087519645690918 3.973142623901367
13.447577476501465 -1.085610270500183 3.1383514404296875
-27.39100456237793 -4.451484203338623 6.131940841674805
-25.197011947631836 -10.735453605651855 6.052023887634277
16.147743225097656 -2.624282121658325 3.6149535179138184
13.18326187133789 -1.064272403717041 2.9225616455078125
-26.461610794067383 -6.52221155166626 5.706167697906494
-25.993934631347656 -8.67806625366211 5.7377214431762695
-25.416053771972656 -10.828774452209473 5.784308433532715
7.392929553985596 -9.054706573486328 2.4474594593048096
13.4331636428833 -1.084448218345642 2.821699857711792
-26.620662689208984 -8.88729476928711 5.552165508270264
-25.28748893737793 -10.774008750915527 5.4378228187561035
10.944677352905273 -5.744218826293945 2.445310354232788
-28.580955505371094 -4.644863128662109 5.3957061767578125
-25.43903350830078 -10.838568687438965 5.152685642242432
-4.333086013793945 -21.224760055541992 4.036646842956543
19.491230010986328 -1.5735009908676147 3.643854856491089
-27.70683479309082 -6.829121112823486 4.990922927856445
-27.195302963256836 -9.079145431518555 5.014497756958008
-0.6938085556030273 -17.216381072998047 3.013572931289673
-26.973339080810547 -9.005034446716309 4.64941930770874
-27.06966781616211 -11.53331470489502 4.810865879058838
-0.6901953220367432 -17.126625061035156 2.8024816513061523
11.7356538772583 -5.000112056732178 2.085681915283203
-25.849716186523438 -8.62990665435791 4.146223545074463
-2.251708984375 -18.544437408447266 2.8421244621276855
-26.10032081604004 -6.433168888092041 3.7855350971221924
-0.6938085556030273 -17.216381072998047 2.426438093185425
-26.42917823791504 -8.823369026184082 3.6093668937683105
-28.995712280273438 -4.712270259857178 3.474832773208618
-4.147675514221191 -20.31666374206543 2.4527814388275146
-23.02814483642578 -9.811371803283691 -0.10401992499828339
-23.030086517333984 -9.812211990356445 -0.3814607262611389
-23.242441177368164 -9.902680397033691 -0.6650620698928833
-14.23167896270752 -24.649993896484375 -0.7492808103561401
-28.14013671875 -4.573173522949219 -1.3832530975341797
-26.11048698425293 -6.435619831085205 -1.3047765493392944
-24.530223846435547 -8.18936538696289 -1.2547650337219238
-14.23167896270752 -24.649993896484375 -1.3810245990753174
1.612978458404541 -13.284037590026855 -0.6492674350738525
2.5792675018310547 -12.6341552734375 -0.6256454586982727
3.7200584411621094 -12.843178749084473 -0.6487577557563782
-28.19620132446289 -4.582290172576904 -1.703492283821106
-24.733612060546875 -8.257265090942383 -1.554972529411316
-14.23167896270752 -24.649993896484375 -1.6973662376403809
1.4980077743530273 -12.337133407592773 -0.7411083579063416
2.4016504287719727 -11.764086723327637 -0.7160018682479858
3.680976390838623 -12.70821762084961 -0.7889849543571472
-28.16706085205078 -4.577548503875732 -2.0193064212799072
-26.11048698425293 -6.435629844665527 -1.9029237031936646
-18.725526809692383 -19.495317459106445 -1.9128178358078003
-14.23167896270752 -24.649993896484375 -2.0141263008117676
3.6558005809783936 -12.6212739944458 -0.9298185706138611
-28.5684757232666 -2.3062939643859863 -2.347599983215332
-28.141942977905273 -4.573471546173096 -2.3352932929992676
-26.11048698425293 -6.435625076293945 -2.2026665210723877
-22.949481964111328 -9.777827262878418 -2.0432517528533936
-24.33895492553711 -15.391615867614746 -2.358736753463745
-18.263534545898438 -22.36875343322754 -2.365309000015259
-14.231689453125 -24.65000343322754 -2.3313822746276855
-12.405302047729492 -26.143617630004883 -2.3702199459075928
-10.26839828491211 -27.075502395629883 -2.371833086013794
-1.1541112661361694 -28.638158798217773 -2.347599983215332
0.4962206780910492 -12.3136568069458 -1.009406566619873
1.3914746046066284 -11.459790229797363 -0.9455439448356628
21.45330047607422 -19.005971908569336 -2.347599983215332
22.913036346435547 -17.21807098388672 -2.347599983215332
27.186307907104492 -9.076128005981445 -2.347599983215332
-25.36294937133789 4.882812390860636e-06 -2.3606491088867188
-25.140966415405273 -2.029594659805298 -2.347599983215332
-24.489824295043945 -6.036201000213623 -2.347599983215332
-22.33365249633789 -11.721586227416992 -2.347599983215332
-21.359804153442383 -13.50710391998291 -2.3521981239318848
-17.58123016357422 -18.30398941040039 -2.3622183799743652
-16.026473999023438 -19.62885284423828 -2.358556032180786
-12.611376762390137 -21.84354019165039 -2.347599983215332
-10.8128023147583 -22.787504196166992 -2.347599983215332
-8.944121360778809 -23.583675384521484 -2.347599983215332
-7.017421722412109 -24.226919174194336 -2.347599983215332
-3.040273427963257 -25.03885269165039 -2.347599983215332
-1.0280370712280273 -25.510141372680664 -2.376276731491089
0.4962206780910492 -12.3136568069458 -1.1470203399658203
1.3914746046066284 -11.459790229797363 -1.0744510889053345
2.271806478500366 -11.12804126739502 -1.057102918624878
13.430048942565918 -23.26157569885254 -2.5
18.606679916381836 -19.371606826782227 -2.5
20.58094596862793 -15.465590476989746 -2.3961269855499268
24.04488182067871 -10.244574546813965 -2.432630777359009
25.450702667236328 -8.496684074401855 -2.497337818145752
26.773046493530273 -2.1613476276397705 -2.5
-23.977596282958984 4.882812390860636e-06 -2.5
-23.52587890625 -1.899208903312683 -2.460880994796753
-22.22434425354004 -3.611806631088257 -2.347599983215332
-19.030254364013672 -12.033988952636719 -2.347599983215332
-16.8533878326416 -14.930795669555664 -2.347599983215332
-15.597333908081055 -16.238529205322266 -2.347599983215332
-12.790497779846191 -18.530229568481445 -2.347599983215332
-6.264316082000732 -21.626937866210938 -2.347599983215332
-2.860956907272339 -23.56197738647461 -2.474709987640381
1.3914746046066284 -11.459790229797363 -1.2036205530166626
2.271796941757202 -11.128031730651855 -1.1841861009597778
3.643915891647339 -12.5802583694458 -1.3655842542648315
10.279004096984863 -21.66256332397461 -2.5
13.620820045471191 -19.73316764831543 -2.5
15.164511680603027 -18.57316780090332 -2.5
16.60986328125 -17.292699813842773 -2.5
17.94746971130371 -15.9000825881958 -2.5
19.168691635131836 -14.40432071685791 -2.5
20.265625 -12.815199851989746 -2.5
22.743621826171875 -7.59292459487915 -2.5
23.66707992553711 -3.8462841510772705 -2.5
23.899805068969727 -1.929384708404541 -2.5
-21.57870101928711 -1.7420263290405273 -2.5
-21.3685245513916 -3.47271466255188 -2.5
-18.000585556030273 -9.44742202758789 -2.347599983215332
-16.252012252807617 -12.212592124938965 -2.347599983215332
-14.082529067993164 -14.661449432373047 -2.347599983215332
-12.857109069824219 -15.747075080871582 -2.347599983215332
-11.548280715942383 -16.7305908203125 -2.347599983215332
-10.164589881896973 -17.605571746826172 -2.347599983215332
-4.330331802368164 -21.211381912231445 -2.5
-2.6094822883605957 -21.491029739379883 -2.5
-0.8717089891433716 -21.63131332397461 -2.5
0.4962206780910492 -12.3136568069458 -1.4231284856796265
1.3914746046066284 -11.459790229797363 -1.3330901861190796
2.271796941757202 -11.128031730651855 -1.3115650415420532
3.643144369125366 -12.577651023864746 -1.512162446975708
5.448681354522705 -14.366938591003418 -1.774393916130066
9.280713081359863 -19.558685302734375 -2.5
17.307050704956055 -13.00539493560791 -2.5
18.29743194580078 -11.57058048248291 -2.5
20.534765243530273 -6.855502605438232 -2.5
21.578691482543945 -1.742006778717041 -2.5
-19.472518920898438 -3.1645898818969727 -2.5
-18.712705612182617 -6.247216701507568 -2.5
-16.89240264892578 -8.865805625915527 -2.41758394241333
-15.819110870361328 -10.003393173217773 -2.371837615966797
-14.80996036529541 -11.128959655761719 -2.347599983215332
-13.86644458770752 -12.284584999084473 -2.347599983215332
-11.716259956359863 -14.349828720092773 -2.347599983215332
-10.647187232971191 -15.425102233886719 -2.375166416168213
-9.557802200317383 -16.554594039916992 -2.422398090362549
-6.995654106140137 -18.445981979370117 -2.5
-3.94610333442688 -19.329280853271484 -2.5
-2.377939462661743 -19.584135055541992 -2.5
-0.7943750023841858 -19.711977005004883 -2.5
0.4962109327316284 -12.3136568069458 -1.561698079109192
1.3914648294448853 -11.459799766540527 -1.462892770767212
5.451171875 -14.373519897460938 -1.9480555057525635
8.457245826721191 -17.823246002197266 -2.5
9.863984107971191 -17.08492660522461 -2.5
13.666034698486328 -14.227866172790527 -2.5
15.77138614654541 -11.85142993927002 -2.5
16.67389678955078 -10.543920516967773 -2.5
19.154726028442383 -4.721210956573486 -2.5
19.472509384155273 -3.1645848751068115 -2.5
-18.11605453491211 1.4648437172581907e-05 -2.5
-18.057313919067383 -1.457739233970642 -2.5
-17.8814640045166 -2.906020402908325 -2.5
-16.040966033935547 -8.418935775756836 -2.5
-11.450722694396973 -14.0245943069458 -2.498539924621582
-9.05801773071289 -15.688949584960938 -2.5
-5.040205001831055 -17.400794982910156 -2.5
-3.623671770095825 -17.74994659423828 -2.5
-0.7294726371765137 -18.10135269165039 -2.5
0.4962206780910492 -12.3136568069458 -1.7006545066833496
7.766220569610596 -16.3669376373291 -2.5
9.058027267456055 -15.688949584960938 -2.5
10.29110336303711 -14.909213066101074 -2.5
12.549443244934082 -13.065336227416992 -2.5
14.48275375366211 -10.883070945739746 -2.5
16.666406631469727 -7.100883483886719 -2.5
17.589637756347656 -4.335444450378418 -2.5
15.32958984375 -1.2375341653823853 -2.1223554611206055
-16.743759155273438 9.765624781721272e-06 -2.5
-16.689462661743164 -1.347314476966858 -2.5
-16.257205963134766 -4.007040977478027 -2.5
-15.403905868530273 -6.562993049621582 -2.5
-14.825878143310547 -7.781215667724609 -2.5
-13.385673522949219 -10.058676719665527 -2.5
-12.532880783081055 -11.103158950805664 -2.5
-10.589521408081055 -12.969789505004883 -2.5
-8.3718843460083 -14.50052261352539 -2.5
-7.177919864654541 -15.127142906188965 -2.5
-5.937421798706055 -15.655678749084473 -2.5
-4.658408164978027 -16.082679748535156 -2.5
-3.349189281463623 -16.405376434326172 -2.5
-2.018251895904541 -16.621673583984375 -2.5
-0.6742089986801147 -16.73017120361328 -2.5
0.6741992235183716 -16.730180740356445 -2.5
2.271796941757202 -11.128031730651855 -1.6957921981811523
3.6391210556030273 -12.56368637084961 -1.952985167503357
5.445058345794678 -14.357426643371582 -2.2926876544952393
7.177919864654541 -15.127153396606445 -2.5
8.371874809265137 -14.50051212310791 -2.5
10.589530944824219 -12.969789505004883 -2.5
11.598817825317383 -12.075629234313965 -2.5
12.532880783081055 -11.1031494140625 -2.5
13.385663986206055 -10.058686256408691 -2.5
14.825868606567383 -7.781205654144287 -2.5
15.88206958770752 -5.302202224731445 -2.5
15.56982421875 -2.530336856842041 -2.355220079421997
15.236464500427246 -1.2300145626068115 -2.2823495864868164
-15.5610933303833 9.765624781721272e-06 -2.5
-15.510624885559082 -1.2521532773971558 -2.5
-14.76025390625 -4.927695274353027 -2.5
-13.778671264648438 -7.231591701507568 -2.5
-13.152060508728027 -8.316850662231445 -2.5
-12.440195083618164 -9.348193168640137 -2.5
-11.647645950317383 -10.318901062011719 -2.5
-9.841543197631836 -12.053695678710938 -2.5
-4.329365253448486 -14.946703910827637 -2.5
-3.1126365661621094 -15.246615409851074 -2.5
-1.8757128715515137 -15.4476318359375 -2.5
1.443056583404541 -11.884496688842773 -1.9233546257019043
2.271796941757202 -11.128031730651855 -1.8246749639511108
6.670937538146973 -14.058656692504883 -2.5
7.780537128448486 -13.476293563842773 -2.5
9.841532707214355 -12.053695678710938 -2.5
10.779541015625 -11.22269058227539 -2.5
11.647645950317383 -10.318910598754883 -2.5
13.778671264648438 -7.231586933135986 -2.5
14.315897941589355 -6.099418640136719 -2.5
13.905467987060547 -4.642309665679932 -2.355220079421997
14.470077514648438 -2.351616144180298 -2.355220079421997
14.612372398376465 -1.1796386241912842 -2.355220079421997
-14.483935356140137 -1.1692626476287842 -2.5
-13.783242225646973 -4.601523399353027 -2.5
-13.368281364440918 -5.695688247680664 -2.5
-12.86660099029541 -6.752904891967773 -2.5
-12.281494140625 -7.766347408294678 -2.5
-11.616738319396973 -8.729413986206055 -2.5
-10.876660346984863 -9.635869026184082 -2.5
-10.066024780273438 -10.479828834533691 -2.5
-8.254599571228027 -11.958832740783691 -2.5
-7.265527248382568 -12.58426284790039 -2.5
-6.229374885559082 -13.128090858459473 -2.5
-5.152782917022705 -13.586762428283691 -2.5
-4.042802810668945 -13.957338333129883 -2.5
-1.7515429258346558 -14.425111770629883 -2.5
-0.5850976705551147 -14.519262313842773 -2.5
2.3044629096984863 -11.2880220413208 -1.9821096658706665
4.042783260345459 -13.957328796386719 -2.5
5.152782917022705 -13.586762428283691 -2.5
6.229355335235596 -13.128080368041992 -2.5
8.254590034484863 -11.958813667297363 -2.5
9.19008731842041 -11.255815505981445 -2.5
10.066024780273438 -10.479809761047363 -2.5
10.876640319824219 -9.6358642578125 -2.5
11.6167573928833 -8.729409217834473 -2.5
12.281494140625 -7.766342639923096 -2.5
12.594091415405273 -5.365834712982178 -2.355220079421997
13.291757583618164 -3.2761034965515137 -2.355220079421997
13.512255668640137 -2.1959619522094727 -2.355220079421997
13.660078048706055 -1.102748990058899 -2.3577988147735596
-13.625693321228027 -9.765624781721272e-06 -2.5
-13.581493377685547 -1.0964062213897705 -2.5
-13.22972583770752 -3.2608349323272705 -2.5
-11.516288757324219 -7.282441139221191 -2.5
-8.617499351501465 -10.554516792297363 -2.5
-6.812851428985596 -11.800180435180664 -2.5
-3.7909178733825684 -13.087709426879883 -2.5
-2.7254881858825684 -13.350297927856445 -2.5
-1.6424120664596558 -13.52633285522461 -2.5
-0.5486523509025574 -13.61461353302002 -2.5
0.5486425757408142 -13.61461353302002 -2.5
1.5961034297943115 -13.145121574401855 -2.4295451641082764
4.831737995147705 -12.740209579467773 -2.5
5.841220378875732 -12.310111999511719 -2.5
6.812822341918945 -11.8001708984375 -2.5
10.892949104309082 -8.185503005981445 -2.5
12.06493091583252 -6.332158088684082 -2.5
11.809393882751465 -5.031508445739746 -2.355220079421997
12.670341491699219 -2.059135675430298 -2.355220079421997
-12.781865119934082 -1.0318554639816284 -2.5
-11.354598999023438 -5.9593505859375 -2.5
-10.838261604309082 -6.853686332702637 -2.5
-10.251601219177246 -7.703578948974609 -2.5
-8.110146522521973 -9.933110237121582 -2.5
-7.284531116485596 -10.553481101989746 -2.5
-6.411718368530273 -11.105414390563965 -2.5
-3.5677146911621094 -12.317152976989746 -2.5
-0.5163671970367432 -12.813041687011719 -2.5
0.5163378715515137 -12.813051223754883 -2.5
1.545693278312683 -12.729955673217773 -2.5
4.547265529632568 -11.990121841430664 -2.5
8.110126495361328 -9.933090209960938 -2.5
8.883105278015137 -9.248286247253418 -2.5
9.598485946655273 -8.503510475158691 -2.5
10.25162124633789 -7.703574180603027 -2.5
11.549726486206055 -4.920874118804932 -2.447535753250122
11.729764938354492 -2.891127824783325 -2.355220079421997
12.781855583190918 -1.0318603515625 -2.5
-12.10750961303711 4.882812390860636e-06 -2.5
-11.950722694396973 -1.9421825408935547 -2.5
-11.755682945251465 -2.897514581680298 -2.5
-11.484423637390137 -3.834062337875366 -2.5
-11.13866138458252 -4.745741844177246 -2.5
-10.720664024353027 -5.626630783081055 -2.5
-9.679266929626465 -7.273490905761719 -2.5
-9.062597274780273 -8.028764724731445 -2.5
-8.387177467346191 -8.73196792602539 -2.5
-7.657353401184082 -9.378544807434082 -2.5
-6.877861022949219 -9.964282035827637 -2.5
-5.190410137176514 -10.938539505004883 -2.5
-4.293398380279541 -11.320717811584473 -2.5
-3.3685154914855957 -11.629477500915527 -2.5
-1.4593944549560547 -12.0192232131958 -2.5
-0.4875195324420929 -12.09768009185791 -2.5
0.48750975728034973 -12.09769058227539 -2.5
1.459375023841858 -12.019232749938965 -2.5
3.368525266647339 -11.629477500915527 -2.5
4.293378829956055 -11.320717811584473 -2.5
5.190400123596191 -10.938520431518555 -2.5
8.387167930603027 -8.73196792602539 -2.5
10.720673561096191 -5.626635551452637 -2.5
11.13866138458252 -4.745737075805664 -2.5
11.187792778015137 -3.7350292205810547 -2.4354281425476074
11.599775314331055 -2.859086751937866 -2.4668431282043457
11.950712203979492 -1.9421874284744263 -2.5
-11.427352905273438 -0.9225195050239563 -2.5
-11.316044807434082 -1.839028239250183 -2.5
-11.131386756896973 -2.743642568588257 -2.5
-10.874521255493164 -3.630449056625366 -2.5
-9.689706802368164 -6.127382755279541 -2.5
-7.941747665405273 -8.268227577209473 -2.5
-7.250683307647705 -8.880463600158691 -2.5
-6.512578010559082 -9.435107231140137 -2.5
-5.723359107971191 -9.913159370422363 -2.4961235523223877
-4.065361022949219 -10.71950626373291 -2.5
-3.189628839492798 -11.011869430541992 -2.5
-1.3729394674301147 -11.3067626953125 -2.4837019443511963
-0.4616406261920929 -11.455209732055664 -2.5
1.3818846940994263 -11.380932807922363 -2.5
2.2931933403015137 -11.232816696166992 -2.5
4.065351486206055 -10.71950626373291 -2.5
5.732245922088623 -9.928559303283691 -2.5
8.581317901611328 -7.602367877960205 -2.5
10.151318550109863 -5.327826976776123 -2.5
10.547119140625 -4.493705749511719 -2.5
10.874491691589355 -3.6304540634155273 -2.5
11.131366729736328 -2.7436375617980957 -2.5
11.316054344177246 -1.8390380144119263 -2.5
11.42733383178711 -0.9225097298622131 -2.5
-10.883720397949219 0.0 -2.5
-10.742753982543945 -1.7458642721176147 -2.5
-9.637041091918945 -5.057909965515137 -2.5
-9.1987886428833 -5.816957950592041 -2.5
-8.146562576293945 -7.217216491699219 -2.5
-6.883359432220459 -8.430561065673828 -2.5
-4.665761470794678 -9.8328857421875 -2.5
-0.43825194239616394 -10.874868392944336 -2.5
2.177011728286743 -10.663744926452637 -2.5
3.0280370712280273 -10.4539794921875 -2.5
3.8594138622283936 -10.176430702209473 -2.5
4.665771484375 -9.832876205444336 -2.5
6.182636737823486 -8.957104682922363 -2.5
7.539413928985596 -7.849350452423096 -2.5
8.700888633728027 -6.538300514221191 -2.5
9.198798179626465 -5.816957950592041 -2.5
10.567431449890137 -2.604624032974243 -2.5
-10.35634708404541 1.4648437172581907e-05 -2.5
-10.222235679626465 -1.6612695455551147 -2.5
-10.055419921875 -2.4784326553344727 -2.5
-8.279335975646973 -6.221508502960205 -2.5
-7.751855373382568 -6.867538928985596 -2.5
-7.174111366271973 -7.46902322769165 -2.5
-5.178173542022705 -8.968867301940918 -2.5
-3.67242169380188 -9.683363914489746 -2.5
-2.8813281059265137 -9.947465896606445 -2.5
0.41701170802116394 -10.347953796386719 -2.5
1.248329997062683 -10.280824661254883 -2.5
2.8813085556030273 -9.947465896606445 -2.5
3.6724021434783936 -9.683354377746582 -2.5
4.439697265625 -9.3564453125 -2.5
5.178164005279541 -8.9688720703125 -2.5
7.174091815948486 -7.469027996063232 -2.5
7.75182580947876 -6.867538928985596 -2.5
8.279306411743164 -6.221488952636719 -2.5
9.170097351074219 -4.812836647033691 -2.5
9.527626991271973 -4.059340953826904 -2.5
9.823378562927246 -3.2795214653015137 -2.5
10.322763442993164 -0.8333446979522705 -2.5
-9.875311851501465 0.0 -2.5
-9.747431755065918 -1.5841064453125 -2.5
-9.588349342346191 -2.3633153438568115 -2.5
-8.744150161743164 -4.589277267456055 -2.5
-7.391757488250732 -6.548530101776123 -2.5
-6.24560546875 -7.649462699890137 -2.5
-5.609814167022705 -8.12722110748291 -2.5
-4.233496189117432 -8.921850204467773 -2.5
-3.501826047897339 -9.233559608459473 -2.5
-2.7474803924560547 -9.485400199890137 -2.5
-1.9753222465515137 -9.675726890563965 -2.5
-1.1903417110443115 -9.803305625915527 -2.5
-0.39765623211860657 -9.867289543151855 -2.5
0.39762693643569946 -9.867289543151855 -2.5
1.1903222799301147 -9.803296089172363 -2.5
1.9753026962280273 -9.675726890563965 -2.5
3.501826047897339 -9.233569145202637 -2.5
4.233447074890137 -8.921845436096191 -2.5
4.937636375427246 -8.552265167236328 -2.5
6.245575904846191 -7.649447917938232 -2.5
6.840878963470459 -7.122084617614746 -2.5
7.894736289978027 -5.932514667510986 -2.5
8.346503257751465 -5.278002738952637 -2.5
8.744140625 -4.589282035827637 -2.5
9.843271255493164 -0.794628918170929 -2.5
-9.404013633728027 -0.7591796517372131 -2.5
-9.312440872192383 -1.5134130716323853 -2.5
-9.160449028015137 -2.2578465938568115 -2.5
-8.94906234741211 -2.9876365661621094 -2.5
-5.966884613037109 -7.308090686798096 -2.5
-5.359462738037109 -7.7645263671875 -2.5
-3.3455662727355957 -8.82149887084961 -2.5
-2.624872922897339 -9.062104225158691 -2.5
-1.8871581554412842 -9.24393081665039 -2.5
-1.1372363567352295 -9.36581039428711 -2.5
-0.37990233302116394 -9.426947593688965 -2.5
3.3455467224121094 -8.821503639221191 -2.5
4.717294692993164 -8.170610427856445 -2.5
6.535575866699219 -6.804252624511719 -2.5
7.542411804199219 -5.667758464813232 -2.5
7.974032878875732 -5.042465686798096 -2.5
9.403993606567383 -0.75916987657547 -2.5
-9.029296875 0.0 -2.5
-9.000019073486328 -0.7265625 -2.5
-7.995038986206055 -4.196108341217041 -2.5
-7.631454944610596 -4.825825214385986 -2.5
-5.129209041595459 -7.430942058563232 -2.5
-4.5146484375 -7.81957483291626 -2.5
-3.870790958404541 -8.157500267028809 -2.5
-2.5121092796325684 -8.6727876663208 -2.5
-1.08837890625 -8.963441848754883 -2.5
0.36357420682907104 -9.021947860717773 -2.5
1.0883691310882568 -8.963441848754883 -2.5
3.2018260955810547 -8.442514419555664 -2.5
3.870790958404541 -8.15749454498291 -2.5
4.514638423919678 -7.81957483291626 -2.5
5.129209041595459 -7.430947303771973 -2.5
5.710527420043945 -6.994125843048096 -2.5
6.254794597625732 -6.511933326721191 -2.5
6.758515357971191 -5.987514495849609 -2.5
7.631435394287109 -4.825844764709473 -2.5
8.306737899780273 -3.539179563522339 -2.5
8.766894340515137 -2.160844564437866 -2.5
8.999990463256836 -0.7265576124191284 -2.5
-8.655156135559082 4.882812390860636e-06 -2.5
-8.543075561523438 -1.3883788585662842 -2.5
-8.403642654418945 -2.0713086128234863 -2.5
-8.209726333618164 -2.7408056259155273 -2.5
-7.663759708404541 -4.022236347198486 -2.5
-7.315244197845459 -4.625869274139404 -2.5
-6.91930627822876 -5.199511528015137 -2.5
-6.478486061096191 -5.739428520202637 -2.5
-5.995644569396973 -6.242114067077637 -2.5
-5.473925590515137 -6.704330921173096 -2.5
-4.916689395904541 -7.123051643371582 -2.5
-4.327587604522705 -7.495580673217773 -2.5
-3.06915020942688 -8.092700004577637 -2.5
-1.7312499284744263 -8.480229377746582 -2.5
-0.3485156297683716 -8.648138999938965 -2.5
0.3485058546066284 -8.648134231567383 -2.5
3.710390567779541 -7.819506645202637 -2.5
4.916679382324219 -7.123051643371582 -2.5
5.99563455581665 -6.242114067077637 -2.5
6.919286727905273 -5.199516296386719 -2.5
7.315253734588623 -4.625874042510986 -2.5
8.40365219116211 -2.0713133811950684 -2.5
8.543075561523438 -1.3883739709854126 -2.5
8.627089500427246 -0.6964501738548279 -2.5
-8.30868148803711 4.882812390860636e-06 -2.5
-7.643808364868164 -3.256723642349243 -2.5
-5.254804611206055 -6.435946941375732 -2.5
-4.154335975646973 -7.195522308349609 -2.5
-3.561884641647339 -7.506474494934082 -2.5
-1.0014843940734863 -8.248090744018555 -2.5
-0.3345703184604645 -8.301947593688965 -2.5
0.3345410227775574 -8.3019380569458 -2.5
2.9462890625 -7.768744945526123 -2.5
3.5618748664855957 -7.5064697265625 -2.5
4.15432596206665 -7.195537090301514 -2.5
6.219130516052246 -5.509677410125732 -2.5
6.642314434051514 -4.99136209487915 -2.5
8.281718254089355 -0.6685791015625 -2.5
-5.532665729522705 -5.760102272033691 -2.5
-3.993398427963257 -6.916772365570068 -2.5
-3.42388653755188 -7.215688228607178 -2.5
-2.832167863845825 -7.467787742614746 -2.5
-2.2220702171325684 -7.671474456787109 -2.5
-0.9627148509025574 -7.92858362197876 -2.5
-0.3215917944908142 -7.980327129364014 -2.5
0.32161131501197815 -7.980327129364014 -2.5
2.2220702171325684 -7.671479225158691 -2.5
2.832167863845825 -7.467797756195068 -2.5
3.9933886528015137 -6.916781902313232 -2.5
5.532646179199219 -5.760112285614014 -2.5
6.384990215301514 -4.798022270202637 -2.5
6.75036096572876 -4.2686767578125 -2.5
7.754726409912109 -1.9113720655441284 -2.5
7.960907936096191 -0.6426708698272705 -2.5
-7.463583946228027 -1.839599609375 -2.5
-7.071865081787109 -3.0130369663238525 -2.5
-6.806464672088623 -3.5723094940185547 -2.5
-6.49694299697876 -4.108413219451904 -2.5
-5.753788948059082 -5.097402095794678 -2.5
-4.366679668426514 -6.326235294342041 -2.5
-3.8434765338897705 -6.65709924697876 -2.5
-2.725830078125 -7.187426567077637 -2.5
-2.138662099838257 -7.383461952209473 -2.5
-1.53759765625 -7.53161096572876 -2.5
-0.3095410168170929 -7.680737018585205 -2.5
0.30952146649360657 -7.680732250213623 -2.5
0.9265429377555847 -7.630918025970459 -2.5
1.5375781059265137 -7.5316162109375 -2.5
2.725839853286743 -7.187436580657959 -2.5
3.8434765338897705 -6.6571044921875 -2.5
5.753769397735596 -5.097392559051514 -2.5
6.14529275894165 -4.617876052856445 -2.5
7.291357040405273 -2.4342236518859863 -2.5
7.463603496551514 -1.8396044969558716 -2.5
7.58743143081665 -1.233071208000183 -2.5
7.662021160125732 -0.6185497641563416 -2.5
-7.310956954956055 -1.188134789466858 -2.5
-6.558456897735596 -3.442143440246582 -2.5
-6.260224342346191 -3.9587156772613525 -2.5
-5.921376705169678 -4.449624061584473 -2.5
-5.130918025970459 -5.341850280761719 -2.5
-4.684453010559082 -5.737402439117432 -2.5
-4.207578182220459 -6.09573221206665 -2.5
-3.7034568786621094 -6.414535999298096 -2.5
-2.6265039443969727 -6.925537109375 -2.5
-1.4815722703933716 -7.257182598114014 -2.5
-0.8928124904632568 -7.352866172790527 -2.5
0.2982519567012787 -7.400859355926514 -2.5
1.4815624952316284 -7.257182598114014 -2.5
2.0607128143310547 -7.114428520202637 -2.5
2.626513719558716 -6.925546646118164 -2.5
3.70342755317688 -6.414535999298096 -2.5
4.207578182220459 -6.09573221206665 -2.5
5.544120788574219 -4.911664962768555 -2.5
5.921357154846191 -4.449624061584473 -2.5
6.260204792022705 -3.9587156772613525 -2.5
7.025683403015137 -2.345517635345459 -2.5
7.191650390625 -1.7725732326507568 -2.5
7.382851600646973 -0.5960009694099426 -2.5
-7.144579887390137 4.882812390860636e-06 -2.5
-7.121435165405273 -0.5748974680900574 -2.5
-7.052070140838623 -1.1460692882537842 -2.5
-6.936972618103027 -1.7098095417022705 -2.5
-6.572880744934082 -2.8004345893859863 -2.5
-6.326220512390137 -3.32024884223938 -2.5
-5.711679458618164 -4.292045593261719 -2.5
-5.347812175750732 -4.737734317779541 -2.5
-4.518564224243164 -5.534223556518555 -2.5
-4.058574199676514 -5.87987756729126 -2.5
-2.533505916595459 -6.6802978515625 -2.5
-1.429101586341858 -7.000190258026123 -2.5
-0.2876855432987213 -7.1387939453125 -2.5
2.533505916595459 -6.680307388305664 -2.5
3.0628318786621094 -6.454780101776123 -2.5
4.058574199676514 -5.8798828125 -2.5
4.949228286743164 -5.152699947357178 -2.5
5.711689472198486 -4.292045593261719 -2.5
6.038535118103027 -3.818535089492798 -2.5
6.326210975646973 -3.320258617401123 -2.5
6.572861194610596 -2.8004443645477295 -2.5
6.936982154846191 -1.7098095417022705 -2.5
7.121406078338623 -0.5748974680900574 -2.5
-6.898417949676514 4.882812390860636e-06 -2.5
-6.876035213470459 -0.5550829768180847 -2.5
-6.697968482971191 -1.6509032249450684 -2.5
-6.346396446228027 -2.7039403915405273 -2.5
-5.830468654632568 -3.686962842941284 -2.5
-5.514892578125 -4.1441650390625 -2.5
-4.778700828552246 -4.975146293640137 -2.5
-3.9187400341033936 -5.677279949188232 -2.5
-1.9192577600479126 -6.626044750213623 -2.5
0.8315136432647705 -6.848110198974609 -2.5
1.3798534870147705 -6.758994102478027 -2.5
2.4462108612060547 -6.450121879577637 -2.5
2.957285165786743 -6.232367992401123 -2.5
3.449208974838257 -5.974199295043945 -2.5
3.9187498092651367 -5.677270412445068 -2.5
5.163544654846191 -4.574487209320068 -2.5
6.697939395904541 -1.6508935689926147 -2.5
6.809062480926514 -1.1065869331359863 -2.5
-6.666835784912109 4.882812390860636e-06 -2.5
-6.645224571228027 -0.5364599227905273 -2.5
-6.133359432220459 -2.613173723220825 -2.5
-5.90319299697876 -3.0982275009155273 -2.5
-1.854824185371399 -6.403617858886719 -2.5
-1.333535075187683 -6.532109260559082 -2.5
-0.8035839796066284 -6.618217468261719 -2.5
-0.2684570252895355 -6.661430358886719 -2.5
0.8035937547683716 -6.618227481842041 -2.5
1.3335546255111694 -6.53209924697876 -2.5
1.854824185371399 -6.403617858886719 -2.5
2.8580174446105957 -6.023154258728027 -2.5
4.216396331787109 -5.164174556732178 -2.5
5.329745769500732 -4.005053520202637 -2.5
5.903183460235596 -3.0982322692871094 -2.5
6.323740005493164 -2.1111669540405273 -2.5
6.473105430603027 -1.5954785346984863 -2.5
6.580507755279541 -1.069433569908142 -2.5
6.645224571228027 -0.5364550948143005 -2.5
-6.365048885345459 -1.0344091653823853 -2.5
-6.261181354522705 -1.543237328529358 -2.5
-6.11669921875 -2.042050838470459 -2.5
-5.1552734375 -3.8739306926727295 -2.5
-4.826826095581055 -4.276181697845459 -2.5
-4.078378677368164 -4.995092868804932 -2.5
-3.2242772579193115 -5.584614276885986 -2.5
-2.286699056625366 -6.029506683349609 -2.5
-1.7940917015075684 -6.193959712982178 -2.5
-1.289892554283142 -6.318242073059082 -2.5
-0.7773046493530273 -6.401547908782959 -2.5
0.25965818762779236 -6.443325042724609 -2.5
0.7772851586341858 -6.401542663574219 -2.5
1.289892554283142 -6.3182373046875 -2.5
1.7941112518310547 -6.193950176239014 -2.5
3.6631932258605957 -5.307065486907959 -2.5
4.078359127044678 -4.995082855224609 -2.5
4.467080116271973 -4.650712966918945 -2.5
5.450263500213623 -3.446528196334839 -2.5
6.116679668426514 -2.042055606842041 -2.5
6.261171817779541 -1.54324209690094 -2.5
6.427656173706055 -0.5188866853713989 -2.5
-6.161601543426514 -1.0013574361801147 -2.5
-6.06103515625 -1.4939062595367432 -2.5
-5.921162128448486 -1.9767773151397705 -2.5
-5.742900371551514 -2.4468212127685547 -2.5
-5.527382850646973 -2.900991201400757 -2.5
-5.276034832000732 -3.336357355117798 -2.5
-4.324286937713623 -4.502045631408691 -2.5
-3.947988271713257 -4.835405349731445 -2.5
-3.5461034774780273 -5.137407302856445 -2.5
-2.676084041595459 -5.639707088470459 -2.5
-2.2135937213897705 -5.836762428283691 -2.5
-0.2513671815395355 -6.237348556518555 -2.5
0.7524316310882568 -6.1968994140625 -2.5
2.2135839462280273 -5.836752891540527 -2.5
2.6760644912719727 -5.639711856842041 -2.5
3.1211912631988525 -5.406093597412109 -2.5
3.546083927154541 -5.137412071228027 -2.5
4.324267387390137 -4.502045631408691 -2.5
4.672509670257568 -4.139487266540527 -2.5
5.52737283706665 -2.9010009765625 -2.5
5.742890357971191 -2.4468164443969727 -2.5
6.061025142669678 -1.4939013719558716 -2.5
6.161571979522705 -1.0013574361801147 -2.5
-6.047372817993164 4.882812390860636e-06 -2.5
-6.027773380279541 -0.4866064488887787 -2.5
-5.969062328338623 -0.9700683355331421 -2.5
-5.736152172088623 -1.915004849433899 -2.5
-5.563457012176514 -2.370366096496582 -2.5
-4.834531307220459 -3.6329100131988525 -2.5
-4.526533126831055 -4.010151386260986 -2.5
-3.435312509536743 -4.976894378662109 -2.5
-3.023691415786743 -5.237187385559082 -2.5
-1.2096385955810547 -5.925160884857178 -2.5
0.24347655475139618 -6.042470455169678 -2.5
0.7289257645606995 -6.003281116485596 -2.5
1.682470679283142 -5.808608055114746 -2.5
2.1444334983825684 -5.654394626617432 -2.5
3.023681640625 -5.237172603607178 -2.5
3.4352831840515137 -4.976889610290527 -2.5
4.189169883728027 -4.361376762390137 -2.5
5.111171722412109 -3.232109308242798 -2.5
5.354658126831055 -2.810366153717041 -2.5
5.969052791595459 -0.9700732231140137 -2.5
6.027763366699219 -0.4866064488887787 -2.5
-5.786601543426514 -0.9404052495956421 -2.5
-5.69216775894165 -1.40298330783844 -2.5
-5.393408298492432 -2.297914981842041 -2.5
-5.191005706787109 -2.724433422088623 -2.5
-3.7077343463897705 -4.5411376953125 -2.5
-2.931269407272339 -5.077085018157959 -2.5
-2.513232469558716 -5.296494007110596 -2.5
-1.6310546398162842 -5.631049633026123 -2.5
-1.1726561784744263 -5.744038105010986 -2.5
-0.7066503763198853 -5.819760799407959 -2.5
-0.2360546886920929 -5.857758522033691 -2.5
0.23604491353034973 -5.857758522033691 -2.5
1.1726561784744263 -5.744038105010986 -2.5
1.631044864654541 -5.631059646606445 -2.5
2.0788867473602295 -5.481547832489014 -2.5
2.5132031440734863 -5.296494007110596 -2.5
3.330273389816284 -4.824760437011719 -2.5
3.707714796066284 -4.5411376953125 -2.5
5.560800552368164 -1.8564696311950684 -2.5
5.786591529846191 -0.9404150247573853 -2.5
5.843515396118164 -0.4717333912849426 -2.5
-5.668593406677246 -0.4576171636581421 -2.5
-5.61339807510376 -0.9122607111930847 -2.5
-5.231953144073486 -2.229130744934082 -2.5
-5.035624980926514 -2.642890453338623 -2.5
-4.806621074676514 -3.0395214557647705 -2.5
-4.546445369720459 -3.4164257049560547 -2.5
-4.256806373596191 -3.771191358566284 -2.5
-3.9395408630371094 -4.101484298706055 -2.5
-3.59673810005188 -4.405190467834473 -2.5
-3.230605363845825 -4.68032693862915 -2.5
-2.43798828125 -5.137934684753418 -2.5
-1.137548804283142 -5.572094440460205 -2.5
-0.685498058795929 -5.645556449890137 -2.5
-0.22899413108825684 -5.682406902313232 -2.5
0.22899413108825684 -5.682406902313232 -2.5
1.137539029121399 -5.572084903717041 -2.5
2.4379687309265137 -5.137944221496582 -2.5
4.256806373596191 -3.771191358566284 -2.5
4.806621074676514 -3.0395116806030273 -2.5
5.231943130493164 -2.2291259765625 -2.5
5.394345760345459 -1.8008935451507568 -2.5
5.52175760269165 -1.3609912395477295 -2.5
5.66857385635376 -0.4576123058795929 -2.5
-5.448671817779541 -0.8854882717132568 -2.5
-5.078447341918945 -2.1637256145477295 -2.5
-4.887851238250732 -2.5653369426727295 -2.5
-4.413056373596191 -3.3161864280700684 -2.5
-4.131894588470459 -3.6605420112609863 -2.5
-3.491220712661743 -4.275942325592041 -2.5
-3.135810375213623 -4.54299783706665 -2.5
-2.366455078125 -4.987187385559082 -2.5
-1.1041698455810547 -5.408593654632568 -2.5
-0.6653906106948853 -5.479907035827637 -2.5
0.6653808355331421 -5.479907035827637 -2.5
2.3664355278015137 -4.987192153930664 -2.5
3.13580060005188 -4.543002605438232 -2.5
3.8239355087280273 -3.981157064437866 -2.5
4.413046836853027 -3.3161864280700684 -2.5
4.665585994720459 -2.950327157974243 -2.5
4.887851238250732 -2.5653369426727295 -2.5
5.078417778015137 -2.1637256145477295 -2.5
-5.361279010772705 4.882812390860636e-06 -2.5
-5.085361003875732 -1.6977392435073853 -2.5
-4.747177600860596 -2.4914989471435547 -2.5
-4.53127908706665 -2.865405321121216 -2.5
-4.286035060882568 -3.2207372188568115 -2.5
-4.01296854019165 -3.555170774459839 -2.5
-2.6806249618530273 -4.642983436584473 -2.5
-2.298349618911743 -4.843637466430664 -2.5
-1.9011424779891968 -5.012870788574219 -2.5
-1.4915820360183716 -5.149589538574219 -2.5
-1.0723925828933716 -5.252914905548096 -2.5
-0.6462500095367432 -5.322182655334473 -2.5
1.072363257408142 -5.252924919128418 -2.5
1.9011328220367432 -5.012870788574219 -2.5
2.6806249618530273 -4.642992973327637 -2.5
3.7138671875 -3.8665623664855957 -2.5
4.286035060882568 -3.2207372188568115 -2.5
4.53127908706665 -2.865405321121216 -2.5
4.932255744934082 -2.101430654525757 -2.5
5.205468654632568 -1.2830370664596558 -2.5
5.291835784912109 -0.8600048422813416 -2.5
