ply
format ascii 1.0
element vertex 714
property float x
property float y
property float z
end_header
-11.688085556030273 -24.63212776184082 2.0052146911621094
-11.70992660522461 -24.678163528442383 1.7048656940460205
7.339467525482178 -25.338748931884766 1.6464992761611938
-11.709931373596191 -24.678163528442383 1.4011895656585693
7.309101581573486 -25.233905792236328 1.347619652748108
7.344902038574219 -25.357519149780273 1.0610555410385132
-0.5945751667022705 -14.75429630279541 0.1022702008485794
-0.6010839939117432 -14.915815353393555 -0.062035366892814636
0.6542822122573853 -16.235918045043945 -0.06752563267946243
1.9713329076766968 -16.235380172729492 -0.06796447932720184
-0.6010839939117432 -14.915815353393555 -0.22747404873371124
1.9713329076766968 -16.235380172729492 -0.2492143213748932
-0.6010839939117432 -14.915815353393555 -0.39296844601631165
1.9713329076766968 -16.235380172729492 -0.43052536249160767
-0.6010839939117432 -14.915815353393555 -0.558563232421875
0.6542822122573853 -16.235918045043945 -0.6079978942871094
1.9713329076766968 -16.235380172729492 -0.6119464039802551
-0.6010839939117432 -14.915815353393555 -0.7242933511734009
0.6542822122573853 -16.235918045043945 -0.7883957028388977
-12.45042896270752 -12.962285041809082 -1.0717990398406982
-0.6010839939117432 -14.915815353393555 -0.8902022838592529
0.6542822122573853 -16.235918045043945 -0.9689881801605225
1.9713329076766968 -16.235380172729492 -0.9752810597419739
18.942630767822266 -6.323974609375 -1.1908994913101196
-18.898529052734375 -6.309252738952637 -1.4098542928695679
-11.098520278930664 -13.593236923217773 -1.241774320602417
-0.6010839939117432 -14.915815353393555 -1.0563266277313232
0.6542822122573853 -16.235918045043945 -1.1498185396194458
1.9713329076766968 -16.235380172729492 -1.1572864055633545
10.778193473815918 -15.61489200592041 -1.342604160308838
22.153427124023438 -19.626220703125 -2.0943193435668945
-17.72793197631836 -7.553164005279541 -1.5783660411834717
-22.913087844848633 -17.218090057373047 -2.347599983215332
-12.282538414001465 -12.7874755859375 -1.4522969722747803
-8.046957969665527 -16.958642959594727 -1.5375301837921143
-10.26248550415039 -27.0599308013916 -2.370474100112915
-8.061474800109863 -27.8314151763916 -2.3733272552490234
-5.801117897033691 -28.415740966796875 -2.3754913806915283
-0.6010839939117432 -14.915815353393555 -1.2227197885513306
0.6542822122573853 -16.235918045043945 -1.3309355974197388
1.9713329076766968 -16.235380172729492 -1.3395789861679077
10.262368202209473 -27.05963897705078 -2.370448350906372
9.679121017456055 -20.398353576660156 -1.8493479490280151
14.42409610748291 -24.98324203491211 -2.362903356552124
21.453304290771484 -19.005990982055664 -2.347599983215332
-26.77305793762207 -2.1613523960113525 -2.5
-26.512319564819336 -4.308686256408691 -2.5
-18.417905807495117 -6.14879846572876 -1.807247281074524
-22.68708610534668 -14.346464157104492 -2.4983649253845215
-12.631139755249023 -21.877782821655273 -2.3512778282165527
-8.037734031677246 -16.9392032623291 -1.7450997829437256
-8.983672142028809 -23.68798828125 -2.3579814434051514
1.9713329076766968 -16.235380172729492 -1.5222010612487793
5.076894283294678 -24.86825180053711 -2.36234450340271
9.793618202209473 -20.63966178894043 -2.1263253688812256
12.63124942779541 -21.87796401977539 -2.3512988090515137
15.441561698913574 -16.07638168334961 -2.074733018875122
18.879497528076172 -16.72579002380371 -2.347599983215332
20.16415023803711 -15.152377128601074 -2.347599983215332
24.71079444885254 -10.528281211853027 -2.5
17.44171905517578 -5.822900295257568 -1.7114592790603638
26.079647064208984 -6.428061485290527 -2.5
26.5123233795166 -4.308676719665527 -2.5
-23.977596282958984 4.882812390860636e-06 -2.5
-23.89984130859375 -1.9294042587280273 -2.5
-23.28081703186035 -5.738232135772705 -2.5
-18.367490768432617 -6.131967544555664 -2.0189738273620605
-17.530832290649414 -7.469193935394287 -1.9868236780166626
-21.2310791015625 -11.14293384552002 -2.5
-14.306010246276855 -12.674028396606445 -1.9927620887756348
-10.563417434692383 -12.937846183776855 -1.7414721250534058
-7.598881721496582 -16.014310836791992 -1.848157286643982
-0.6010839939117432 -14.915815353393555 -1.556447148323059
0.6542870998382568 -16.235918045043945 -1.6941980123519897
1.9713329076766968 -16.235380172729492 -1.7051998376846313
4.512421607971191 -22.103240966796875 -2.352109909057617
6.271909236907959 -21.653114318847656 -2.350442886352539
7.986435413360596 -21.05848503112793 -2.3482420444488525
11.257948875427246 -19.499345779418945 -2.347599983215332
14.219599723815918 -17.41585350036621 -2.344223976135254
16.8533878326416 -14.930814743041992 -2.347599983215332
18.928783416748047 -14.224052429199219 -2.46871018409729
21.2310791015625 -11.142929077148438 -2.5
23.280824661254883 -5.738217830657959 -2.5
23.66706085205078 -3.8462841510772705 -2.5
23.89982795715332 -1.9293993711471558 -2.5
-21.648893356323242 1.4648437172581907e-05 -2.5
-21.578691482543945 -1.742006778717041 -2.5
-21.368541717529297 -3.472734212875366 -2.5
-19.916532516479492 -8.485644340515137 -2.5
-18.29742431640625 -11.570605278015137 -2.5
-17.307050704956055 -13.005410194396973 -2.5
-14.313737869262695 -12.680878639221191 -2.2083075046539307
-12.176772117614746 -12.6773681640625 -2.0299072265625
-10.164589881896973 -17.605581283569336 -2.347599983215332
-6.492519378662109 -17.119354248046875 -2.1143300533294678
-2.4504148960113525 -20.18096160888672 -2.347599983215332
-0.6010839939117432 -14.915815353393555 -1.7238661050796509
4.066367149353027 -19.918338775634766 -2.347599983215332
5.655937194824219 -19.526546478271484 -2.347599983215332
8.7149658203125 -18.366405487060547 -2.347599983215332
12.857094764709473 -15.747089385986328 -2.347599983215332
16.176605224609375 -14.331230163574219 -2.4957079887390137
17.30706024169922 -13.00540542602539 -2.5
18.297426223754883 -11.570605278015137 -2.5
19.169145584106445 -10.060742378234863 -2.5
17.369462966918945 -7.400429725646973 -2.180280923843384
21.368549346923828 -3.472729444503784 -2.5
21.57870101928711 -1.7420214414596558 -2.5
-19.72797966003418 4.882812390860636e-06 -2.5
-18.712705612182617 -6.247226238250732 -2.5
-17.4682559967041 -9.168046951293945 -2.5
-16.673887252807617 -10.543940544128418 -2.5
-10.6228609085083 -13.010648727416992 -2.1285104751586914
-6.375839710235596 -16.81169891357422 -2.278503656387329
-2.232983350753784 -18.390296936035156 -2.347599983215332
-0.6010791063308716 -14.915815353393555 -1.8917185068130493
0.7459423542022705 -18.51034164428711 -2.347599983215332
3.7055516242980957 -18.150981903076172 -2.347599983215332
5.15408182144165 -17.7939453125 -2.347599983215332
9.262685775756836 -16.043437957763672 -2.347599983215332
12.014657974243164 -14.71529769897461 -2.407386302947998
14.7666015625 -13.082079887390137 -2.5
15.771395683288574 -11.8514404296875 -2.5
16.673891067504883 -10.5439453125 -2.5
18.14934539794922 -7.732705116271973 -2.5
18.712709426879883 -6.247226238250732 -2.5
19.154720306396484 -4.72122049331665 -2.5
-18.05730438232422 -1.4577343463897705 -2.5
-17.881454467773438 -2.9060254096984863 -2.5
-17.589628219604492 -4.335473537445068 -2.5
-16.04096794128418 -8.418950080871582 -2.5
-14.482744216918945 -10.883085250854492 -2.5
-13.56005859375 -12.013168334960938 -2.5
-11.457416534423828 -14.032787322998047 -2.5
-7.292778015136719 -15.369233131408691 -2.347599983215332
-4.732954025268555 -16.340044021606445 -2.347599983215332
-3.402778148651123 -16.667905807495117 -2.347599983215332
-2.050532102584839 -16.887670516967773 -2.347599983215332
0.6849951148033142 -16.997905731201172 -2.347599983215332
4.732958793640137 -16.34004783630371 -2.347599983215332
6.032436370849609 -15.90621566772461 -2.347599983215332
8.505854606628418 -14.73256778717041 -2.347599983215332
10.149794578552246 -14.704506874084473 -2.465672492980957
11.457406997680664 -14.032793045043945 -2.5
12.549423217773438 -13.065346717834473 -2.5
15.311508178710938 -9.682421684265137 -2.5
16.040971755981445 -8.418950080871582 -2.5
17.183740615844727 -5.736777305603027 -2.5
18.057313919067383 -1.457739233970642 -2.5
-16.743757247924805 4.882812390860636e-06 -2.5
-16.68946075439453 -1.347314476966858 -2.5
-16.526927947998047 -2.6858885288238525 -2.5
-15.882036209106445 -5.302206993103027 -2.5
-13.38567066192627 -10.058686256408691 -2.5
-11.598803520202637 -12.075644493103027 -2.5
-9.511548042297363 -13.779838562011719 -2.5
-8.358925819396973 -14.478099822998047 -2.49613356590271
-6.980400085449219 -14.710898399353027 -2.4312055110931396
-5.585693359375 -14.728281021118164 -2.3519065380096436
-1.895205020904541 -15.608417510986328 -2.347599983215332
-0.6010839939117432 -14.915815353393555 -2.228879690170288
0.633105456829071 -15.710302352905273 -2.347599983215332
4.374443054199219 -15.102279663085938 -2.347599983215332
5.585737228393555 -14.728276252746582 -2.3519046306610107
6.980395317077637 -14.710883140563965 -2.431203842163086
8.358930587768555 -14.478095054626465 -2.49613356590271
12.532876014709473 -11.103168487548828 -2.5
13.385673522949219 -10.058686256408691 -2.5
14.825868606567383 -7.781210899353027 -2.5
15.403915405273438 -6.56298828125 -2.5
16.526927947998047 -2.6858935356140137 -2.5
-15.56108570098877 9.765624781721272e-06 -2.5
-15.359572410583496 -2.4961767196655273 -2.5
-14.760258674621582 -4.927695274353027 -2.5
-14.315878868103027 -6.099428653717041 -2.5
-13.77865982055664 -7.231601238250732 -2.5
-13.152074813842773 -8.316879272460938 -2.5
-12.440195083618164 -9.348207473754883 -2.5
-11.6476411819458 -10.318915367126465 -2.5
-9.841537475585938 -12.05370044708252 -2.5
-6.670917987823486 -14.058676719665527 -2.5
-4.259531021118164 -14.7056245803833 -2.4596755504608154
-1.7873339653015137 -14.719955444335938 -2.3822362422943115
-0.5933007597923279 -14.722739219665527 -2.36723256111145
0.5933154225349426 -14.722734451293945 -2.36723256111145
1.7873339653015137 -14.719955444335938 -2.3822357654571533
3.0039501190185547 -14.714316368103027 -2.4127185344696045
4.259536266326904 -14.705615043640137 -2.459674596786499
5.507826805114746 -14.522944450378418 -2.495373249053955
6.670912742614746 -14.058676719665527 -2.5
7.78054666519165 -13.476303100585938 -2.5
11.647636413574219 -10.318915367126465 -2.5
13.778661727905273 -7.23159646987915 -2.5
14.760263442993164 -4.927700042724609 -2.5
15.359580039978027 -2.4961814880371094 -2.5
15.510634422302246 -1.2521483898162842 -2.5
-14.531049728393555 4.882812390860636e-06 -2.5
-14.342878341674805 -2.330947160720825 -2.5
-13.783231735229492 -4.601518630981445 -2.5
-12.866608619689941 -6.752919673919678 -2.5
-12.281498908996582 -7.766357421875 -2.5
-11.616747856140137 -8.729418754577637 -2.5
-10.8766450881958 -9.635878562927246 -2.5
-10.066015243530273 -10.479833602905273 -2.5
-9.190093040466309 -11.25582504272461 -2.5
-8.254584312438965 -11.958823204040527 -2.5
-7.26553201675415 -12.584257125854492 -2.5
-6.229350566864014 -13.12808609008789 -2.5
-5.152788162231445 -13.586776733398438 -2.5
-4.042802810668945 -13.957343101501465 -2.5
-2.9065916538238525 -14.237401962280273 -2.5
0.5841357111930847 -14.495131492614746 -2.495844602584839
5.152782917022705 -13.586771965026855 -2.5
6.229350566864014 -13.128090858459473 -2.5
7.265527248382568 -12.58426284790039 -2.5
8.254584312438965 -11.95882797241211 -2.5
9.190102577209473 -11.255834579467773 -2.5
10.066015243530273 -10.479833602905273 -2.5
13.78323745727539 -4.601518630981445 -2.5
14.108813285827637 -3.4775195121765137 -2.5
-13.44921588897705 -2.1857080459594727 -2.5
-13.22973346710205 -3.2608494758605957 -2.5
-12.5353364944458 -5.340805530548096 -2.5
-12.06494140625 -6.332167625427246 -2.5
-10.8929443359375 -8.185517311096191 -2.5
-9.438838005065918 -9.82686996459961 -2.5
-8.617494583129883 -10.554516792297363 -2.5
-7.740268230438232 -11.21371078491211 -2.5
-6.812831878662109 -11.800185203552246 -2.5
-5.841152191162109 -12.310121536254883 -2.5
-4.831733226776123 -12.740229606628418 -2.5
-1.6424022912979126 -13.526317596435547 -2.5
1.6423925161361694 -13.526323318481445 -2.5
2.7254881858825684 -13.35030746459961 -2.5
3.790898323059082 -13.0877046585083 -2.5
9.438833236694336 -9.826874732971191 -2.5
10.198959350585938 -9.035497665405273 -2.5
11.516283988952637 -7.282460689544678 -2.5
12.924448013305664 -4.314814567565918 -2.5
13.449223518371582 -2.185717821121216 -2.5
13.581493377685547 -1.0964159965515137 -2.5
-12.7818603515625 -1.0318554639816284 -2.5
-12.65738296508789 -2.057177782058716 -2.5
-12.450818061828613 -3.0688672065734863 -2.5
-11.797308921813965 -5.0263671875 -2.5
-11.354598999023438 -5.959355354309082 -2.5
-10.838247299194336 -6.853701114654541 -2.5
-10.25161075592041 -7.703593730926514 -2.5
-8.8831148147583 -9.248300552368164 -2.5
-7.284550666809082 -10.553495407104492 -2.5
-5.497309684753418 -11.585355758666992 -2.5
-3.5677099227905273 -12.317152976989746 -2.5
-1.5456981658935547 -12.729950904846191 -2.5
1.545693278312683 -12.729950904846191 -2.5
2.5650243759155273 -12.564291954040527 -2.5
6.411728382110596 -11.105439186096191 -2.5
8.883110046386719 -9.248305320739746 -2.5
9.598481178283691 -8.503524780273438 -2.5
11.35460376739502 -5.9593505859375 -2.5
12.163505554199219 -4.060771465301514 -2.5
12.657387733459473 -2.0570311546325684 -2.5
-12.107514381408691 4.882812390860636e-06 -2.5
-12.068246841430664 -0.9742528796195984 -2.5
-11.950722694396973 -1.9421874284744263 -2.5
-11.755688667297363 -2.897534132003784 -2.5
-11.484418869018555 -3.834062337875366 -2.5
-11.138667106628418 -4.745741844177246 -2.5
-10.720673561096191 -5.626645565032959 -2.5
-10.233149528503418 -6.471059322357178 -2.5
-9.679266929626465 -7.273476600646973 -2.5
-9.062602043151855 -8.028764724731445 -2.5
-7.657333850860596 -9.378549575805664 -2.5
-6.877851486206055 -9.964286804199219 -2.5
-5.190400123596191 -10.938539505004883 -2.5
-2.421821117401123 -11.862832069396973 -2.5
0.4875243902206421 -12.097695350646973 -2.5
1.4593993425369263 -12.019238471984863 -2.5
4.293378829956055 -11.320722579956055 -2.5
6.877851486206055 -9.964286804199219 -2.5
7.657333850860596 -9.3785400390625 -2.5
8.387167930603027 -8.73196792602539 -2.5
11.755688667297363 -2.897524356842041 -2.5
11.950722694396973 -1.9421923160552979 -2.5
12.068246841430664 -0.9742528796195984 -2.5
-11.427338600158691 -0.9225097298622131 -2.5
-11.131376266479492 -2.743642568588257 -2.5
-10.151328086853027 -5.327826976776123 -2.5
-9.689692497253418 -6.127402305603027 -2.5
-7.941742897033691 -8.268237113952637 -2.5
-6.512587547302246 -9.4351167678833 -2.5
-4.914751052856445 -10.357622146606445 -2.5
-4.065375804901123 -10.719511032104492 -2.5
-3.189628839492798 -11.011869430541992 -2.5
-2.293203115463257 -11.232831954956055 -2.5
-0.46163085103034973 -11.455214500427246 -2.5
2.2931981086730957 -11.232827186584473 -2.5
4.065366268157959 -10.719511032104492 -2.5
4.914741039276123 -10.357622146606445 -2.5
6.512587547302246 -9.435102462768555 -2.5
9.1652193069458 -6.887216567993164 -2.5
9.689692497253418 -6.127392292022705 -2.5
10.547119140625 -4.493705749511719 -2.5
10.874516487121582 -3.630449056625366 -2.5
11.427338600158691 -0.9225097298622131 -2.5
-10.883706092834473 4.882812390860636e-06 -2.5
-10.848407745361328 -0.8757714629173279 -2.5
-10.323583602905273 -3.446523427963257 -2.5
-10.01278305053711 -4.266054630279541 -2.5
-9.637036323547363 -5.057909965515137 -2.5
-8.70089340209961 -6.538305282592773 -2.5
-8.146562576293945 -7.217236042022705 -2.5
-6.883344650268555 -8.43057632446289 -2.5
-6.182651042938232 -8.957109451293945 -2.5
-4.665761470794678 -9.832895278930664 -2.5
-3.8594138622283936 -10.176440238952637 -2.5
-3.0280418395996094 -10.453993797302246 -2.5
-2.177016496658325 -10.663749694824219 -2.5
-1.3118896484375 -10.804340362548828 -2.5
-0.4382421672344208 -10.874873161315918 -2.5
0.4382373094558716 -10.874873161315918 -2.5
1.3118847608566284 -10.804349899291992 -2.5
3.0280370712280273 -10.453989028930664 -2.5
3.8594138622283936 -10.176435470581055 -2.5
6.182651042938232 -8.957114219665527 -2.5
6.883349418640137 -8.430571556091309 -2.5
7.539403915405273 -7.849355220794678 -2.5
8.700898170471191 -6.538295745849609 -2.5
9.198793411254883 -5.816967487335205 -2.5
9.637041091918945 -5.057905197143555 -2.5
10.323583602905273 -3.446528196334839 -2.5
10.5674409866333 -2.6046435832977295 -2.5
10.84841251373291 -0.8757763504981995 -2.5
-10.222246170043945 -1.6612792015075684 -2.5
-10.055415153503418 -2.478447198867798 -2.5
-9.823378562927246 -3.2795262336730957 -2.5
-9.527636528015137 -4.059340953826904 -2.5
-9.170097351074219 -4.812841892242432 -2.5
-7.17410135269165 -7.469027996063232 -2.5
-5.178183555603027 -8.968867301940918 -2.5
-3.67242169380188 -9.683368682861328 -2.5
-2.8813183307647705 -9.947465896606445 -2.5
-1.2483203411102295 -10.28084945678711 -2.5
2.071537971496582 -10.147055625915527 -2.5
5.178178787231445 -8.9688720703125 -2.5
5.88308572769165 -8.523115158081055 -2.5
7.174096584320068 -7.469038009643555 -2.5
8.75308609008789 -5.535121917724609 -2.5
9.1701021194458 -4.812841892242432 -2.5
9.823378562927246 -3.279531240463257 -2.5
10.222246170043945 -1.6612792015075684 -2.5
10.322772979736328 -0.8333446979522705 -2.5
-9.875297546386719 0.0 -2.5
-9.747416496276855 -1.5841162204742432 -2.5
-9.085073471069336 -3.870790958404541 -2.5
-8.744150161743164 -4.589282035827637 -2.5
-6.840859413146973 -7.122094631195068 -2.5
-6.245585918426514 -7.649457931518555 -2.5
-3.501826047897339 -9.233569145202637 -2.5
-1.1903369426727295 -9.803296089172363 -2.5
0.3976367115974426 -9.867294311523438 -2.5
1.1903369426727295 -9.803290367126465 -2.5
2.747485399246216 -9.485404968261719 -2.5
4.233461856842041 -8.921845436096191 -2.5
4.937655925750732 -8.552260398864746 -2.5
6.840864181518555 -7.122094631195068 -2.5
8.346508979797363 -5.278017520904541 -2.5
8.744140625 -4.589277267456055 -2.5
9.747421264648438 -1.5841113328933716 -2.5
9.843280792236328 -0.794628918170929 -2.5
-9.312421798706055 -1.5134179592132568 -2.5
-9.160444259643555 -2.2578563690185547 -2.5
-8.949067115783691 -2.9876317977905273 -2.5
-8.353925704956055 -4.384482383728027 -2.5
-7.974032878875732 -5.042470455169678 -2.5
-6.535575866699219 -6.804262638092041 -2.5
-5.966869831085205 -7.308095455169678 -2.5
-5.359462738037109 -7.7645263671875 -2.5
-3.3455564975738525 -8.821508407592773 -2.5
-2.624872922897339 -9.062108993530273 -2.5
-1.1372168064117432 -9.365800857543945 -2.5
-0.37989744544029236 -9.426947593688965 -2.5
1.1372119188308716 -9.36581039428711 -2.5
1.8871630430221558 -9.243935585021973 -2.5
4.044540882110596 -8.523695945739746 -2.5
5.966875076293945 -7.308090686798096 -2.5
8.353925704956055 -4.384477615356445 -2.5
9.160453796386719 -2.2578563690185547 -2.5
9.312421798706055 -1.5134228467941284 -2.5
9.404008865356445 -0.75916987657547 -2.5
-9.0 -0.7265527248382568 -2.5
-8.912353515625 -1.448403239250183 -2.5
-8.7669038772583 -2.1608543395996094 -2.5
-8.56459903717041 -2.8592822551727295 -2.5
-6.254794597625732 -6.511943340301514 -2.5
-5.710522174835205 -6.994121074676514 -2.5
-5.129213809967041 -7.430947303771973 -2.5
-3.8707761764526367 -8.157509803771973 -2.5
-2.5121045112609863 -8.672782897949219 -2.5
-1.8060888051986694 -8.846792221069336 -2.5
-1.0883642435073853 -8.9634370803833 -2.5
0.36356931924819946 -9.021947860717773 -2.5
2.5121045112609863 -8.672782897949219 -2.5
4.514638423919678 -7.819580078125 -2.5
5.129218578338623 -7.430947303771973 -2.5
6.254799842834473 -6.511943340301514 -2.5
6.758510589599609 -5.987524509429932 -2.5
7.218388557434082 -5.424267292022705 -2.5
7.631454944610596 -4.825844764709473 -2.5
7.995034217834473 -4.196113109588623 -2.5
8.306742668151855 -3.539174795150757 -2.5
8.564594268798828 -2.8592822551727295 -2.5
9.0 -0.7265576124191284 -2.5
-8.655156135559082 0.0 -2.5
-8.627089500427246 -0.6964501738548279 -2.5
-8.543070793151855 -1.3883837461471558 -2.5
-8.403642654418945 -2.0713231563568115 -2.5
-8.209721565246582 -2.7408056259155273 -2.5
-6.919296741485596 -5.199516296386719 -2.5
-4.327582836151123 -7.495580673217773 -2.5
-3.710400342941284 -7.819501876831055 -2.5
-0.3485058546066284 -8.648134231567383 -2.5
3.710400342941284 -7.819501876831055 -2.5
4.916694164276123 -7.123051643371582 -2.5
5.99563455581665 -6.242118835449219 -2.5
6.919301509857178 -5.199511528015137 -2.5
7.315248966217041 -4.625888347625732 -2.5
8.403647422790527 -2.0713231563568115 -2.5
8.543075561523438 -1.3883837461471558 -2.5
-8.201079368591309 -1.3328075408935547 -2.5
-7.643813133239746 -3.256723642349243 -2.5
-7.356967449188232 -3.8612401485443115 -2.5
-7.022411823272705 -4.440712928771973 -2.5
-6.642314434051514 -4.991372108459473 -2.5
-5.755624771118164 -5.992246150970459 -2.5
-4.154345512390137 -7.195527076721191 -2.5
-2.946298837661743 -7.768744945526123 -2.5
-2.3116209506988525 -7.980639457702637 -2.5
-1.661953091621399 -8.140761375427246 -2.5
3.5618603229522705 -7.506474494934082 -2.5
5.25478982925415 -6.435952186584473 -2.5
5.755624771118164 -5.992240905761719 -2.5
6.219135761260986 -5.509677410125732 -2.5
6.642314434051514 -4.991372108459473 -2.5
7.022417068481445 -4.440707683563232 -2.5
7.643813133239746 -3.2567138671875 -2.5
7.881088733673096 -2.6310887336730957 -2.5
8.067240715026855 -1.9883984327316284 -2.5
8.20108413696289 -1.3328124284744263 -2.5
-7.98681640625 0.0 -2.5
-7.754726409912109 -1.911376953125 -2.5
-6.750375747680664 -4.268681526184082 -2.5
-5.978227615356445 -5.296245098114014 -2.5
-5.532656192779541 -5.760112285614014 -2.5
-5.051225662231445 -6.186630725860596 -2.5
-4.537031173706055 -6.573017597198486 -2.5
-3.423881769180298 -7.2156982421875 -2.5
-0.9627099633216858 -7.92858362197876 -2.5
0.9627050757408142 -7.928574085235596 -2.5
1.5975682735443115 -7.825405120849609 -2.5
2.2220702171325684 -7.671479225158691 -2.5
3.993408203125 -6.91677713394165 -2.5
4.537031173706055 -6.573017597198486 -2.5
5.051220417022705 -6.186625957489014 -2.5
5.978212833404541 -5.296235084533691 -2.5
7.347709655761719 -3.130561351776123 -2.5
7.754735946655273 -1.9113720655441284 -2.5
7.883388519287109 -1.2811766862869263 -2.5
7.960912704467773 -0.6426757574081421 -2.5
-7.463588714599609 -1.8396190404891968 -2.5
-7.291362285614014 -2.434218645095825 -2.5
-6.806474685668945 -3.5723142623901367 -2.5
-6.49694299697876 -4.108422756195068 -2.5
-6.145287990570068 -4.617890357971191 -2.5
-5.753774166107178 -5.097402095794678 -2.5
-5.324941158294678 -5.543857097625732 -2.5
-4.366694450378418 -6.326254844665527 -2.5
-3.8434863090515137 -6.657109260559082 -2.5
-3.2953367233276367 -6.944794654846191 -2.5
-2.1386473178863525 -7.383471488952637 -2.5
0.30952635407447815 -7.680732250213623 -2.5
1.5375878810882568 -7.53161096572876 -2.5
3.8434813022613525 -6.657109260559082 -2.5
4.366694450378418 -6.326244831085205 -2.5
5.324946403503418 -5.543857097625732 -2.5
5.753774166107178 -5.097407341003418 -2.5
6.49694299697876 -4.108417987823486 -2.5
7.071855545043945 -3.0130321979522705 -2.5
7.463593482971191 -1.8396093845367432 -2.5
7.587416648864746 -1.2330809831619263 -2.5
-7.406874656677246 4.882812390860636e-06 -2.5
-7.382851600646973 -0.5960107445716858 -2.5
-7.310956954956055 -1.1881444454193115 -2.5
-7.191635608673096 -1.7725927829742432 -2.5
-6.558461666107178 -3.442143440246582 -2.5
-5.921367168426514 -4.449628829956055 -2.5
-5.544116020202637 -4.911664962768555 -2.5
-4.684443473815918 -5.737407207489014 -2.5
-3.1752636432647705 -6.691747665405273 -2.5
-2.626518487930298 -6.925556659698486 -2.5
-2.060722589492798 -7.114443302154541 -2.5
-1.4815673828125 -7.257187366485596 -2.5
0.2982421815395355 -7.40087366104126 -2.5
0.8928027153015137 -7.352870941162109 -2.5
1.4815673828125 -7.257182598114014 -2.5
2.626513719558716 -6.925546646118164 -2.5
4.207587718963623 -6.095736980438232 -2.5
5.921367168426514 -4.449624061584473 -2.5
6.260214805603027 -3.9587206840515137 -2.5
6.814174652099609 -2.9032421112060547 -2.5
7.025693416595459 -2.345517635345459 -2.5
7.191635608673096 -1.7725830078125 -2.5
7.310961723327637 -1.1881444454193115 -2.5
-7.121420860290527 -0.574902355670929 -2.5
-6.936982154846191 -1.7098242044448853 -2.5
-6.776899337768555 -2.262460947036743 -2.5
-5.347802639007568 -4.737739086151123 -2.5
-4.949228286743164 -5.152695178985596 -2.5
-4.05859375 -5.8798828125 -2.5
-3.5722949504852295 -6.187397480010986 -2.5
-0.2876855432987213 -7.1387939453125 -2.5
0.8611865043640137 -7.092494964599609 -2.5
1.9877538681030273 -6.862504959106445 -2.5
2.533500909805298 -6.680307388305664 -2.5
4.058588981628418 -5.87987756729126 -2.5
4.518559455871582 -5.534228324890137 -2.5
6.038530349731445 -3.81853985786438 -2.5
6.776908874511719 -2.262465715408325 -2.5
6.936977386474609 -1.709814429283142 -2.5
7.052074909210205 -1.1460741758346558 -2.5
-6.876039981842041 -0.5550927519798279 -2.5
-6.80907678604126 -1.106591820716858 -2.5
-6.697954177856445 -1.65090811252594 -2.5
-6.543388366699219 -2.184511661529541 -2.5
-6.346396446228027 -2.7039451599121094 -2.5
-5.830468654632568 -3.6869726181030273 -2.5
-5.163530349731445 -4.57449197769165 -2.5
-3.4492039680480957 -5.974204063415527 -2.5
-2.9572949409484863 -6.232382774353027 -2.5
-2.4462060928344727 -6.450131893157959 -2.5
-1.9192577600479126 -6.626044750213623 -2.5
-1.3798632621765137 -6.758994102478027 -2.5
-0.8315136432647705 -6.848114967346191 -2.5
-0.2777685523033142 -6.892807483673096 -2.5
0.2777734398841858 -6.89281702041626 -2.5
3.9187450408935547 -5.677279949188232 -2.5
5.163535118103027 -4.57449197769165 -2.5
5.830468654632568 -3.686962842941284 -2.5
6.346396446228027 -2.7039451599121094 -2.5
6.543393611907959 -2.184506893157959 -2.5
6.697958946228027 -1.6509032249450684 -2.5
6.80907678604126 -1.1065820455551147 -2.5
6.876044750213623 -0.5550927519798279 -2.5
-6.666840553283691 0.0 -2.5
-6.580502986907959 -1.0694384574890137 -2.5
-6.133354187011719 -2.6131834983825684 -2.5
-5.329755783081055 -4.005053520202637 -2.5
-4.990204811096191 -4.420937538146973 -2.5
-4.618281364440918 -4.808149337768555 -2.5
-3.7871971130371094 -5.486703872680664 -2.5
-3.3334226608276367 -5.773652076721191 -2.5
-1.854833960533142 -6.403623104095459 -2.5
0.2684423625469208 -6.661430358886719 -2.5
0.80360347032547 -6.618232250213623 -2.5
2.364091634750366 -6.233603477478027 -2.5
3.3334226608276367 -5.773657321929932 -2.5
4.216401100158691 -5.164169788360596 -2.5
4.990204811096191 -4.420932292938232 -2.5
5.329755783081055 -4.005048751831055 -2.5
6.323740005493164 -2.1111767292022705 -2.5
6.580502986907959 -1.0694384574890137 -2.5
6.645224571228027 -0.5364550948143005 -2.5
-6.11669921875 -2.042055606842041 -2.5
-5.155253887176514 -3.8739256858825684 -2.5
-4.826821327209473 -4.276191234588623 -2.5
-3.6631932258605957 -5.307065486907959 -2.5
-3.2242822647094727 -5.584619045257568 -2.5
-2.7644481658935547 -5.82595682144165 -2.5
0.2596533000469208 -6.443334579467773 -2.5
0.7772900462150574 -6.401547908782959 -2.5
2.286694288253784 -6.029511451721191 -2.5
2.7644481658935547 -5.82595682144165 -2.5
3.6632421016693115 -5.307065486907959 -2.5
4.467074871063232 -4.650727272033691 -2.5
4.826821327209473 -4.276186466217041 -2.5
5.155263423919678 -3.8739256858825684 -2.5
5.450263500213623 -3.446537971496582 -2.5
5.932548522949219 -2.5276219844818115 -2.5
6.261186599731445 -1.54324209690094 -2.5
6.427656173706055 -0.5188915729522705 -2.5
-6.161581993103027 -1.0013574361801147 -2.5
-6.061025142669678 -1.4939160346984863 -2.5
-5.742900371551514 -2.4468212127685547 -2.5
-5.27603006362915 -3.336367130279541 -2.5
-4.324277400970459 -4.502050876617432 -2.5
-3.947988271713257 -4.835414886474609 -2.5
-2.676074266433716 -5.639716625213623 -2.5
-1.7367479801177979 -5.995956897735596 -2.5
-0.75244140625 -6.196904182434082 -2.5
0.25135740637779236 -6.237358093261719 -2.5
0.7524365186691284 -6.196908950805664 -2.5
1.7367528676986694 -5.995956897735596 -2.5
3.121210813522339 -5.406088829040527 -2.5
3.947993040084839 -4.835405349731445 -2.5
4.672519207000732 -4.139496803283691 -2.5
5.921166896820068 -1.976772427558899 -2.5
6.06102991104126 -1.4939111471176147 -2.5
6.161586761474609 -1.0013574361801147 -2.5
6.222182273864746 -0.5023046731948853 -2.5
-6.047377586364746 4.882812390860636e-06 -2.5
-5.871650218963623 -1.447241187095642 -2.5
-5.354682445526123 -2.810356378555298 -2.5
-4.834531307220459 -3.6329197883605957 -2.5
-4.189159870147705 -4.361386775970459 -2.5
-3.435302734375 -4.976894378662109 -2.5
-2.592465877532959 -5.463505744934082 -2.5
-1.2096288204193115 -5.925160884857178 -2.5
-0.728930652141571 -6.003281116485596 -2.5
0.24350585043430328 -6.042465686798096 -2.5
0.728930652141571 -6.003281116485596 -2.5
1.6824853420257568 -5.808613300323486 -2.5
2.1444287300109863 -5.654389381408691 -2.5
3.023691415786743 -5.2371826171875 -2.5
4.526523113250732 -4.010156154632568 -2.5
4.834531307220459 -3.6329150199890137 -2.5
5.563461780548096 -2.370375871658325 -2.5
5.871654987335205 -1.4472362995147705 -2.5
5.969067096710205 -0.9700732231140137 -2.5
6.027768611907959 -0.48661619424819946 -2.5
-5.862524509429932 -4.882812390860636e-06 -2.5
-5.786601543426514 -0.9404150247573853 -2.5
-5.560805320739746 -1.8564794063568115 -2.5
-5.191005706787109 -2.7244529724121094 -2.5
-4.388159275054932 -3.887568235397339 -2.5
-2.513178586959839 -5.296494007110596 -2.5
-2.0788769721984863 -5.481552600860596 -2.5
-0.7066454887390137 -5.819775104522705 -2.5
-0.23605956137180328 -5.857763767242432 -2.5
0.23605956137180328 -5.857768535614014 -2.5
1.1726610660552979 -5.744042873382568 -2.5
1.6310546398162842 -5.631049633026123 -2.5
2.0788817405700684 -5.481547832489014 -2.5
4.061108112335205 -4.228061199188232 -2.5
4.686752796173096 -3.521865129470825 -2.5
4.954941272735596 -3.133315324783325 -2.5
5.191000938415527 -2.724443197250366 -2.5
5.560810565948486 -1.8564696311950684 -2.5
5.692162990570068 -1.4029979705810547 -2.5
-5.687026023864746 0.0 -2.5
-5.668588638305664 -0.4576171636581421 -2.5
-5.521767616271973 -1.361000895500183 -2.5
-5.231943130493164 -2.2291259765625 -2.5
-3.9395360946655273 -4.101499080657959 -2.5
-3.596733331680298 -4.405200004577637 -2.5
-2.843515634536743 -4.925107479095459 -2.5
-2.0166454315185547 -5.317465782165527 -2.5
-1.5822314023971558 -5.462485313415527 -2.5
-1.1375536918640137 -5.572089672088623 -2.5
0.6854931712150574 -5.645556449890137 -2.5
1.1375536918640137 -5.572089672088623 -2.5
1.5822265148162842 -5.462485313415527 -2.5
2.843510627746582 -4.925112247467041 -2.5
3.9395408630371094 -4.101499080657959 -2.5
5.231943130493164 -2.229116201400757 -2.5
5.521772384643555 -1.3609912395477295 -2.5
-5.520161151885986 0.0 -2.5
-5.502265453338623 -0.44419431686401367 -2.5
-5.448676586151123 -0.885498046875 -2.5
-5.359750747680664 -1.3210644721984863 -2.5
-5.236069202423096 -1.7480566501617432 -2.5
-5.078432559967041 -2.1637158393859863 -2.5
-4.887861251831055 -2.5653467178344727 -2.5
-4.665585994720459 -2.9503467082977295 -2.5
-4.131894588470459 -3.6605467796325684 -2.5
-3.491201162338257 -4.275947093963623 -2.5
-1.535805583000183 -5.302206993103027 -2.5
-0.22227539122104645 -5.515678405761719 -2.5
0.22227050364017487 -5.515678405761719 -2.5
0.6653808355331421 -5.479907035827637 -2.5
1.1041747331619263 -5.408593654632568 -2.5
1.5358495712280273 -5.302206993103027 -2.5
1.9574804306030273 -5.161440372467041 -2.5
3.135810375213623 -4.54299783706665 -2.5
3.491201162338257 -4.275937557220459 -2.5
3.8239452838897705 -3.981152296066284 -2.5
4.887856483459473 -2.5653467178344727 -2.5
5.078437328338623 -2.163710832595825 -2.5
5.359745979309082 -1.3210644721984863 -2.5
5.448676586151123 -0.885498046875 -2.5
-5.361274242401123 -4.882812390860636e-06 -2.5
-5.343881607055664 -0.4314062297344208 -2.5
-5.20547342300415 -1.2830419540405273 -2.5
-4.747168064117432 -2.491508722305298 -2.5
-4.531293869018555 -2.86541485786438 -2.5
-4.012963771820068 -3.555185556411743 -2.5
-3.713881731033325 -3.866567373275757 -2.5
-3.3907079696655273 -4.152871131896973 -2.5
-3.045546770095825 -4.412240982055664 -2.5
-2.298330068588257 -4.843637466430664 -2.5
-1.0723974704742432 -5.252919673919678 -2.5
-0.6462304592132568 -5.322177410125732 -2.5
0.6462304592132568 -5.322182655334473 -2.5
1.0723925828933716 -5.252919673919678 -2.5
1.491601586341858 -5.149589538574219 -2.5
1.9011279344558716 -5.012876033782959 -2.5
2.6806347370147705 -4.642988204956055 -2.5
3.0455517768859863 -4.412240982055664 -2.5
3.3907079696655273 -4.152865886688232 -2.5
3.713881731033325 -3.8665623664855957 -2.5
4.286025524139404 -3.2207422256469727 -2.5
4.531293869018555 -2.86541485786438 -2.5
5.085361003875732 -1.6977441310882568 -2.5
5.291840553283691 -0.8600048422813416 -2.5
5.343886375427246 -0.4314062297344208 -2.5
