ply
format ascii 1.0
element vertex 750
property float x
property float y
property float z
end_header
23.19438362121582 17.429466247558594 7.430474758148193
21.073944091796875 18.66989517211914 7.210559368133545
-6.960585594177246 8.525172233581543 2.818681001663208
23.194374084472656 17.42946434020996 7.088833332061768
21.65553092956543 19.18512725830078 7.0688700675964355
-6.960302352905273 8.524840354919434 2.689063549041748
21.418193817138672 18.974864959716797 6.656274795532227
-6.959784984588623 8.524175643920898 2.43166184425354
-6.959521293640137 8.523847579956055 2.3039963245391846
21.073944091796875 18.669889450073242 5.569877624511719
23.19438934326172 17.429468154907227 5.4063849449157715
21.073944091796875 18.66989517211914 5.246370792388916
23.020877838134766 7.685510158538818 3.9681334495544434
23.19438934326172 17.429473876953125 4.414150238037109
-6.958193302154541 8.522231101989746 1.6739156246185303
23.194393157958984 17.429471969604492 3.758352041244507
21.073909759521484 18.669862747192383 3.6471104621887207
-6.957763671875 8.521711349487305 1.4251106977462769
-6.957578182220459 8.521476745605469 1.3012908697128296
21.41815948486328 18.974838256835938 3.0636065006256104
23.194393157958984 17.429471969604492 2.1338274478912354
21.07390594482422 18.669864654541016 2.0706698894500732
-6.956279277801514 8.519901275634766 0.8089437484741211
23.194398880004883 17.429473876953125 1.8108291625976562
-6.955878734588623 8.519414901733398 0.6864544749259949
21.07390594482422 18.669864654541016 1.4442278146743774
23.19440460205078 17.429473876953125 1.1660925149917603
-6.95510721206665 8.518447875976562 0.4419958293437958
21.073881149291992 18.669837951660156 0.8192077279090881
-6.954716682434082 8.517961502075195 0.3199661076068878
21.073881149291992 18.66983413696289 0.507039487361908
-6.953925609588623 8.516995429992676 0.07615295052528381
-6.953525066375732 8.51651382446289 -0.04568939283490181
-6.953134536743164 8.516030311584473 -0.16752822697162628
-6.952733993530273 8.515546798706055 -0.2893943786621094
-14.752333641052246 25.551836013793945 -1.103987693786621
-6.952343463897705 8.51506233215332 -0.4113203287124634
-14.452363014221191 25.032236099243164 -1.4024392366409302
-6.95193338394165 8.514578819274902 -0.5333322286605835
23.19440460205078 17.42947769165039 -1.7301559448242188
21.073881149291992 18.669836044311523 -1.6789425611495972
-14.29238224029541 24.755165100097656 -1.7046072483062744
-6.951542854309082 8.514094352722168 -0.6554617285728455
23.005096435546875 1.857155680656433 -1.6331837177276611
23.06649398803711 7.700736999511719 -1.7207894325256348
23.19440460205078 17.42947769165039 -2.053034543991089
-14.195478439331055 24.587305068969727 -2.0090079307556152
27.901742935180664 6.877162933349609 -2.3537802696228027
26.367816925048828 11.234293937683105 -2.347599983215332
25.37838363647461 13.319599151611328 -2.347599983215332
24.224271774291992 15.31849479675293 -2.347599983215332
22.913076400756836 17.21807861328125 -2.347599983215332
21.073881149291992 18.66983413696289 -2.3060805797576904
18.1267032623291 22.201215744018555 -2.347599983215332
16.28150749206543 23.58783721923828 -2.347599983215332
14.330668449401855 24.821435928344727 -2.347599983215332
10.163432121276855 26.798810958862305 -2.347599983215332
7.974071979522705 27.529720306396484 -2.347599983215332
3.4547412395477295 28.452362060546875 -2.347599983215332
1.1540625095367432 28.63808822631836 -2.347599983215332
-1.1540625095367432 28.63806915283203 -2.347599983215332
-3.4547362327575684 28.45235252380371 -2.347599983215332
-7.974071979522705 27.52971839904785 -2.347599983215332
-10.163436889648438 26.79880142211914 -2.347599983215332
-14.195478439331055 24.587305068969727 -2.325453281402588
-6.950751781463623 8.513121604919434 -0.9001947045326233
-28.138484954833984 6.935503959655762 -2.373744487762451
-28.568397521972656 2.3062779903411865 -2.347599983215332
26.5123233795166 4.308674335479736 -2.5
26.07964324951172 6.428059101104736 -2.5
22.86385726928711 7.63308572769165 -2.243504524230957
23.204418182373047 9.88648509979248 -2.347599983215332
22.333642959594727 11.721606254577637 -2.347599983215332
21.318021774291992 13.48070240020752 -2.347599983215332
20.16414451599121 15.152384757995605 -2.347599983215332
18.87952995300293 16.725738525390625 -2.347599983215332
17.472436904907227 18.190675735473633 -2.347599983215332
15.952011108398438 19.53766632080078 -2.347599983215332
5.045185565948486 24.713050842285156 -2.347599983215332
3.040273427963257 25.038862228393555 -2.347599983215332
-1.0156152248382568 25.202314376831055 -2.347599983215332
-5.045205116271973 24.7130126953125 -2.347599983215332
-7.017392635345459 24.226911544799805 -2.347599983215332
-8.944121360778809 23.583675384521484 -2.347599983215332
-10.815420150756836 22.793025970458984 -2.3481690883636475
-15.258319854736328 22.10546112060547 -2.5
-6.950370788574219 8.512636184692383 -1.0228582620620728
-20.105106353759766 17.81157875061035 -2.5
-22.701923370361328 14.355822563171387 -2.5
-24.710790634155273 10.528278350830078 -2.5
-26.079647064208984 6.428045272827148 -2.5
23.977567672729492 -2.441406195430318e-06 -2.5
23.899824142456055 1.9293872117996216 -2.5
23.667089462280273 3.8462767601013184 -2.5
20.714149475097656 8.825485229492188 -2.347599983215332
18.000160217285156 13.52625560760498 -2.347599983215332
14.240087509155273 17.440940856933594 -2.347599983215332
11.257953643798828 19.49932098388672 -2.347599983215332
9.652387619018555 20.342010498046875 -2.347599983215332
6.26431131362915 21.626909255981445 -2.347599983215332
-4.503749847412109 22.060853958129883 -2.347599983215332
-11.988788604736328 20.76518440246582 -2.5
-13.620820045471191 19.73314094543457 -2.5
-16.609872817993164 17.292699813842773 -2.5
-17.947460174560547 15.900063514709473 -2.5
-23.899805068969727 1.9293944835662842 -2.5
21.57869529724121 1.742006778717041 -2.5
21.019813537597656 5.180927753448486 -2.5
19.529619216918945 6.519954681396484 -2.3776297569274902
18.702417373657227 7.968364238739014 -2.347599983215332
18.000591278076172 9.44743537902832 -2.347599983215332
12.857069969177246 15.747112274169922 -2.347599983215332
10.16458511352539 17.6055850982666 -2.347599983215332
8.714956283569336 18.366418838500977 -2.347599983215332
7.208813190460205 19.008121490478516 -2.347599983215332
2.450429677963257 20.18094825744629 -2.347599983215332
0.8185644149780273 20.312694549560547 -2.347599983215332
-0.8185839653015137 20.312685012817383 -2.347599983215332
-4.066337585449219 19.918331146240234 -2.347599983215332
-5.655917644500732 19.52653694152832 -2.347599983215332
-7.208818435668945 19.00810432434082 -2.347599983215332
-10.164579391479492 17.60558319091797 -2.347599983215332
-12.297958374023438 17.816679000854492 -2.5
-6.949570178985596 8.511662483215332 -1.268932580947876
-14.996699333190918 15.613234519958496 -2.5
-17.30704116821289 13.00540828704834 -2.5
-19.169130325317383 10.060738563537598 -2.5
-19.916532516479492 8.485636711120605 -2.5
-21.57870101928711 1.742010474205017 -2.5
19.727977752685547 -9.765624781721272e-06 -2.5
19.664012908935547 1.5874364376068115 -2.5
19.472509384155273 3.164591073989868 -2.5
19.15471649169922 4.721215724945068 -2.5
17.042953491210938 7.261327743530273 -2.347599983215332
15.657445907592773 9.901174545288086 -2.347599983215332
14.809950828552246 11.128975868225098 -2.347599983215332
13.866430282592773 12.284585952758789 -2.347599983215332
12.832968711853027 13.360538482666016 -2.347599983215332
9.262675285339355 16.04344367980957 -2.347599983215332
7.941674709320068 16.736751556396484 -2.347599983215332
5.154077053070068 17.793947219848633 -2.347599983215332
2.232988119125366 18.390289306640625 -2.347599983215332
-0.7459374666213989 18.51033592224121 -2.347599983215332
-6.569179534912109 17.321517944335938 -2.347599983215332
-13.666054725646973 14.22787094116211 -2.5
-14.76659107208252 13.082070350646973 -2.5
-15.771367073059082 11.85143756866455 -2.5
-17.468252182006836 9.168050765991211 -2.5
-18.712684631347656 6.247206687927246 -2.5
-19.472490310668945 3.164602041244507 -2.5
18.11604881286621 -9.765624781721272e-06 -2.5
18.05730438232422 1.45773184299469 -2.5
17.881454467773438 2.906018018722534 -2.5
17.589637756347656 4.335458755493164 -2.5
17.18372917175293 5.736782073974609 -2.5
15.650400161743164 6.668022155761719 -2.347599983215332
15.063115119934082 7.905728816986084 -2.347599983215332
14.378119468688965 9.092167854309082 -2.347599983215332
13.59987735748291 10.21965217590332 -2.347599983215332
12.73343276977539 11.280839920043945 -2.347599983215332
11.78441333770752 12.268879890441895 -2.347599983215332
10.758964538574219 13.177351951599121 -2.347599983215332
7.941762447357178 11.505634307861328 -1.929282546043396
4.73293924331665 16.340044021606445 -2.347599983215332
3.402787923812866 16.66790008544922 -2.347599983215332
2.050527334213257 16.88766098022461 -2.347599983215332
0.6850000023841858 16.997888565063477 -2.347599983215332
-0.6849804520606995 16.997900009155273 -2.347599983215332
-2.050527334213257 16.887662887573242 -2.347599983215332
-3.402773380279541 16.667898178100586 -2.347599983215332
-4.732949256896973 16.340038299560547 -2.347599983215332
-6.032431602478027 15.906208038330078 -2.347599983215332
-7.292783260345459 15.369223594665527 -2.347599983215332
-12.549433708190918 13.06534194946289 -2.5
-14.482744216918945 10.883084297180176 -2.5
-17.589637756347656 4.33544921875 -2.5
16.526933670043945 2.6858837604522705 -2.5
14.46487808227539 6.16291618347168 -2.347599983215332
13.922075271606445 7.306867599487305 -2.347599983215332
12.569686889648438 9.445509910583496 -2.347599983215332
11.768881797790527 10.426313400268555 -2.347599983215332
9.943974494934082 12.17916202545166 -2.347599983215332
7.912602424621582 11.463388442993164 -2.0797390937805176
7.861533164978027 13.616561889648438 -2.347599983215332
5.57546854019165 14.701309204101562 -2.347599983215332
3.14501953125 15.40530014038086 -2.347599983215332
1.8952245712280273 15.608418464660645 -2.347599983215332
0.6331152319908142 15.71033763885498 -2.347599983215332
-0.6331152319908142 15.710302352905273 -2.347599983215332
-1.895205020904541 15.608415603637695 -2.347599983215332
-3.145009756088257 15.405295372009277 -2.347599983215332
-4.374423503875732 15.102278709411621 -2.347599983215332
-5.575478553771973 14.701311111450195 -2.347599983215332
-8.931708335876465 12.939812660217285 -2.347599983215332
-6.946249961853027 8.507620811462402 -1.639891266822815
-11.598808288574219 12.075639724731445 -2.5
-13.385663986206055 10.058683395385742 -2.5
-14.151650428771973 8.948957443237305 -2.5
-14.825859069824219 7.781210899353027 -2.5
-15.882050514221191 5.302199363708496 -2.5
-16.25721549987793 4.007036209106445 -2.5
-16.689472198486328 1.3473107814788818 -2.5
15.108920097351074 3.724013566970825 -2.5
11.681836128234863 8.778339385986328 -2.347599983215332
10.122411727905273 10.53856086730957 -2.347599983215332
7.887885570526123 11.427573204040527 -2.23081111907959
2.9228711128234863 14.31716537475586 -2.347599983215332
0.58837890625 14.600656509399414 -2.347599983215332
-0.5883886814117432 14.600629806518555 -2.347599983215332
-2.9228711128234863 14.31717300415039 -2.347599983215332
-4.0654296875 14.035550117492676 -2.347599983215332
-5.181660175323486 13.662904739379883 -2.347599983215332
-6.264267444610596 13.20164966583252 -2.347599983215332
-7.306220531463623 12.65478229522705 -2.347599983215332
-8.3008394241333 12.02583122253418 -2.347599983215332
-6.906786918640137 8.459284782409668 -1.7545007467269897
-14.760272979736328 4.927687644958496 -2.5
-15.108925819396973 3.724003791809082 -2.5
-15.359580039978027 2.4961791038513184 -2.5
-15.510624885559082 1.2521460056304932 -2.5
14.483935356140137 1.1692602634429932 -2.5
13.783222198486328 4.601524353027344 -2.5
11.532816886901855 7.292912483215332 -2.347599983215332
10.908583641052246 8.197278022766113 -2.347599983215332
10.213598251342773 9.048465728759766 -2.347599983215332
8.629862785339355 10.569673538208008 -2.347599983215332
7.751376628875732 11.229809761047363 -2.347599983215332
5.849623680114746 12.32779312133789 -2.347599983215332
3.796342611312866 13.106498718261719 -2.347599983215332
2.7294042110443115 13.369474411010742 -2.347599983215332
1.6447558403015137 13.54573917388916 -2.347599983215332
-0.5494433641433716 13.634166717529297 -2.347599983215332
-1.6447460651397705 13.545746803283691 -2.347599983215332
-3.796337842941284 13.10649585723877 -2.347599983215332
-5.849618911743164 12.327795028686523 -2.347599983215332
-6.822617053985596 11.817126274108887 -2.347599983215332
-6.898583889007568 8.44922924041748 -1.876634955406189
-11.616747856140137 8.729418754577637 -2.5
-12.281513214111328 7.766345024108887 -2.5
-12.86661148071289 6.752914905548096 -2.5
-14.108818054199219 3.4775047302246094 -2.5
-14.483925819396973 1.1692651510238647 -2.5
13.581488609313965 1.096408724784851 -2.5
13.44921875 2.1857128143310547 -2.5
9.577231407165527 8.484686851501465 -2.347599983215332
8.863432884216309 9.227822303771973 -2.347599983215332
8.0921630859375 9.911110877990723 -2.347599983215332
6.397524356842041 11.08083438873291 -2.347599983215332
4.537172794342041 11.963577270507812 -2.347599983215332
3.5597949028015137 12.289875030517578 -2.347599983215332
2.5593554973602295 12.536466598510742 -2.347599983215332
0.5152148604393005 12.784669876098633 -2.347599983215332
-0.5152148604393005 12.784669876098633 -2.347599983215332
-1.54226553440094 12.701751708984375 -2.347599983215332
-2.559326171875 12.53646469116211 -2.347599983215332
-5.485146522521973 11.55968952178955 -2.347599983215332
-6.890361309051514 8.439153671264648 -1.9989452362060547
-9.438838005065918 9.826862335205078 -2.5
-10.198965072631836 9.035489082336426 -2.5
-10.892919540405273 8.185516357421875 -2.5
-11.51626968383789 7.282448768615723 -2.5
-12.06494140625 6.332164287567139 -2.5
-12.924452781677246 4.314804553985596 -2.5
-13.22972583770752 3.2608325481414795 -2.5
-13.581483840942383 1.096411108970642 -2.5
12.823447227478027 0.0 -2.5
12.781869888305664 1.031854271888733 -2.5
12.450810432434082 3.068854808807373 -2.5
11.693442344665527 4.98211669921875 -2.4779911041259766
10.1775484085083 6.435893535614014 -2.347599983215332
9.626665115356445 7.233978271484375 -2.347599983215332
9.013354301452637 7.985142707824707 -2.347599983215332
7.61572265625 9.327585220336914 -2.347599983215332
6.02086877822876 10.428441047668457 -2.347599983215332
4.270053386688232 11.259211540222168 -2.347599983215332
2.4086620807647705 11.798378944396973 -2.347599983215332
1.4514843225479126 11.953927993774414 -2.347599983215332
0.48488280177116394 12.031961441040039 -2.347599983215332
-1.451454997062683 11.95392894744873 -2.347599983215332
-3.350224494934082 11.566292762756348 -2.347599983215332
-4.270039081573486 11.259208679199219 -2.347599983215332
-5.162187576293945 10.879108428955078 -2.347599983215332
-6.020859241485596 10.42844295501709 -2.347599983215332
-6.840478420257568 9.91014289855957 -2.347599983215332
-6.882138729095459 8.429061889648438 -2.121458053588867
-8.872489929199219 9.237245559692383 -2.49701189994812
-10.25162124633789 7.703586101531982 -2.5
-11.354628562927246 5.959348201751709 -2.5
-12.657402038574219 2.0570287704467773 -2.5
12.10750961303711 -2.441406195430318e-06 -2.5
12.068256378173828 0.9742431640625 -2.5
11.95071792602539 1.9421801567077637 -2.5
11.755682945251465 2.897514581680298 -2.5
11.484423637390137 3.8340649604797363 -2.5
9.60934066772461 6.076574802398682 -2.347599983215332
9.08919906616211 6.830106258392334 -2.347599983215332
3.163163900375366 10.920550346374512 -2.347599983215332
2.274179697036743 11.139665603637695 -2.347599983215332
1.3704394102096558 11.286538124084473 -2.347599983215332
0.4577929675579071 11.360212326049805 -2.347599983215332
-2.274179697036743 11.139663696289062 -2.347599983215332
-3.1631932258605957 10.920546531677246 -2.347599983215332
-4.874003887176514 10.271719932556152 -2.347599983215332
-5.684716701507568 9.84621810913086 -2.347599983215332
-6.458593368530273 9.356839179992676 -2.347599983215332
-8.368281364440918 8.71230411529541 -2.494370937347412
-9.06258773803711 8.028759956359863 -2.5
-10.233154296875 6.471041202545166 -2.5
-11.755693435668945 2.897508382797241 -2.5
-12.068251609802246 0.9742504954338074 -2.5
11.464516639709473 -7.324218586290954e-06 -2.5
11.316054344177246 1.8390380144119263 -2.5
10.874516487121582 3.6304502487182617 -2.5
10.547119140625 4.493708610534668 -2.5
9.922870635986328 5.207924842834473 -2.4437386989593506
8.058188438415527 7.138937950134277 -2.347599983215332
7.457607269287109 7.764204978942871 -2.347599983215332
6.808681488037109 8.339118003845215 -2.347599983215332
4.615136623382568 9.726218223571777 -2.347599983215332
2.995166063308716 10.340582847595215 -2.347599983215332
2.153388738632202 10.548063278198242 -2.347599983215332
1.2976561784744263 10.687142372131348 -2.347599983215332
0.4334765672683716 10.75689697265625 -2.347599983215332
-2.153398275375366 10.548066139221191 -2.347599983215332
-3.817558526992798 10.066041946411133 -2.347599983215332
-5.382822036743164 9.323315620422363 -2.347599983215332
-6.115566253662109 8.859943389892578 -2.347599983215332
-7.919033050537109 8.24459171295166 -2.4928510189056396
-9.165224075317383 6.887216567993164 -2.5
-9.689706802368164 6.127385139465332 -2.5
-10.151328086853027 5.327824592590332 -2.5
-10.874521255493164 3.630434513092041 -2.5
-11.316054344177246 1.8390405178070068 -2.5
10.88370132446289 -7.324218586290954e-06 -2.5
10.012768745422363 4.266049861907959 -2.5
8.616005897521973 5.44842529296875 -2.3416099548339844
7.649946212768555 6.777265548706055 -2.347599983215332
7.079794883728027 7.370856761932373 -2.347599983215332
5.805751800537109 8.411081314086914 -2.347599983215332
5.110116958618164 8.850975036621094 -2.347599983215332
4.381337642669678 9.233469009399414 -2.347599983215332
2.843447208404541 9.816715240478516 -2.347599983215332
1.2319140434265137 10.14570426940918 -2.347599983215332
-2.044306516647339 10.013680458068848 -2.347599983215332
-2.8434667587280273 9.81671142578125 -2.347599983215332
-4.38134765625 9.233464241027832 -2.347599983215332
-5.110097408294678 8.850977897644043 -2.347599983215332
-7.163720607757568 7.458226203918457 -2.375427722930908
-8.146562576293945 7.217226505279541 -2.5
-8.700907707214355 6.5382981300354 -2.5
-9.198798179626465 5.816958904266357 -2.5
-10.012763023376465 4.266044616699219 -2.5
-10.323593139648438 3.4465136528015137 -2.5
-10.742773056030273 1.7458715438842773 -2.5
-10.848417282104492 0.8757739067077637 -2.5
10.356351852416992 -4.882812390860636e-06 -2.5
10.222241401672363 1.6612744331359863 -2.5
10.055429458618164 2.47843861579895 -2.5
9.082983016967773 4.767115592956543 -2.476250171661377
8.401259422302246 5.31263542175293 -2.3995144367218018
4.862514495849609 8.422121047973633 -2.347599983215332
4.169052600860596 8.786078453063965 -2.347599983215332
2.7056639194488525 9.341021537780762 -2.347599983215332
1.1722265481948853 9.654119491577148 -2.347599983215332
-2.7056736946105957 9.341064453125 -2.347599983215332
-3.44854474067688 9.093058586120605 -2.347599983215332
-4.169052600860596 8.786081314086914 -2.347599983215332
-5.524453163146973 8.003539085388184 -2.347599983215332
-6.150556564331055 7.533053874969482 -2.347599983215332
-6.949062347412109 7.234752178192139 -2.421581983566284
-8.279306411743164 6.221501350402832 -2.5
-9.170106887817383 4.812836647033691 -2.5
-9.823378562927246 3.2795164585113525 -2.5
-10.055410385131836 2.4784350395202637 -2.5
9.8753023147583 -2.441406195430318e-06 -2.5
9.747411727905273 1.584108829498291 -2.5
9.588339805603027 2.3633153438568115 -2.5
9.085087776184082 3.87078857421875 -2.5
8.11708927154541 5.132936954498291 -2.4312851428985596
6.423837661743164 6.687925815582275 -2.347599983215332
5.864843845367432 7.183145523071289 -2.347599983215332
5.267831802368164 7.631777286529541 -2.347599983215332
2.5799999237060547 8.907174110412598 -2.347599983215332
1.8549022674560547 9.085890769958496 -2.347599983215332
0.37339842319488525 9.265778541564941 -2.347599983215332
-0.3734081983566284 9.265778541564941 -2.347599983215332
-1.8549022674560547 9.08588695526123 -2.347599983215332
-2.5799999237060547 8.907170295715332 -2.347599983215332
-3.9753904342651367 8.377965927124023 -2.347599983215332
-5.86486291885376 7.183140754699707 -2.347599983215332
-6.793183326721191 7.072453498840332 -2.4825735092163086
-7.391757488250732 6.548532485961914 -2.5
-7.894726276397705 5.932512283325195 -2.5
-8.346513748168945 5.278002738952637 -2.5
-8.744150161743164 4.589279651641846 -2.5
-9.085067749023438 3.87078595161438 -2.5
-9.36709976196289 3.1271824836730957 -2.5
-9.588319778442383 2.3633105754852295 -2.5
-9.747411727905273 1.584112524986267 -2.5
9.43460464477539 -7.324218586290954e-06 -2.5
9.312431335449219 1.5134154558181763 -2.5
9.160449028015137 2.2578465938568115 -2.5
6.631406307220459 5.874911785125732 -2.347599983215332
6.137167930603027 6.389467716217041 -2.347599983215332
5.03274393081665 7.291194915771484 -2.347599983215332
3.797988176345825 8.004084587097168 -2.347599983215332
2.464853525161743 8.50967788696289 -2.347599983215332
1.7721288204193115 8.680412292480469 -2.347599983215332
1.0678808689117432 8.794867515563965 -2.347599983215332
-1.7721190452575684 8.680421829223633 -2.347599983215332
-2.464853525161743 8.509673118591309 -2.347599983215332
-7.542411804199219 5.667763710021973 -2.5
-8.35391616821289 4.384475231170654 -2.5
-8.679638862609863 3.6980443000793457 -2.5
-8.94906234741211 2.987628221511841 -2.5
-9.312431335449219 1.5134179592132568 -2.5
-9.404004096984863 0.75916987657547 -2.5
9.0 0.7265527248382568 -2.5
8.766894340515137 2.1608471870422363 -2.5
8.56459903717041 2.859288215637207 -2.5
8.306753158569336 3.5391759872436523 -2.5
7.537011623382568 4.766115665435791 -2.4690606594085693
4.8165283203125 6.977956295013428 -2.347599983215332
3.63482403755188 7.66021728515625 -2.347599983215332
3.0066308975219727 7.927861213684082 -2.347599983215332
1.6959960460662842 8.30749225616455 -2.347599983215332
-0.3414257764816284 8.471976280212402 -2.347599983215332
-1.6959960460662842 8.307494163513184 -2.347599983215332
-3.006669759750366 7.927858829498291 -2.347599983215332
-3.6348044872283936 7.660219669342041 -2.347599983215332
-4.816552639007568 6.97795295715332 -2.347599983215332
-5.362402439117432 6.567756175994873 -2.347599983215332
-6.23961877822876 6.496131420135498 -2.4939329624176025
-8.7669038772583 2.160842180252075 -2.5
-9.000009536743164 0.7265527248382568 -2.5
8.655156135559082 -7.324218586290954e-06 -2.5
8.209721565246582 2.740814208984375 -2.5
7.96255350112915 3.3925328254699707 -2.5
7.663759708404541 4.022248268127441 -2.5
7.245244026184082 4.581613540649414 -2.4760758876800537
6.083549499511719 5.389550685882568 -2.347599983215332
5.630131721496582 5.861598968505859 -2.347599983215332
5.140219688415527 6.295630931854248 -2.347599983215332
4.616962909698486 6.688827991485596 -2.347599983215332
4.063769340515137 7.03864860534668 -2.347599983215332
2.26123046875 7.806643962860107 -2.347599983215332
1.6257226467132568 7.963279724121094 -2.347599983215332
0.32725584506988525 8.120940208435059 -2.347599983215332
-2.261220693588257 7.806643009185791 -2.347599983215332
-2.8820605278015137 7.599354267120361 -2.347599983215332
-4.063759803771973 7.038654804229736 -2.347599983215332
-6.91930627822876 5.199517726898193 -2.5
-7.315244197845459 4.625878810882568 -2.5
-7.663759708404541 4.022247314453125 -2.5
-8.62710952758789 0.6964452862739563 -2.5
8.308686256408691 -4.882812390860636e-06 -2.5
8.28173828125 0.668566882610321 -2.5
8.20108413696289 1.3328039646148682 -2.5
7.881083965301514 2.631096124649048 -2.5
7.643818378448486 3.256726026535034 -2.5
7.35696268081665 3.861233949661255 -2.5
6.965053558349609 4.404433727264404 -2.4795823097229004
5.404760837554932 5.626953125 -2.347599983215332
4.934443473815918 6.043605804443359 -2.347599983215332
4.432138442993164 6.421066761016846 -2.347599983215332
3.9010937213897705 6.75688362121582 -2.347599983215332
3.344736337661743 7.048881530761719 -2.347599983215332
2.1706933975219727 7.494147777557373 -2.347599983215332
0.9404589533805847 7.74529504776001 -2.347599983215332
-0.31416991353034973 7.795849323272705 -2.347599983215332
-2.1706933975219727 7.494130611419678 -2.347599983215332
-2.766679525375366 7.29516077041626 -2.347599983215332
-4.43212890625 6.421064376831055 -2.347599983215332
-4.934462547302246 6.043604373931885 -2.347599983215332
-6.642294883728027 4.991373062133789 -2.5
-7.022411823272705 4.440699577331543 -2.5
-7.881103515625 2.631082773208618 -2.5
-8.201093673706055 1.3328100442886353 -2.5
-8.28173828125 0.668566882610321 -2.5
7.960912704467773 0.6426684260368347 -2.5
7.575780868530273 2.529172420501709 -2.5
7.347709655761719 3.130566358566284 -2.5
6.730126857757568 4.255871295928955 -2.492499828338623
6.075463771820068 4.565417289733887 -2.3788042068481445
5.818007469177246 5.154306411743164 -2.4330058097839355
4.260448932647705 6.172325134277344 -2.347599983215332
3.2151854038238525 6.775818824768066 -2.347599983215332
2.6595213413238525 7.012560844421387 -2.347599983215332
1.5001757144927979 7.348361492156982 -2.347599983215332
0.30198240280151367 7.493849754333496 -2.347599983215332
-0.302001953125 7.493849754333496 -2.347599983215332
-1.500185489654541 7.348365306854248 -2.347599983215332
-4.260448932647705 6.172324180603027 -2.347599983215332
-5.52734375 5.754566669464111 -2.4975953102111816
-6.384999752044678 4.79801607131958 -2.5
-7.071962833404541 3.7116575241088867 -2.5
-7.754726409912109 1.9113671779632568 -2.5
7.662045955657959 0.6185400485992432 -2.5
7.587421894073486 1.2330774068832397 -2.5
7.463608264923096 1.8396154642105103 -2.5
7.291367053985596 2.4342174530029297 -2.5
6.806464672088623 3.5723071098327637 -2.5
6.49694299697876 4.108417987823486 -2.5
6.028295993804932 4.529974460601807 -2.4524059295654297
4.565224647521973 5.591383934020996 -2.347599983215332
4.100497722625732 5.940598011016846 -2.347599983215332
3.094472646713257 6.521435260772705 -2.347599983215332
2.008291006088257 6.933371543884277 -2.347599983215332
1.4438574314117432 7.072484970092773 -2.347599983215332
0.8700780868530273 7.165733337402344 -2.347599983215332
-0.8700780868530273 7.165732383728027 -2.347599983215332
-2.0082714557647705 6.933376312255859 -2.347599983215332
-2.5596580505371094 6.749290466308594 -2.347599983215332
-4.586035251617432 5.61688232421875 -2.358307361602783
-5.322734355926514 5.541552543640137 -2.4989609718322754
-5.753769397735596 5.097395896911621 -2.5
-6.496962547302246 4.108413219451904 -2.5
-7.071865081787109 3.0130298137664795 -2.5
-7.29137659072876 2.434208869934082 -2.5
-7.587411880493164 1.2330797910690308 -2.5
-7.662040710449219 0.618542492389679 -2.5
7.310961723327637 1.1881444454193115 -2.5
6.558461666107178 3.442143440246582 -2.5
6.260214805603027 3.9587206840515137 -2.5
5.921371936798096 4.449624061584473 -2.5
4.398867130279541 5.387648582458496 -2.347599983215332
3.951103448867798 5.724139213562012 -2.347599983215332
3.3230175971984863 5.755556583404541 -2.2434463500976562
1.93508780002594 6.680737018585205 -2.347599983215332
1.3912500143051147 6.814785003662109 -2.347599983215332
0.8383691310882568 6.904635906219482 -2.347599983215332
0.28006836771965027 6.94970703125 -2.347599983215332
-0.28006836771965027 6.94970703125 -2.347599983215332
-1.3912500143051147 6.814782619476318 -2.347599983215332
-1.9351171255111694 6.680739402770996 -2.347599983215332
-3.951113224029541 5.724135398864746 -2.347599983215332
-4.565693378448486 5.591962814331055 -2.4366281032562256
-6.260204792022705 3.9587156772613525 -2.5
-6.814189434051514 2.9032444953918457 -2.5
7.144594669342041 -2.441406195430318e-06 -2.5
7.121420860290527 0.5748974680900574 -2.5
7.052070140838623 1.1460741758346558 -2.5
6.936986923217773 1.709814429283142 -2.5
6.326215744018555 3.32025146484375 -2.5
6.038535118103027 3.818537473678589 -2.5
5.344545841217041 4.734854698181152 -2.498479127883911
4.855888366699219 5.055511474609375 -2.452847957611084
4.243105411529541 5.1968674659729 -2.347599983215332
3.811171770095825 5.521441459655762 -2.347599983215332
3.3054003715515137 5.725121974945068 -2.313220262527466
2.876113176345825 6.061291217803955 -2.347599983215332
2.3790624141693115 6.2730712890625 -2.347599983215332
1.8665820360183716 6.44416618347168 -2.347599983215332
1.3419725894927979 6.573464393615723 -2.347599983215332
0.8086913824081421 6.660131454467773 -2.347599983215332
0.2701367139816284 6.70360803604126 -2.347599983215332
-0.2701367139816284 6.703609466552734 -2.347599983215332
-0.8086913824081421 6.660136699676514 -2.347599983215332
-1.3420019149780273 6.573464393615723 -2.347599983215332
-3.8111913204193115 5.521445274353027 -2.347599983215332
-4.949238300323486 5.152692794799805 -2.5
-6.038535118103027 3.818532705307007 -2.5
-6.572890281677246 2.8004369735717773 -2.5
-7.052080154418945 1.1460741758346558 -2.5
6.898412704467773 -4.882812390860636e-06 -2.5
6.80907678604126 1.1065783500671387 -2.5
6.697954177856445 1.6508959531784058 -2.5
6.543398380279541 2.184506893157959 -2.5
6.108242034912109 3.2058496475219727 -2.5
5.514877796173096 4.144167423248291 -2.5
1.8022656440734863 6.222121238708496 -2.347599983215332
0.7808203101158142 6.430649280548096 -2.347599983215332
-0.26084959506988525 6.472625732421875 -2.347599983215332
-0.7808300852775574 6.430649280548096 -2.347599983215332
-2.7770116329193115 5.85244607925415 -2.347599983215332
-3.2389256954193115 5.610007286071777 -2.347599983215332
-3.6800878047943115 5.331518650054932 -2.347745895385742
-5.163525104522705 4.574489593505859 -2.5
-5.514882564544678 4.144168376922607 -2.5
-5.830478191375732 3.6869590282440186 -2.5
-6.108242034912109 3.205848217010498 -2.5
-6.346386432647705 2.7039451599121094 -2.5
-6.809091567993164 1.1065869331359863 -2.5
6.645224571228027 0.5364550948143005 -2.5
6.473119735717773 1.5954797267913818 -2.5
6.323735237121582 2.1111767292022705 -2.5
6.133359432220459 2.613182306289673 -2.5
5.329745769500732 4.00505256652832 -2.5
4.611162185668945 4.800727367401123 -2.496145248413086
4.070302486419678 4.985208511352539 -2.413363218307495
3.5563182830810547 5.152231216430664 -2.347599983215332
1.7417479753494263 6.013254165649414 -2.347599983215332
0.25208982825279236 6.255351543426514 -2.347599983215332
-2.6838183403015137 5.655984878540039 -2.347599983215332
-4.210497856140137 5.156908988952637 -2.496487617492676
-4.618281364440918 4.808142185211182 -2.5
-4.990214824676514 4.420929908752441 -2.5
-5.329755783081055 4.00505256652832 -2.5
-6.133359432220459 2.613176107406616 -2.5
-6.323740005493164 2.1111669540405273 -2.5
-6.580517292022705 1.0694396495819092 -2.5
6.448569297790527 -4.882812390860636e-06 -2.5
6.427651405334473 0.5188891291618347 -2.5
6.261176586151123 1.54324209690094 -2.5
6.116703987121582 2.042055606842041 -2.5
5.709926605224609 2.9967968463897705 -2.5
5.155253887176514 3.8739256858825684 -2.5
4.826806545257568 4.276186466217041 -2.5
4.464345455169678 4.647889137268066 -2.498478412628174
4.058027267456055 4.970191478729248 -2.4875388145446777
3.439882755279541 4.983543395996094 -2.347599983215332
2.5959277153015137 5.470805644989014 -2.347599983215332
1.6847362518310547 5.816376686096191 -2.347599983215332
0.7299218773841858 6.011305809020996 -2.347599983215332
-3.0277342796325684 5.244178295135498 -2.347599983215332
-4.075312614440918 4.991352558135986 -2.4981307983398438
-4.826816082000732 4.276186466217041 -2.5
-5.155243873596191 3.873924493789673 -2.5
-5.932538986206055 2.5276196002960205 -2.5
-6.116708755493164 2.042048215866089 -2.5
-6.261171817779541 1.5432385206222534 -2.5
-6.427646160125732 0.5188915729522705 -2.5
6.161586761474609 1.0013525485992432 -2.5
5.527392387390137 2.900995969772339 -2.5
4.990458965301514 3.7500877380371094 -2.5
4.324267387390137 4.502048015594482 -2.5
2.9309375286102295 5.076535701751709 -2.347599983215332
2.512939453125 5.295915603637695 -2.347599983215332
2.0786523818969727 5.480950832366943 -2.347599983215332
1.172509789466858 5.743412971496582 -2.347599983215332
0.7065527439117432 5.819138050079346 -2.347599983215332
0.2360253781080246 5.857125282287598 -2.347599983215332
-0.7065820097923279 5.819136619567871 -2.347599983215332
-1.172519564628601 5.743416786193848 -2.347599983215332
-2.0786426067352295 5.480952262878418 -2.347599983215332
-2.9309277534484863 5.076536655426025 -2.347599983215332
-3.9477927684783936 4.835177898406982 -2.4998810291290283
-5.742890357971191 2.4468138217926025 -2.5
-5.92117166519165 1.9767699241638184 -2.5
-6.222177505493164 0.5023022294044495 -2.5
6.047372817993164 -2.441406195430318e-06 -2.5
5.969062328338623 0.9700634479522705 -2.5
5.871645450592041 1.447231411933899 -2.5
5.354687213897705 2.810353994369507 -2.5
4.526523113250732 4.010149955749512 -2.5
4.189159870147705 4.361381530761719 -2.5
3.81988263130188 4.67849588394165 -2.496887683868408
2.839345693588257 4.917917251586914 -2.347599983215332
2.4344236850738525 5.130444049835205 -2.347599983215332
2.0136914253234863 5.309699535369873 -2.347599983215332
1.135888695716858 5.563962459564209 -2.347599983215332
0.6845117211341858 5.637319087982178 -2.347599983215332
-0.6845019459724426 5.637316703796387 -2.347599983215332
-1.5799022912979126 5.454518795013428 -2.347599983215332
-2.867011547088623 4.965785980224609 -2.3704495429992676
-3.4281249046325684 4.966486930847168 -2.4947762489318848
-3.824648380279541 4.684323787689209 -2.5
-4.189169883728027 4.361381530761719 -2.5
-4.526513576507568 4.010151386260986 -2.5
-5.354677677154541 2.8103528022766113 -2.5
-5.871650218963623 1.4472302198410034 -2.5
-5.969072341918945 0.9700683355331421 -2.5
-6.027773380279541 0.4866088628768921 -2.5
5.560810565948486 1.856472134590149 -2.5
4.954951286315918 3.133312940597534 -2.5
4.388154029846191 3.8875670433044434 -2.5
4.061113357543945 4.228064060211182 -2.5
3.706298828125 4.539400577545166 -2.499044418334961
3.322021484375 4.812779426574707 -2.493792772293091
2.808154344558716 4.863867282867432 -2.3950071334838867
1.9521484375 5.147391319274902 -2.347599983215332
1.5316308736801147 5.287783145904541 -2.347599983215332
1.101171851158142 5.393881797790527 -2.347599983215332
0.6635644435882568 5.464997291564941 -2.347599983215332
-0.2216796875 5.500669002532959 -2.347599983215332
-1.101162075996399 5.393882751464844 -2.347599983215332
-1.9521484375 5.147396087646484 -2.347599983215332
-2.857988119125366 4.950175762176514 -2.4375076293945312
-3.325751781463623 4.818195819854736 -2.4966020584106445
-4.388154029846191 3.8875670433044434 -2.5
-4.686748027801514 3.5218615531921387 -2.5
-4.954941272735596 3.1333117485046387 -2.5
-5.190996170043945 2.7244458198547363 -2.5
-5.393398284912109 2.297910213470459 -2.5
-5.69216775894165 1.4029895067214966 -2.5
-5.843515396118164 0.4717358350753784 -2.5
5.687021255493164 -4.882812390860636e-06 -2.5
5.668583869934082 0.4576147496700287 -2.5
5.52175760269165 1.360992431640625 -2.5
5.394345760345459 1.8008959293365479 -2.5
5.231943130493164 2.2291247844696045 -2.5
4.546454906463623 3.416437864303589 -2.5
4.256806373596191 3.771191358566284 -2.5
3.225409984588623 4.672824382781982 -2.4959921836853027
2.2903125286102295 4.8267502784729 -2.348583459854126
1.068203091621399 5.232417106628418 -2.347599983215332
0.6437109112739563 5.301403522491455 -2.347599983215332
0.2150292992591858 5.336008071899414 -2.347599983215332
-0.21503905951976776 5.336007118225098 -2.347599983215332
-1.068203091621399 5.232411861419678 -2.347599983215332
-1.4858007431030273 5.129488468170166 -2.347599983215332
-2.293017625808716 4.832430362701416 -2.351346492767334
-2.83526349067688 4.910799503326416 -2.4927382469177246
-3.5967187881469727 4.405192852020264 -2.5
-3.9395506381988525 4.101492881774902 -2.5
-4.806621074676514 3.0395164489746094 -2.5
-5.035605430603027 2.642890453338623 -2.5
5.502255916595459 0.4441870152950287 -2.5
5.448681354522705 0.8854956030845642 -2.5
5.236073970794678 1.7480566501617432 -2.5
4.887851238250732 2.565345287322998 -2.5
4.413046836853027 3.316190004348755 -2.5
4.131904125213623 3.6605405807495117 -2.5
3.8239550590515137 3.981154680252075 -2.5
2.752997875213623 4.768344402313232 -2.493593454360962
2.281865119934082 4.808932781219482 -2.4106462001800537
1.4421874284744263 4.978986740112305 -2.347599983215332
1.036865234375 5.078888893127441 -2.347599983215332
0.6248242259025574 5.145852088928223 -2.347599983215332
-0.20872069895267487 5.179443359375 -2.347599983215332
-1.442177653312683 4.97898530960083 -2.347599983215332
-2.285205125808716 4.815929889678955 -2.4141523838043213
-3.491201162338257 4.275938510894775 -2.5
-4.131884574890137 3.6605381965637207 -2.5
-4.413056373596191 3.3161914348602295 -2.5
-4.665585994720459 2.950331926345825 -2.5
-5.078437328338623 2.1637158393859863 -2.5
-5.236073970794678 1.7480541467666626 -2.5
-5.359755516052246 1.3210570812225342 -2.5
-5.448671817779541 0.885498046875 -2.5
5.291845798492432 0.8600072860717773 -2.5
5.205488204956055 1.2830346822738647 -2.5
5.085361003875732 1.6977441310882568 -2.5
4.531289100646973 2.865412473678589 -2.5
4.286025524139404 3.220740795135498 -2.5
3.7138671875 3.8665599822998047 -2.5
3.390702962875366 4.152863502502441 -2.5
1.808349609375 4.768205642700195 -2.377981185913086
1.40066397190094 4.835673809051514 -2.347599983215332
0.6068359017372131 4.997737884521484 -2.347599983215332
0.20271484553813934 5.030356407165527 -2.347599983215332
-0.2027246057987213 5.030360221862793 -2.347599983215332
-1.7959765195846558 4.735598087310791 -2.361719846725464
-2.2788281440734863 4.802573204040527 -2.47880482673645
-2.677001953125 4.636706352233887 -2.496614456176758
-3.0455663204193115 4.4122314453125 -2.5
-4.01296854019165 3.5551769733428955 -2.5
-4.531298637390137 2.865410089492798 -2.5
-4.932255744934082 2.101433038711548 -2.5
-5.343876838684082 0.4314013719558716 -2.5
