ply
format ascii 1.0
element vertex 744
property float x
property float y
property float z
end_header
10.647016525268555 -15.424858093261719 5.022066116333008
10.655200004577637 -15.436723709106445 4.803800582885742
10.654916763305664 -15.436298370361328 4.582803726196289
10.654345512390137 -15.435473442077637 4.14437198638916
-6.298447132110596 -16.607704162597656 3.7188878059387207
10.654062271118164 -15.43505859375 3.926799774169922
-6.301962852478027 -16.616968154907227 3.3116490840911865
10.653217315673828 -15.433837890625 3.2799742221832275
10.652934074401855 -15.43343734741211 3.06612491607666
-6.307182312011719 -16.6307373046875 2.706102132797241
21.928091049194336 -13.86647891998291 3.9472758769989014
-6.310639381408691 -16.63985252380371 2.3053276538848877
-6.312367916107178 -16.644384384155273 2.1056625843048096
-6.314076900482178 -16.648929595947266 1.906410813331604
10.651556968688965 -15.431435585021973 2.0076348781585693
-6.315800666809082 -16.6534423828125 1.707521915435791
10.651284217834473 -15.431035041809082 1.797568917274475
10.650741577148438 -15.430243492126465 1.378864049911499
-0.9241308569908142 -22.93229866027832 1.4324575662612915
-6.322636604309082 -16.67147445678711 0.9146273732185364
-0.9667382836341858 -23.989530563354492 0.9649627208709717
-6.3260498046875 -16.680463790893555 0.5190832614898682
-0.9667382836341858 -23.989530563354492 0.6985741853713989
10.648842811584473 -15.427504539489746 0.5454464554786682
-6.32775354385376 -16.68497085571289 0.3213678002357483
-0.9667431712150574 -23.989521026611328 0.43236786127090454
-0.9667382836341858 -23.989530563354492 0.16626402735710144
-0.9667382836341858 -23.989521026611328 -0.09977828711271286
10.647148132324219 -15.425048828125 -0.07788848876953125
-6.332870960235596 -16.698455810546875 -0.27213791012763977
-0.9667382836341858 -23.989530563354492 -0.36585769057273865
10.646581649780273 -15.424227714538574 -0.2855908274650574
-6.334579944610596 -16.702959060668945 -0.4702540338039398
-0.9667333960533142 -23.989530563354492 -0.6320431232452393
-6.336293697357178 -16.707475662231445 -0.6685971021652222
-0.9667382836341858 -23.989521026611328 -0.8983575105667114
10.645453453063965 -15.422592163085938 -0.7011951804161072
-6.338002681732178 -16.711986541748047 -0.8672100901603699
-0.9667382836341858 -23.989521026611328 -1.1649084091186523
10.644892692565918 -15.42177677154541 -0.9091975092887878
-19.31302261352539 -12.212831497192383 -1.36265230178833
-6.33971643447876 -16.716522216796875 -1.066144585609436
9.841825485229492 -20.741235733032227 -1.3690502643585205
10.644326210021973 -15.4209566116333 -1.117401361465454
17.549062728881836 -21.493677139282227 -1.6547024250030518
-26.997737884521484 -9.013154029846191 -2.014061450958252
-26.9407958984375 -11.478388786315918 -2.0721988677978516
-0.9667431712150574 -23.989521026611328 -1.698932409286499
-26.88921356201172 -8.9769287109375 -2.321939706802368
-25.378334045410156 -13.319608688354492 -2.347599983215332
-19.196489334106445 -12.13912582397461 -1.860349416732788
-21.50765037536621 -19.05413055419922 -2.353546380996704
-18.231204986572266 -22.329174041748047 -2.361128091812134
-16.397220611572266 -23.755462646484375 -2.364285469055176
-12.405038833618164 -26.14311408996582 -2.370176076889038
-6.343163967132568 -16.725589752197266 -1.4651775360107422
-5.920122146606445 -20.438426971435547 -1.74288809299469
-5.803667068481445 -28.428232192993164 -2.376534938812256
-3.4991796016693115 -28.818349838256836 -2.377798318862915
3.499018430709839 -28.817001342773438 -2.377686023712158
9.756820678710938 -20.562068939208984 -1.8641903400421143
10.6431884765625 -15.419321060180664 -1.5346224308013916
17.283559799194336 -21.168495178222656 -2.238400459289551
19.854389190673828 -20.670629501342773 -2.347599983215332
21.453310012817383 -19.005985260009766 -2.347599983215332
-26.773061752319336 -2.1613426208496094 -2.5
-26.512319564819336 -4.308696269989014 -2.5
-26.079633712768555 -6.428081035614014 -2.5
-23.204418182373047 -9.886479377746582 -2.347599983215332
-22.333637237548828 -11.721606254577637 -2.347599983215332
-19.19647979736328 -12.139130592346191 -2.113969326019287
-18.879507064819336 -16.725805282592773 -2.347599983215332
-17.472415924072266 -18.19070816040039 -2.347599983215332
-12.650590896606445 -21.91144561767578 -2.3548991680145264
-5.078188419342041 -24.874530792236328 -2.362942695617676
-0.9627343416213989 -23.890249252319336 -2.225381851196289
3.0615429878234863 -25.214080810546875 -2.364027738571167
6.004926681518555 -20.73140525817871 -2.0088844299316406
8.984594345092773 -23.69044303894043 -2.358226776123047
9.756815910339355 -20.562068939208984 -2.1183321475982666
12.631552696228027 -21.878461837768555 -2.3513526916503906
18.879501342773438 -16.725786209106445 -2.347599983215332
20.164159774780273 -15.152377128601074 -2.347599983215332
22.687347412109375 -14.346611022949219 -2.4983935356140137
23.783475875854492 -12.48253345489502 -2.5
25.47783660888672 -8.505751609802246 -2.5
-23.899818420410156 -1.9293895959854126 -2.5
-23.280824661254883 -5.738246917724609 -2.5
-22.058862686157227 -9.39840316772461 -2.5
-20.744369506835938 -10.887479782104492 -2.4426896572113037
-19.03019905090332 -12.033984184265137 -2.347599983215332
-0.9090771079063416 -22.55855369567871 -2.353956460952759
11.25795841217041 -19.499324798583984 -2.347599983215332
10.568387985229492 -15.310952186584473 -1.939750075340271
22.05887222290039 -9.398412704467773 -2.5
23.667064666748047 -3.8462841510772705 -2.5
-21.01980972290039 -5.180932521820068 -2.5
-20.534759521484375 -6.855512619018555 -2.5
-18.279788970947266 -11.55943775177002 -2.497589111328125
-11.548291206359863 -16.730571746826172 -2.347599983215332
-7.454916954040527 -15.710956573486328 -2.008183002471924
-6.019814491271973 -15.872978210449219 -1.9603981971740723
-4.066357135772705 -19.9183349609375 -2.347599983215332
5.655932426452637 -19.52653694152832 -2.347599983215332
10.164594650268555 -17.605581283569336 -2.347599983215332
10.551962852478027 -15.287142753601074 -2.1450603008270264
12.85708999633789 -15.747084617614746 -2.347599983215332
14.144789695739746 -14.72630786895752 -2.357983112335205
19.169139862060547 -10.060736656188965 -2.5
19.91653823852539 -8.48563003540039 -2.5
20.534765243530273 -6.855512619018555 -2.5
21.01980972290039 -5.180927753448486 -2.5
21.36854362487793 -3.472729444503784 -2.5
21.578691482543945 -1.7420165538787842 -2.5
-19.663921356201172 -1.5872802734375 -2.5
-19.472515106201172 -3.164614200592041 -2.5
-17.468246459960938 -9.168046951293945 -2.5
-15.771390914916992 -11.85142993927002 -2.5
-14.722465515136719 -13.042978286743164 -2.4925270080566406
-7.439619064331055 -15.6787109375 -2.1991958618164062
-6.019814491271973 -15.872978210449219 -2.1512820720672607
-3.7055516242980957 -18.150976181030273 -2.347599983215332
-2.232983350753784 -18.390296936035156 -2.347599983215332
2.232988119125366 -18.39029312133789 -2.347599983215332
5.154077053070068 -17.793949127197266 -2.347599983215332
6.569184303283691 -17.321517944335938 -2.347599983215332
7.941684246063232 -16.736757278442383 -2.347599983215332
9.262690544128418 -16.043437957763672 -2.347599983215332
10.5236177444458 -15.246073722839355 -2.347599983215332
12.016141891479492 -14.7170991897583 -2.4076826572418213
15.771390914916992 -11.851435661315918 -2.5
17.468265533447266 -9.168046951293945 -2.5
-18.116058349609375 1.9531249563442543e-05 -2.5
-17.183725357055664 -5.736772537231445 -2.5
-16.666391372680664 -7.100888729095459 -2.5
-16.040971755981445 -8.4189453125 -2.5
-14.482748985290527 -10.883075714111328 -2.5
-13.560063362121582 -12.013168334960938 -2.5
-12.5494384765625 -13.065336227416992 -2.5
-11.3228120803833 -13.867938995361328 -2.4706313610076904
-5.980702877044678 -15.76986312866211 -2.3274803161621094
-4.732954025268555 -16.34004783630371 -2.347599983215332
-0.6849902272224426 -16.997905731201172 -2.347599983215332
0.6849902272224426 -16.997905731201172 -2.347599983215332
2.050532102584839 -16.887664794921875 -2.347599983215332
4.732958793640137 -16.34004783630371 -2.347599983215332
6.032431602478027 -15.906220436096191 -2.347599983215332
7.292788028717041 -15.369233131408691 -2.347599983215332
8.506792068481445 -14.734174728393555 -2.3478569984436035
11.457411766052246 -14.032793045043945 -2.5
12.549423217773438 -13.065351486206055 -2.5
14.482748985290527 -10.883075714111328 -2.5
15.311508178710938 -9.682416915893555 -2.5
16.040971755981445 -8.4189453125 -2.5
-16.743764877319336 9.765624781721272e-06 -2.5
-16.68946647644043 -1.3473193645477295 -2.5
-16.2572021484375 -4.007055759429932 -2.5
-14.825854301452637 -7.781205654144287 -2.5
-14.15164566040039 -8.948969841003418 -2.5
-11.5988130569458 -12.075629234313965 -2.5
-10.589506149291992 -12.969799041748047 -2.5
-9.50832462310791 -13.77518081665039 -2.499154806137085
-6.89049768447876 -14.5214204788208 -2.399893045425415
-4.374433517456055 -15.102274894714355 -2.347599983215332
-3.145024299621582 -15.40529727935791 -2.347599983215332
-1.895205020904541 -15.608412742614746 -2.347599983215332
5.58629846572876 -14.729872703552246 -2.352160692214966
6.981259822845459 -14.712690353393555 -2.4315028190612793
9.511537551879883 -13.779848098754883 -2.5
11.598803520202637 -12.075654029846191 -2.5
12.53287124633789 -11.103168487548828 -2.5
13.3856782913208 -10.058686256408691 -2.5
15.882064819335938 -5.302216529846191 -2.5
16.25721549987793 -4.007055759429932 -2.5
16.689456939697266 -1.3473095893859863 -2.5
-15.561088562011719 -4.882812390860636e-06 -2.5
-15.510629653930664 -1.2521532773971558 -2.5
-15.10891056060791 -3.7240185737609863 -2.5
-13.152074813842773 -8.316869735717773 -2.5
-10.779541015625 -11.22269058227539 -2.5
-8.839701652526855 -12.806528091430664 -2.5
-6.670912742614746 -14.058676719665527 -2.5
-4.252187252044678 -14.680229187011719 -2.455427646636963
-3.0036473274230957 -14.712861061096191 -2.412482261657715
0.5933789014816284 -14.724550247192383 -2.367523193359375
5.507890701293945 -14.523110389709473 -2.4954020977020264
8.839696884155273 -12.806523323059082 -2.5
10.779541015625 -11.222695350646973 -2.5
13.778661727905273 -7.23159646987915 -2.5
14.760258674621582 -4.927710056304932 -2.5
15.108915328979492 -3.7240185737609863 -2.5
15.359580039978027 -2.4961814880371094 -2.5
15.5106201171875 -1.2521483898162842 -2.5
-14.531059265136719 0.0 -2.5
-14.34288501739502 -2.3309521675109863 -2.5
-12.281503677368164 -7.766357421875 -2.5
-11.616738319396973 -8.729418754577637 -2.5
-10.066010475158691 -10.479833602905273 -2.5
-8.254584312438965 -11.958818435668945 -2.5
-6.229350566864014 -13.12808609008789 -2.5
-4.042792797088623 -13.957338333129883 -2.5
-1.7496484518051147 -14.40966796875 -2.4973247051239014
-0.5841357111930847 -14.4952974319458 -2.49587345123291
0.5841454863548279 -14.495302200317383 -2.49587345123291
1.7496581077575684 -14.40966796875 -2.4973249435424805
2.9065868854522705 -14.237387657165527 -2.5
4.042797565460205 -13.957338333129883 -2.5
5.152782917022705 -13.586776733398438 -2.5
6.229350566864014 -13.128080368041992 -2.5
7.265527248382568 -12.58426284790039 -2.5
8.254579544067383 -11.958823204040527 -2.5
9.19009780883789 -11.255829811096191 -2.5
10.8766450881958 -9.635873794555664 -2.5
11.616747856140137 -8.729418754577637 -2.5
12.866605758666992 -6.752914905548096 -2.5
13.368270874023438 -5.695688247680664 -2.5
13.783231735229492 -4.601523399353027 -2.5
14.342875480651855 -2.3309521675109863 -2.5
14.483930587768555 -1.1692626476287842 -2.5
-13.581488609313965 -1.096411108970642 -2.5
-13.229731559753418 -3.2608494758605957 -2.5
-10.8929443359375 -8.185507774353027 -2.5
-10.198954582214355 -9.035497665405273 -2.5
-7.740268230438232 -11.21371078491211 -2.5
-6.812841415405273 -11.800180435180664 -2.5
-5.841220378875732 -12.310121536254883 -2.5
-1.6423876285552979 -13.526323318481445 -2.5
-0.5486523509025574 -13.61461353302002 -2.5
1.6423925161361694 -13.526317596435547 -2.5
4.831728458404541 -12.74022388458252 -2.5
6.812841415405273 -11.800180435180664 -2.5
10.198965072631836 -9.03548812866211 -2.5
11.516279220581055 -7.282460689544678 -2.5
12.06493091583252 -6.332167625427246 -2.5
12.924448013305664 -4.314814567565918 -2.5
13.229736328125 -3.2608447074890137 -2.5
13.581493377685547 -1.096411108970642 -2.5
-12.65738296508789 -2.0570263862609863 -2.5
-11.797308921813965 -5.026362419128418 -2.5
-10.838241577148438 -6.853696346282959 -2.5
-10.251615524291992 -7.703583717346191 -2.5
-9.598485946655273 -8.503520011901855 -2.5
-8.883110046386719 -9.248295783996582 -2.5
-5.497309684753418 -11.58535099029541 -2.5
-4.547260761260986 -11.99013614654541 -2.5
-2.5650243759155273 -12.564291954040527 -2.5
1.5456981658935547 -12.729941368103027 -2.5
2.565019369125366 -12.564291954040527 -2.5
3.567704916000366 -12.317152976989746 -2.5
4.547255992889404 -11.99013614654541 -2.5
5.497319221496582 -11.585346221923828 -2.5
8.110126495361328 -9.93310546875 -2.5
11.354598999023438 -5.9593505859375 -2.5
11.797308921813965 -5.026357173919678 -2.5
12.163505554199219 -4.060771465301514 -2.5
12.781865119934082 -1.0318603515625 -2.5
-12.107514381408691 4.882812390860636e-06 -2.5
-12.068246841430664 -0.9742431640625 -2.5
-7.657338619232178 -9.378544807434082 -2.5
-6.877851486206055 -9.964286804199219 -2.5
-4.293388366699219 -11.320717811584473 -2.5
-2.421821117401123 -11.862821578979492 -2.5
-1.4593944549560547 -12.019227981567383 -2.5
-0.4875243902206421 -12.097700119018555 -2.5
3.3685154914855957 -11.62948226928711 -2.5
6.877846717834473 -9.964286804199219 -2.5
9.062602043151855 -8.028754234313965 -2.5
9.679262161254883 -7.273500919342041 -2.5
10.233149528503418 -6.471054553985596 -2.5
11.138667106628418 -4.745732307434082 -2.5
11.484418869018555 -3.834052562713623 -2.5
11.755693435668945 -2.897524356842041 -2.5
12.068251609802246 -0.9742480516433716 -2.5
-10.87451171875 -3.630444288253784 -2.5
-10.151323318481445 -5.327826976776123 -2.5
-9.689692497253418 -6.127387523651123 -2.5
-9.165224075317383 -6.887221336364746 -2.5
-7.941752910614014 -8.268241882324219 -2.5
-6.512587547302246 -9.435111999511719 -2.5
-5.732260704040527 -9.928568840026855 -2.5
-4.065371036529541 -10.71950626373291 -2.5
-0.46163085103034973 -11.455214500427246 -2.5
5.732255935668945 -9.928559303283691 -2.5
6.512582778930664 -9.435111999511719 -2.5
9.689692497253418 -6.127397537231445 -2.5
10.547119140625 -4.493700981140137 -2.5
10.874502182006836 -3.630444288253784 -2.5
11.3160400390625 -1.8390331268310547 -2.5
11.427338600158691 -0.9225146174430847 -2.5
-10.88370132446289 0.0 -2.5
-10.742758750915527 -1.7458691596984863 -2.5
-10.5674409866333 -2.6046533584594727 -2.5
-10.323588371276855 -3.446523427963257 -2.5
-10.012773513793945 -4.266044616699219 -2.5
-9.637036323547363 -5.057909965515137 -2.5
-9.198798179626465 -5.816972732543945 -2.5
-6.883349418640137 -8.430571556091309 -2.5
-5.441855430603027 -9.42556095123291 -2.5
-4.665751934051514 -9.8328857421875 -2.5
-3.0280468463897705 -10.453993797302246 -2.5
-2.1770215034484863 -10.663740158081055 -2.5
-1.3118847608566284 -10.804340362548828 -2.5
-0.4382373094558716 -10.8748779296875 -2.5
1.3118896484375 -10.80434513092041 -2.5
2.1770215034484863 -10.663749694824219 -2.5
3.0280370712280273 -10.453984260559082 -2.5
3.8594090938568115 -10.176440238952637 -2.5
4.665756702423096 -9.832890510559082 -2.5
9.198793411254883 -5.816972732543945 -2.5
9.637041091918945 -5.057909965515137 -2.5
10.01278305053711 -4.266035079956055 -2.5
10.323588371276855 -3.4465184211730957 -2.5
10.5674409866333 -2.6046435832977295 -2.5
10.742758750915527 -1.7458691596984863 -2.5
-10.055410385131836 -2.478447198867798 -2.5
-9.527636528015137 -4.059345722198486 -2.5
-9.170092582702637 -4.812841892242432 -2.5
-8.753081321716309 -5.535121917724609 -2.5
-7.751835823059082 -6.867538928985596 -2.5
-7.174096584320068 -7.469027996063232 -2.5
-6.549829006195068 -8.022085189819336 -2.5
-5.178183555603027 -8.968862533569336 -2.5
-3.6724119186401367 -9.683354377746582 -2.5
-0.41701170802116394 -10.347953796386719 -2.5
3.6724119186401367 -9.683363914489746 -2.5
5.883095741271973 -8.523115158081055 -2.5
6.549824237823486 -8.022079467773438 -2.5
7.174091815948486 -7.469027996063232 -2.5
-9.875297546386719 0.0 -2.5
-9.747421264648438 -1.5841113328933716 -2.5
-9.588335037231445 -2.3633203506469727 -2.5
-9.367084503173828 -3.127202033996582 -2.5
-8.744140625 -4.589286804199219 -2.5
-8.346503257751465 -5.278017520904541 -2.5
-7.391772270202637 -6.548540115356445 -2.5
-5.609809398651123 -8.127216339111328 -2.5
-4.937646389007568 -8.552265167236328 -2.5
-2.747490167617798 -9.485400199890137 -2.5
-1.1903369426727295 -9.803296089172363 -2.5
-0.3976415991783142 -9.867294311523438 -2.5
3.501826047897339 -9.233569145202637 -2.5
4.233471393585205 -8.92184066772461 -2.5
5.609814167022705 -8.127206802368164 -2.5
6.245595455169678 -7.649457931518555 -2.5
7.391772270202637 -6.548540115356445 -2.5
9.085073471069336 -3.87078595161438 -2.5
9.367084503173828 -3.127192258834839 -2.5
9.588339805603027 -2.3633203506469727 -2.5
9.747421264648438 -1.5841162204742432 -2.5
-9.404004096984863 -0.7591747641563416 -2.5
-9.312426567077637 -1.513427734375 -2.5
-9.160449028015137 -2.2578563690185547 -2.5
-8.94906234741211 -2.9876365661621094 -2.5
-8.679638862609863 -3.6980466842651367 -2.5
-7.974032878875732 -5.04248046875 -2.5
-7.542421817779541 -5.667763710021973 -2.5
-7.061894416809082 -6.256298542022705 -2.5
-6.535581111907959 -6.804257869720459 -2.5
-5.966865062713623 -7.308090686798096 -2.5
-4.044531345367432 -8.523691177368164 -2.5
-3.3455615043640137 -8.821503639221191 -2.5
-2.624872922897339 -9.062104225158691 -2.5
-1.8871630430221558 -9.24393081665039 -2.5
-0.37989744544029236 -9.426947593688965 -2.5
0.3798925578594208 -9.426947593688965 -2.5
1.1372168064117432 -9.36581039428711 -2.5
4.044545650482178 -8.523691177368164 -2.5
4.717304706573486 -8.170599937438965 -2.5
5.966865062713623 -7.308095455169678 -2.5
6.535575866699219 -6.804257869720459 -2.5
7.061899185180664 -6.256303787231445 -2.5
7.542421817779541 -5.667758464813232 -2.5
7.974032878875732 -5.042470455169678 -2.5
8.94906234741211 -2.9876365661621094 -2.5
9.160449028015137 -2.2578563690185547 -2.5
9.404008865356445 -0.7591650485992432 -2.5
-8.766899108886719 -2.1608593463897705 -2.5
-8.564594268798828 -2.8592870235443115 -2.5
-8.3067626953125 -3.5392186641693115 -2.5
-7.995028972625732 -4.196117877960205 -2.5
-7.631454944610596 -4.825839519500732 -2.5
-6.254799842834473 -6.511938095092773 -2.5
-5.129213809967041 -7.430942058563232 -2.5
-4.514643669128418 -7.819584846496582 -2.5
-3.870781183242798 -8.15750503540039 -2.5
-1.806093692779541 -8.846796989440918 -2.5
2.512094736099243 -8.672782897949219 -2.5
3.2018213272094727 -8.442519187927246 -2.5
4.514643669128418 -7.819580078125 -2.5
5.129213809967041 -7.430952072143555 -2.5
6.254794597625732 -6.511943340301514 -2.5
6.758505821228027 -5.987524509429932 -2.5
7.218388557434082 -5.424267292022705 -2.5
7.631454944610596 -4.825839519500732 -2.5
7.99502420425415 -4.196113109588623 -2.5
8.564604759216309 -2.8592772483825684 -2.5
8.766894340515137 -2.1608543395996094 -2.5
8.912353515625 -1.448403239250183 -2.5
-8.655160903930664 0.0 -2.5
-8.403647422790527 -2.0713281631469727 -2.5
-8.209731101989746 -2.7408103942871094 -2.5
-7.663759708404541 -4.022260665893555 -2.5
-7.315238952636719 -4.62588357925415 -2.5
-6.919301509857178 -5.199516296386719 -2.5
-4.916679382324219 -7.123046875 -2.5
-4.327578067779541 -7.495580673217773 -2.5
-3.069159984588623 -8.0927095413208 -2.5
-2.408017635345459 -8.313427925109863 -2.5
-1.7312548160552979 -8.480234146118164 -2.5
-1.0432665348052979 -8.592050552368164 -2.5
-0.34850096702575684 -8.648134231567383 -2.5
0.3485058546066284 -8.6481294631958 -2.5
2.408012628555298 -8.313427925109863 -2.5
5.473910808563232 -6.704326152801514 -2.5
6.919301509857178 -5.199516296386719 -2.5
7.315248966217041 -4.625888347625732 -2.5
7.962563514709473 -3.392529249191284 -2.5
8.543075561523438 -1.3883886337280273 -2.5
-8.28173828125 -0.6685742139816284 -2.5
-8.067240715026855 -1.9884033203125 -2.5
-7.643808364868164 -3.256718635559082 -2.5
-7.356972694396973 -3.8612546920776367 -2.5
-7.022411823272705 -4.440707683563232 -2.5
-6.219130516052246 -5.509677410125732 -2.5
-5.755624771118164 -5.992240905761719 -2.5
-5.254780292510986 -6.435946941375732 -2.5
-4.719868183135986 -6.837910175323486 -2.5
-3.5618603229522705 -7.506479263305664 -2.5
-1.6619482040405273 -8.140756607055664 -2.5
-1.001503825187683 -8.248095512390137 -2.5
0.33455565571784973 -8.3019380569458 -2.5
1.6619482040405273 -8.140756607055664 -2.5
2.3116209506988525 -7.980629920959473 -2.5
3.5618700981140137 -7.506484031677246 -2.5
4.154340744018555 -7.195522308349609 -2.5
4.719862937927246 -6.837904930114746 -2.5
5.755620002746582 -5.992240905761719 -2.5
7.022402286529541 -4.44070291519165 -2.5
7.35696268081665 -3.8612353801727295 -2.5
7.881083965301514 -2.6310887336730957 -2.5
8.201079368591309 -1.3328075408935547 -2.5
8.281733512878418 -0.6685644388198853 -2.5
-7.960912704467773 -0.6426757574081421 -2.5
-7.883383750915527 -1.2811815738677979 -2.5
-7.575780868530273 -2.5291748046875 -2.5
-7.071972370147705 -3.7116551399230957 -2.5
-6.750375747680664 -4.268681526184082 -2.5
-6.38500452041626 -4.798017501831055 -2.5
-5.978212833404541 -5.296235084533691 -2.5
-5.051220417022705 -6.186625957489014 -2.5
-4.537021160125732 -6.573022365570068 -2.5
-3.993403196334839 -6.91677713394165 -2.5
-3.42388653755188 -7.21569299697876 -2.5
-2.832158088684082 -7.467792987823486 -2.5
-2.2220702171325684 -7.671474456787109 -2.5
-1.59756338596344 -7.825400352478027 -2.5
-0.3215966820716858 -7.980336666107178 -2.5
0.3215917944908142 -7.980331897735596 -2.5
0.9627001881599426 -7.928574085235596 -2.5
1.5975682735443115 -7.825400352478027 -2.5
3.423881769180298 -7.21569299697876 -2.5
3.993408203125 -6.916781902313232 -2.5
5.051215648651123 -6.186621189117432 -2.5
5.532656192779541 -5.760112285614014 -2.5
5.978202819824219 -5.296235084533691 -2.5
7.071972370147705 -3.7116551399230957 -2.5
7.347709655761719 -3.130566358566284 -2.5
7.575786113739014 -2.529165029525757 -2.5
7.754735946655273 -1.9113720655441284 -2.5
7.883383750915527 -1.281166911125183 -2.5
-7.291357040405273 -2.434218645095825 -2.5
-6.806469440460205 -3.5723094940185547 -2.5
-6.145283222198486 -4.617890357971191 -2.5
-5.75377893447876 -5.097402095794678 -2.5
-5.324951171875 -5.543857097625732 -2.5
-3.2953367233276367 -6.944789886474609 -2.5
-2.725839853286743 -7.187436580657959 -2.5
-2.1386473178863525 -7.383461952209473 -2.5
0.926562488079071 -7.630918025970459 -2.5
1.5375927686691284 -7.53161096572876 -2.5
2.1386473178863525 -7.383466720581055 -2.5
2.725830078125 -7.187436580657959 -2.5
3.295341730117798 -6.944799423217773 -2.5
4.366694450378418 -6.326250076293945 -2.5
5.324941158294678 -5.543862342834473 -2.5
6.145287990570068 -4.617880821228027 -2.5
6.496938228607178 -4.108422756195068 -2.5
6.806464672088623 -3.5723094940185547 -2.5
7.291371822357178 -2.434213876724243 -2.5
7.463598251342773 -1.8396142721176147 -2.5
7.587421894073486 -1.2330760955810547 -2.5
7.662035942077637 -0.6185497641563416 -2.5
-7.406874656677246 -4.882812390860636e-06 -2.5
-7.191640377044678 -1.7725927829742432 -2.5
-7.025683403015137 -2.345522403717041 -2.5
-6.260219573974609 -3.958735227584839 -2.5
-5.544130802154541 -4.911669731140137 -2.5
-5.130922794342041 -5.341855525970459 -2.5
-4.684443473815918 -5.737402439117432 -2.5
-4.207582950592041 -6.09573221206665 -2.5
-3.703432559967041 -6.414535999298096 -2.5
-2.626518487930298 -6.925546646118164 -2.5
-0.8927978277206421 -7.352870941162109 -2.5
0.2982470691204071 -7.400859355926514 -2.5
1.4815722703933716 -7.257177352905273 -2.5
2.060722589492798 -7.114433288574219 -2.5
2.626513719558716 -6.925546646118164 -2.5
3.1752684116363525 -6.691747665405273 -2.5
3.703437328338623 -6.414540767669678 -2.5
4.207592487335205 -6.09573221206665 -2.5
4.684443473815918 -5.737397193908691 -2.5
5.130918025970459 -5.341860294342041 -2.5
5.544120788574219 -4.911669731140137 -2.5
6.260214805603027 -3.9587206840515137 -2.5
6.55846643447876 -3.442148447036743 -2.5
6.814174652099609 -2.903247117996216 -2.5
7.19164514541626 -1.7725878953933716 -2.5
7.310961723327637 -1.1881444454193115 -2.5
-7.121420860290527 -0.574902355670929 -2.5
-6.936977386474609 -1.7098242044448853 -2.5
-6.776899337768555 -2.262460947036743 -2.5
-6.326220512390137 -3.320258617401123 -2.5
-6.038530349731445 -3.818544864654541 -2.5
-4.949233055114746 -5.152695178985596 -2.5
-4.058588981628418 -5.8798828125 -2.5
-2.533505916595459 -6.680307388305664 -2.5
-1.9877489805221558 -6.862504959106445 -2.5
-1.42910635471344 -7.000205039978027 -2.5
1.42910635471344 -7.000195026397705 -2.5
3.0628271102905273 -6.454775333404541 -2.5
3.5722997188568115 -6.187392234802246 -2.5
4.058588981628418 -5.8798828125 -2.5
4.949223518371582 -5.152695178985596 -2.5
5.347802639007568 -4.737743854522705 -2.5
5.711694240570068 -4.292055606842041 -2.5
6.038535118103027 -3.818535089492798 -2.5
6.326220512390137 -3.320244073867798 -2.5
6.5728759765625 -2.8004345893859863 -2.5
6.776899337768555 -2.262460947036743 -2.5
7.121420860290527 -0.5748974680900574 -2.5
-6.898407936096191 -4.882812390860636e-06 -2.5
-6.876035213470459 -0.5550927519798279 -2.5
-6.80907678604126 -1.1065869331359863 -2.5
-5.830468654632568 -3.686967611312866 -2.5
-5.514882564544678 -4.144174575805664 -2.5
-5.163530349731445 -4.574496746063232 -2.5
-4.778700828552246 -4.975151062011719 -2.5
-3.4491941928863525 -5.974194049835205 -2.5
-2.957289934158325 -6.232367992401123 -2.5
-2.4462060928344727 -6.450126647949219 -2.5
-1.9192577600479126 -6.626049518585205 -2.5
-1.379858374595642 -6.758994102478027 -2.5
-0.8315185308456421 -6.848110198974609 -2.5
0.2777734398841858 -6.892807483673096 -2.5
0.8315136432647705 -6.848114967346191 -2.5
1.9192577600479126 -6.626054763793945 -2.5
3.449208974838257 -5.974199295043945 -2.5
4.362865924835205 -5.343544960021973 -2.5
4.7786865234375 -4.975156307220459 -2.5
5.830463886260986 -3.686962842941284 -2.5
6.108237266540527 -3.2058496475219727 -2.5
6.346396446228027 -2.7039403915405273 -2.5
6.697954177856445 -1.6508984565734863 -2.5
6.809072017669678 -1.1065820455551147 -2.5
-6.645219802856445 -0.5364648103713989 -2.5
-6.580507755279541 -1.0694433450698853 -2.5
-6.473105430603027 -1.5954785346984863 -2.5
-5.9031982421875 -3.0982322692871094 -2.5
-5.634750843048096 -3.5632030963897705 -2.5
-5.329755783081055 -4.005048751831055 -2.5
-4.990195274353027 -4.420932292938232 -2.5
-2.858022451400757 -6.023159027099609 -2.5
-1.8548290729522705 -6.403617858886719 -2.5
-1.3335448503494263 -6.532109260559082 -2.5
-0.26844725012779236 -6.661435604095459 -2.5
1.8548388481140137 -6.403617858886719 -2.5
3.3334178924560547 -5.773647308349609 -2.5
3.7871971130371094 -5.486699104309082 -2.5
4.618281364440918 -4.808149337768555 -2.5
5.329760551452637 -4.005048751831055 -2.5
5.634750843048096 -3.5631980895996094 -2.5
5.903188228607178 -3.0982322692871094 -2.5
6.133364200592041 -2.613168954849243 -2.5
6.645224571228027 -0.5364453196525574 -2.5
-6.448569297790527 -4.882812390860636e-06 -2.5
-6.427651405334473 -0.5188915729522705 -2.5
-6.365053653717041 -1.034423828125 -2.5
-6.11669397354126 -2.042055606842041 -2.5
-5.932538986206055 -2.5276219844818115 -2.5
-5.709917068481445 -2.9967968463897705 -2.5
-5.450263500213623 -3.446537971496582 -2.5
-5.155258655548096 -3.8739306926727295 -2.5
-4.078359127044678 -4.995087623596191 -2.5
-2.7644481658935547 -5.825961589813232 -2.5
-0.7772851586341858 -6.401537895202637 -2.5
0.7772900462150574 -6.401547908782959 -2.5
1.2898778915405273 -6.318242073059082 -2.5
2.286689519882202 -6.029511451721191 -2.5
2.7644481658935547 -5.825952053070068 -2.5
3.6632080078125 -5.307060241699219 -2.5
4.467074871063232 -4.650722503662109 -2.5
4.826821327209473 -4.276191234588623 -2.5
5.709921836853027 -2.9967918395996094 -2.5
5.932543754577637 -2.5276172161102295 -2.5
6.11669921875 -2.042055606842041 -2.5
6.261181354522705 -1.54324209690094 -2.5
-6.242421627044678 0.0 -2.5
-6.061025142669678 -1.4939160346984863 -2.5
-5.921162128448486 -1.9767773151397705 -2.5
-5.742905139923096 -2.446826219558716 -2.5
-4.990458965301514 -3.7500829696655273 -2.5
-4.324282169342041 -4.502050876617432 -2.5
-3.546098470687866 -5.137412071228027 -2.5
-2.2135937213897705 -5.836757659912109 -2.5
-1.7367528676986694 -5.995952129364014 -2.5
-1.2486425638198853 -6.116259574890137 -2.5
-0.7524365186691284 -6.196908950805664 -2.5
-0.25136229395866394 -6.237353324890137 -2.5
0.75244140625 -6.196904182434082 -2.5
2.2135984897613525 -5.836757659912109 -2.5
2.676074266433716 -5.639711856842041 -2.5
3.5461034774780273 -5.137407302856445 -2.5
3.947993040084839 -4.835410118103027 -2.5
4.672524452209473 -4.139487266540527 -2.5
5.27603006362915 -3.33636212348938 -2.5
5.527387619018555 -2.900991201400757 -2.5
5.921166896820068 -1.9767773151397705 -2.5
6.06102991104126 -1.4939111471176147 -2.5
-6.047377586364746 -4.882812390860636e-06 -2.5
-6.027763366699219 -0.4866064488887787 -2.5
-5.969062328338623 -0.9700683355331421 -2.5
-5.871650218963623 -1.447241187095642 -2.5
-5.736156940460205 -1.9150097370147705 -2.5
-5.563461780548096 -2.370371103286743 -2.5
-5.354687213897705 -2.81036114692688 -2.5
-3.824638605117798 -4.684330940246582 -2.5
-3.023691415786743 -5.237172603607178 -2.5
-2.592460870742798 -5.463490962982178 -2.5
-0.2435009777545929 -6.042465686798096 -2.5
0.728930652141571 -6.003281116485596 -2.5
1.209633708000183 -5.925156116485596 -2.5
1.6824853420257568 -5.808608055114746 -2.5
2.144423723220825 -5.654389381408691 -2.5
2.592460870742798 -5.4635009765625 -2.5
3.8246335983276367 -4.684321403503418 -2.5
4.189159870147705 -4.361386775970459 -2.5
4.526528358459473 -4.010146617889404 -2.5
4.834531307220459 -3.6329150199890137 -2.5
5.871654987335205 -1.447231411933899 -2.5
5.969062328338623 -0.9700634479522705 -2.5
6.027758598327637 -0.4866064488887787 -2.5
-5.843515396118164 -0.4717382788658142 -2.5
-5.786596775054932 -0.9404150247573853 -2.5
-4.061108112335205 -4.228061199188232 -2.5
-3.707719564437866 -4.5411376953125 -2.5
-3.3302879333496094 -4.824750900268555 -2.5
-2.0788769721984863 -5.481543064117432 -2.5
-1.6310595273971558 -5.631054401397705 -2.5
-1.1726610660552979 -5.744038105010986 -2.5
-0.23605956137180328 -5.857763767242432 -2.5
0.23606444895267487 -5.857763767242432 -2.5
0.7066454887390137 -5.819765567779541 -2.5
1.6310497522354126 -5.631054401397705 -2.5
2.078871965408325 -5.481552600860596 -2.5
2.5132176876068115 -5.296494007110596 -2.5
3.3302879333496094 -4.824755668640137 -2.5
3.707719564437866 -4.5411376953125 -2.5
4.061108112335205 -4.228066444396973 -2.5
4.686748027801514 -3.521860361099243 -2.5
4.954946041107178 -3.1333203315734863 -2.5
5.191005706787109 -2.7244482040405273 -2.5
5.393398284912109 -2.297910213470459 -2.5
5.560810565948486 -1.8564696311950684 -2.5
5.786601543426514 -0.9404199123382568 -2.5
-5.613379001617432 -0.9122704863548279 -2.5
-4.256796836853027 -3.771196126937866 -2.5
-3.9395408630371094 -4.101503849029541 -2.5
-3.59673810005188 -4.405200004577637 -2.5
-2.43798828125 -5.137939453125 -2.5
-2.0166454315185547 -5.317455768585205 -2.5
-1.5822265148162842 -5.462490081787109 -2.5
-0.22899413108825684 -5.682406902313232 -2.5
0.22899413108825684 -5.682412147521973 -2.5
0.685498058795929 -5.645551681518555 -2.5
1.5822314023971558 -5.462485313415527 -2.5
2.0166454315185547 -5.317455768585205 -2.5
2.437983274459839 -5.137944221496582 -2.5
4.546445369720459 -3.416435480117798 -2.5
4.806616306304932 -3.0395164489746094 -2.5
5.231943130493164 -2.229116201400757 -2.5
5.394350528717041 -1.8008935451507568 -2.5
5.613379001617432 -0.9122655987739563 -2.5
-5.520161151885986 -4.882812390860636e-06 -2.5
-5.502255916595459 -0.4441894292831421 -2.5
-5.236064434051514 -1.7480615377426147 -2.5
-5.078427791595459 -2.1637206077575684 -2.5
-4.665580749511719 -2.950331926345825 -2.5
-4.413051605224609 -3.3161962032318115 -2.5
-3.8239550590515137 -3.981142520904541 -2.5
-3.4911961555480957 -4.275942325592041 -2.5
-3.135805606842041 -4.543002605438232 -2.5
-2.760077953338623 -4.780595779418945 -2.5
-1.957485318183899 -5.161435604095459 -2.5
-1.5358104705810547 -5.302206993103027 -2.5
-1.1041845083236694 -5.408588886260986 -2.5
-0.6653759479522705 -5.479907035827637 -2.5
0.6653808355331421 -5.479907035827637 -2.5
1.1041747331619263 -5.408593654632568 -2.5
1.535805583000183 -5.302206993103027 -2.5
1.9574755430221558 -5.161440372467041 -2.5
2.366450071334839 -4.9871826171875 -2.5
2.760077953338623 -4.780600547790527 -2.5
3.135805606842041 -4.54299783706665 -2.5
3.491201162338257 -4.275932312011719 -2.5
4.131899356842041 -3.660537004470825 -2.5
4.413051605224609 -3.3161816596984863 -2.5
4.887856483459473 -2.5653467178344727 -2.5
5.078432559967041 -2.163710832595825 -2.5
5.236069202423096 -1.7480517625808716 -2.5
5.448671817779541 -0.8854931592941284 -2.5
-5.343891620635986 -0.4314062297344208 -2.5
-5.291831016540527 -0.8600048422813416 -2.5
-5.205478191375732 -1.2830419540405273 -2.5
-5.085361003875732 -1.6977392435073853 -2.5
-4.531289100646973 -2.865419864654541 -2.5
-4.286030292510986 -3.2207422256469727 -2.5
-4.012963771820068 -3.555185556411743 -2.5
-3.713876962661743 -3.8665575981140137 -2.5
-3.390702962875366 -4.15286111831665 -2.5
-2.6806347370147705 -4.642992973327637 -2.5
-2.298330068588257 -4.843632698059082 -2.5
-1.4915966987609863 -5.149589538574219 -2.5
-0.6462206840515137 -5.32217264175415 -2.5
0.6462255716323853 -5.322177410125732 -2.5
1.4915966987609863 -5.149599552154541 -2.5
1.9011279344558716 -5.012870788574219 -2.5
2.6806347370147705 -4.642992973327637 -2.5
3.0455517768859863 -4.412236213684082 -2.5
3.713876962661743 -3.8665575981140137 -2.5
4.01296854019165 -3.555180549621582 -2.5
4.531293869018555 -2.86541485786438 -2.5
4.747168064117432 -2.4914989471435547 -2.5
5.08535623550415 -1.6977392435073853 -2.5
5.343886375427246 -0.431396484375 -2.5
