ply
format ascii 1.0
element vertex 721
property float x
property float y
property float z
end_header
2.080693244934082 -17.135892868041992 1.6548779010772705
2.077749013900757 -17.111650466918945 1.2677514553070068
2.076284170150757 -17.099578857421875 1.0750927925109863
2.073369026184082 -17.075546264648438 0.6913384795188904
-1.1901562213897705 -29.533397674560547 0.5323053002357483
2.0704638957977295 -17.051626205444336 0.30934324860572815
12.252225875854492 -15.006254196166992 0.3488888442516327
2.0690135955810547 -17.039691925048828 0.11888335645198822
2.067568302154541 -17.027782440185547 -0.07128219306468964
11.206503868103027 -16.23542022705078 -0.08198074251413345
8.662079811096191 -15.003149032592773 -0.26394012570381165
11.20650863647461 -16.23542022705078 -0.30061081051826477
2.0646824836730957 -17.004009246826172 -0.450907438993454
8.662079811096191 -15.003153800964355 -0.4560352861881256
11.206503868103027 -16.23542022705078 -0.519314706325531
2.063237190246582 -16.99213409423828 -0.6404702663421631
8.662079811096191 -15.003149032592773 -0.8405764698982239
11.206503868103027 -16.23542022705078 -0.9571664333343506
-24.97362518310547 -13.107182502746582 -1.68191397190094
-17.06832504272461 -20.90494155883789 -1.609377384185791
8.662079811096191 -15.003153800964355 -1.0330647230148315
11.206503868103027 -16.23542022705078 -1.1764172315597534
20.572479248046875 -15.459213256835938 -1.5345772504806519
2.058915853500366 -16.956546783447266 -1.2086925506591797
8.662079811096191 -15.003144264221191 -1.22588312625885
11.206503868103027 -16.23542022705078 -1.395958423614502
20.57247543334961 -15.459213256835938 -1.8209565877914429
-24.22426414489746 -15.318520545959473 -2.347599983215332
-18.165756225585938 -22.249027252197266 -2.352656364440918
-11.78844928741455 -20.418193817138672 -1.9311423301696777
-12.388195991516113 -26.107587814331055 -2.3669557571411133
-10.262507438659668 -27.05998992919922 -2.3704802989959717
-3.7491650581359863 -12.943603515625 -1.1037670373916626
-2.6468846797943115 -12.965288162231445 -1.0838687419891357
5.91921854019165 -20.435487747192383 -1.7426384687423706
12.388075828552246 -26.107343673706055 -2.3669331073760986
10.903813362121582 -15.796894073486328 -1.5722010135650635
18.165721893310547 -22.24897003173828 -2.352647304534912
19.854394912719727 -20.670623779296875 -2.347599983215332
20.572479248046875 -15.459213256835938 -2.107788324356079
24.224271774291992 -15.318514823913574 -2.347599983215332
-26.07964324951172 -6.428081035614014 -2.5
-23.783485412597656 -12.482523918151855 -2.5
-12.631144523620605 -21.87777328491211 -2.3512794971466064
-8.983678817749023 -23.688026428222656 -2.3579859733581543
-1.670131802558899 -13.754765510559082 -1.2896232604980469
1.0228222608566284 -25.381072998046875 -2.3642518520355225
5.967548847198486 -20.602323532104492 -1.9963756799697876
8.983647346496582 -23.687929153442383 -2.3579764366149902
10.846445083618164 -22.858427047729492 -2.354905605316162
14.328168869018555 -20.757915496826172 -2.347599983215332
17.472415924072266 -18.190711975097656 -2.347599983215332
20.16415023803711 -15.152382850646973 -2.347599983215332
22.684892654418945 -14.345067977905273 -2.4981226921081543
23.783491134643555 -12.482528686523438 -2.5
24.710790634155273 -10.528265953063965 -2.5
26.079647064208984 -6.428071022033691 -2.5
26.773061752319336 -2.1613476276397705 -2.5
-23.89984130859375 -1.9293944835662842 -2.5
-23.667089462280273 -3.8462841510772705 -2.5
-23.28081703186035 -5.738227367401123 -2.5
-22.74359893798828 -7.592919826507568 -2.5
-21.231082916259766 -11.142929077148438 -2.5
-16.8533878326416 -14.930805206298828 -2.347599983215332
-15.597329139709473 -16.238534927368164 -2.347599983215332
-12.79049301147461 -18.530214309692383 -2.347599983215332
-9.652384757995605 -20.341997146606445 -2.347599983215332
-5.03350830078125 -13.2722749710083 -1.4799976348876953
-1.5895262956619263 -13.090927124023438 -1.374939203262329
-0.9090136289596558 -22.55698585510254 -2.3537938594818115
2.0545947551727295 -16.920942306518555 -1.7772059440612793
4.512421607971191 -22.1032657623291 -2.352112054824829
6.023056507110596 -20.79397964477539 -2.2571847438812256
7.986425399780273 -21.05848503112793 -2.3482422828674316
14.240068435668945 -17.44093132019043 -2.347599983215332
19.150419235229492 -14.390609741210938 -2.4976165294647217
20.265594482421875 -12.815199851989746 -2.5
21.2310791015625 -11.142929077148438 -2.5
22.058876037597656 -9.398393630981445 -2.5
22.74359893798828 -7.59292459487915 -2.5
23.280818939208984 -5.738217830657959 -2.5
23.89981460571289 -1.9293749332427979 -2.5
-21.648895263671875 1.4648437172581907e-05 -2.5
-21.019811630249023 -5.18093729019165 -2.5
-18.29742431640625 -11.570605278015137 -2.5
-16.193822860717773 -14.346484184265137 -2.4983646869659424
-11.548291206359863 -16.730581283569336 -2.347599983215332
-10.164591789245605 -17.605575561523438 -2.347599983215332
-8.71496295928955 -18.366395950317383 -2.347599983215332
-2.605273485183716 -12.761469841003418 -1.5040827989578247
0.6445751786231995 -15.995067596435547 -1.8486002683639526
4.066367149353027 -19.91834831237793 -2.347599983215332
8.662079811096191 -15.003149032592773 -2.0005834102630615
11.548291206359863 -16.730581283569336 -2.347599983215332
12.85708999633789 -15.747079849243164 -2.347599983215332
14.143080711364746 -14.724501609802246 -2.3576948642730713
16.193828582763672 -14.346484184265137 -2.4983644485473633
17.30705451965332 -13.005399703979492 -2.5
19.16913604736328 -10.060736656188965 -2.5
19.916542053222656 -8.485634803771973 -2.5
21.019813537597656 -5.180927753448486 -2.5
21.578691482543945 -1.7420165538787842 -2.5
-19.664011001586914 -1.587441325187683 -2.5
-19.472511291503906 -3.164599657058716 -2.5
-19.154720306396484 -4.721235275268555 -2.5
-18.712709426879883 -6.247226238250732 -2.5
-15.77138900756836 -11.851435661315918 -2.5
-13.666047096252441 -14.227875709533691 -2.5
-12.014679908752441 -14.715316772460938 -2.407390594482422
-10.523608207702637 -15.246073722839355 -2.347599983215332
-9.262687683105469 -16.04342269897461 -2.347599983215332
-3.6744115352630615 -12.685546875 -1.6736352443695068
-2.591245174407959 -12.692744255065918 -1.6416467428207397
-1.5518505573272705 -12.78066349029541 -1.6315059661865234
-0.6268115043640137 -15.554301261901855 -1.9726957082748413
0.6445751786231995 -15.995067596435547 -2.028597831726074
5.154086589813232 -17.793935775756836 -2.347599983215332
6.569184303283691 -17.321514129638672 -2.347599983215332
8.662079811096191 -15.003153800964355 -2.195363998413086
12.014662742614746 -14.715292930603027 -2.407388210296631
13.666044235229492 -14.227875709533691 -2.5
15.771390914916992 -11.851435661315918 -2.5
16.67389678955078 -10.543935775756836 -2.5
17.468265533447266 -9.168046951293945 -2.5
19.472509384155273 -3.1645898818969727 -2.5
-18.05730628967285 -1.4577343463897705 -2.5
-17.18373680114746 -5.736767292022705 -2.5
-16.040971755981445 -8.418950080871582 -2.5
-15.311508178710938 -9.682426452636719 -2.5
-12.549433708190918 -13.065336227416992 -2.5
-10.14980411529541 -14.704521179199219 -2.4656765460968018
-8.505859375 -14.732553482055664 -2.347599983215332
-4.810251235961914 -12.683598518371582 -1.8719738721847534
-3.6717967987060547 -12.676513671875 -1.8212543725967407
-2.5878076553344727 -12.6759033203125 -1.7853443622589111
4.732954025268555 -16.34004783630371 -2.347599983215332
6.032436370849609 -15.906220436096191 -2.347599983215332
7.292783260345459 -15.36922836303711 -2.347599983215332
8.505854606628418 -14.732558250427246 -2.347599983215332
11.457411766052246 -14.032782554626465 -2.5
12.549423217773438 -13.065351486206055 -2.5
13.56005859375 -12.013168334960938 -2.5
14.482748985290527 -10.883075714111328 -2.5
15.311508178710938 -9.682416915893555 -2.5
16.04097557067871 -8.418950080871582 -2.5
17.183740615844727 -5.736772537231445 -2.5
17.881454467773438 -2.9060254096984863 -2.5
-16.68946075439453 -1.3473095893859863 -2.5
-16.257211685180664 -4.007065296173096 -2.5
-15.403913497924805 -6.562993049621582 -2.5
-14.825861930847168 -7.781215667724609 -2.5
-14.151657104492188 -8.948969841003418 -2.5
-13.38567066192627 -10.058686256408691 -2.5
-6.980405330657959 -14.71090316772461 -2.4312081336975098
-4.814128398895264 -12.693822860717773 -2.0270307064056396
-3.6733813285827637 -12.681991577148438 -1.9713735580444336
-1.548622965812683 -12.754008293151855 -1.918280005455017
0.633105456829071 -15.710302352905273 -2.347599983215332
1.8952099084854126 -15.608407974243164 -2.347599983215332
3.145024299621582 -15.405306816101074 -2.347599983215332
11.598803520202637 -12.075634956359863 -2.5
13.3856782913208 -10.058676719665527 -2.5
14.151659965515137 -8.948969841003418 -2.5
14.8258638381958 -7.781205654144287 -2.5
15.403910636901855 -6.56298303604126 -2.5
16.257211685180664 -4.007050514221191 -2.5
16.526933670043945 -2.6858935356140137 -2.5
16.689462661743164 -1.347314476966858 -2.5
-15.510626792907715 -1.2521483898162842 -2.5
-15.108905792236328 -3.7240233421325684 -2.5
-14.760258674621582 -4.927695274353027 -2.5
-14.31588077545166 -6.099404335021973 -2.5
-13.15207290649414 -8.316879272460938 -2.5
-11.64763355255127 -10.318921089172363 -2.5
-9.841530799865723 -12.05370044708252 -2.5
-8.839706420898438 -12.8065185546875 -2.5
-7.78054666519165 -13.476288795471191 -2.5
-6.670917987823486 -14.058666229248047 -2.5
-3.672133684158325 -12.677690505981445 -2.120481491088867
-2.586484432220459 -12.669418334960938 -2.077415943145752
-1.546572208404541 -12.737143516540527 -2.0613420009613037
-0.2828710973262787 -7.019413948059082 -1.1286343336105347
0.27564939856529236 -6.840175628662109 -1.0998144149780273
0.8480615019798279 -6.984418869018555 -1.130338430404663
4.259541034698486 -14.7056245803833 -2.459676504135132
5.507822036743164 -14.52294921875 -2.495373487472534
8.839706420898438 -12.806513786315918 -2.5
10.779541015625 -11.222695350646973 -2.5
11.647636413574219 -10.318915367126465 -2.5
12.440199851989746 -9.348197937011719 -2.5
13.778666496276855 -7.23159646987915 -2.5
15.359575271606445 -2.496171712875366 -2.5
-14.483932495117188 -1.1692626476287842 -2.5
-14.342878341674805 -2.330947160720825 -2.5
-14.108805656433105 -3.4775242805480957 -2.5
-13.368273735046387 -5.695683479309082 -2.5
-12.866608619689941 -6.752914905548096 -2.5
-12.281500816345215 -7.76635217666626 -2.5
-10.876640319824219 -9.635869026184082 -2.5
-9.190093040466309 -11.255829811096191 -2.5
-8.254579544067383 -11.958818435668945 -2.5
-7.265529632568359 -12.58426284790039 -2.5
-6.229348182678223 -13.128090858459473 -2.5
-4.807099342346191 -12.675277709960938 -2.332282304763794
-1.548671841621399 -12.754433631896973 -2.2104580402374268
-0.2670556604862213 -6.626894474029541 -1.1410516500473022
0.8022265434265137 -6.606889724731445 -1.145032525062561
4.042788028717041 -13.957338333129883 -2.5
6.229345798492432 -13.128095626831055 -2.5
7.265522480010986 -12.584257125854492 -2.5
9.19008731842041 -11.255820274353027 -2.5
10.06600570678711 -10.479828834533691 -2.5
12.281503677368164 -7.766357421875 -2.5
12.866605758666992 -6.752914905548096 -2.5
13.36827564239502 -5.6956787109375 -2.5
13.783231735229492 -4.601518630981445 -2.5
14.483935356140137 -1.1692626476287842 -2.5
-13.62567138671875 4.882812390860636e-06 -2.5
-13.229731559753418 -3.2608494758605957 -2.5
-12.924448013305664 -4.314809322357178 -2.5
-12.535341262817383 -5.340800762176514 -2.5
-12.06493091583252 -6.332162857055664 -2.5
-11.516279220581055 -7.282412052154541 -2.5
-10.8929443359375 -8.185517311096191 -2.5
-10.198959350585938 -9.035492897033691 -2.5
-9.438830375671387 -9.82686996459961 -2.5
-8.6174898147583 -10.554511070251465 -2.5
-7.74026346206665 -11.213701248168945 -2.5
-6.8128342628479 -11.8001708984375 -2.5
-4.83172607421875 -12.74022388458252 -2.5
-3.790900707244873 -13.0877046585083 -2.5
-2.7254979610443115 -13.350297927856445 -2.5
0.25785157084465027 -6.398486137390137 -1.1749294996261597
0.7780810594558716 -6.4080810546875 -1.1843719482421875
1.4130077362060547 -6.921342849731445 -1.2961019277572632
5.841200828552246 -12.310132026672363 -2.5
7.740268230438232 -11.213701248168945 -2.5
8.6174898147583 -10.554516792297363 -2.5
10.198954582214355 -9.03548812866211 -2.5
11.516279220581055 -7.282455921173096 -2.5
13.449228286743164 -2.1857128143310547 -2.5
13.581483840942383 -1.096411108970642 -2.5
-12.823447227478027 9.765624781721272e-06 -2.5
-12.781862258911133 -1.0318505764007568 -2.5
-12.450818061828613 -3.068862199783325 -2.5
-11.354597091674805 -5.95934534072876 -2.5
-10.838247299194336 -6.853696346282959 -2.5
-8.883110046386719 -9.248300552368164 -2.5
-7.2845458984375 -10.553485870361328 -2.5
-5.497309684753418 -11.585346221923828 -2.5
-4.547253131866455 -11.990131378173828 -2.5
-3.5677099227905273 -12.317152976989746 -2.5
-0.8464892506599426 -6.971449851989746 -1.3691033124923706
-0.25657713413238525 -6.366860389709473 -1.2422618865966797
0.2564404308795929 -6.363456726074219 -1.241597294807434
1.3124608993530273 -6.428837776184082 -1.2791883945465088
5.497309684753418 -11.585346221923828 -2.5
6.411723613739014 -11.10543441772461 -2.5
9.598485946655273 -8.503520011901855 -2.5
10.251615524291992 -7.703583717346191 -2.5
10.838247299194336 -6.853696346282959 -2.5
11.797304153442383 -5.026352405548096 -2.5
12.781865119934082 -1.0318603515625 -2.5
-11.950719833374023 -1.9421874284744263 -2.5
-11.484416007995605 -3.834062337875366 -2.5
-10.72066879272461 -5.626640319824219 -2.5
-10.233146667480469 -6.471054553985596 -2.5
-9.67926025390625 -7.273490905761719 -2.5
-9.062600135803223 -8.028764724731445 -2.5
-7.657333850860596 -9.3785400390625 -2.5
-4.293378829956055 -11.320722579956055 -2.5
-3.368520498275757 -11.629487037658691 -2.5
-1.538393497467041 -7.535536766052246 -1.5880563259124756
0.2550390660762787 -6.328657150268555 -1.3078234195709229
0.769238293170929 -6.335219383239746 -1.3177257776260376
1.2970019578933716 -6.353129863739014 -1.3388744592666626
6.053750038146973 -10.485414505004883 -2.5
7.657333850860596 -9.378535270690918 -2.5
11.950722694396973 -1.9421825408935547 -2.5
12.068251609802246 -0.9742480516433716 -2.5
-11.464516639709473 9.765624781721272e-06 -2.5
-11.316054344177246 -1.8390380144119263 -2.5
-11.13137435913086 -2.743642568588257 -2.5
-10.87451171875 -3.630439281463623 -2.5
-10.547121047973633 -4.493700981140137 -2.5
-9.68969440460205 -6.127387523651123 -2.5
-7.941742897033691 -8.268237113952637 -2.5
-7.250678539276123 -8.880468368530273 -2.5
-6.512587547302246 -9.435102462768555 -2.5
-5.732253074645996 -9.928559303283691 -2.5
-1.414086937904358 -6.9266357421875 -1.5416064262390137
-0.7818066477775574 -6.43871545791626 -1.414366364479065
-0.2536279261112213 -6.293710708618164 -1.373547077178955
1.288427710533142 -6.311122894287109 -1.4046157598495483
2.466113328933716 -6.502597332000732 -1.5165334939956665
6.512587547302246 -9.435107231140137 -2.5
7.941747665405273 -8.268227577209473 -2.5
9.165214538574219 -6.887211799621582 -2.5
9.689692497253418 -6.127387523651123 -2.5
11.316049575805664 -1.8390380144119263 -2.5
11.427338600158691 -0.92249995470047 -2.5
-10.883706092834473 4.882812390860636e-06 -2.5
-10.74276065826416 -1.7458691596984863 -2.5
-10.01278305053711 -4.266044616699219 -2.5
-9.637038230895996 -5.057905197143555 -2.5
-9.198796272277832 -5.816962718963623 -2.5
-8.146562576293945 -7.217231273651123 -2.5
-4.665756702423096 -9.832880973815918 -2.5
-3.8594090938568115 -10.176430702209473 -2.5
-1.9936717748641968 -6.88296365737915 -1.6460131406784058
-0.7578515410423279 -6.241479396820068 -1.444205403327942
-0.2521679699420929 -6.257504940032959 -1.4385238885879517
0.25227048993110657 -6.26003885269165 -1.439105749130249
0.76051265001297 -6.263354301452637 -1.4492675065994263
1.2799218893051147 -6.269467830657959 -1.4698079824447632
2.3802783489227295 -6.276278972625732 -1.5418658256530762
4.665756702423096 -9.8328857421875 -2.5
6.18264627456665 -8.957104682922363 -2.5
7.539399147033691 -7.849350452423096 -2.5
8.700898170471191 -6.538295745849609 -2.5
9.637041091918945 -5.057895183563232 -2.5
10.74276351928711 -1.7458642721176147 -2.5
10.848407745361328 -0.8757714629173279 -2.5
-10.322772979736328 -0.8333300352096558 -2.5
-9.170095443725586 -4.812836647033691 -2.5
-8.279311180114746 -6.221498966217041 -2.5
-7.751842975616455 -6.867534160614014 -2.5
-7.174096584320068 -7.469027996063232 -2.5
-6.549826622009277 -8.022089958190918 -2.5
-5.883078575134277 -8.523110389709473 -2.5
-5.178181171417236 -8.968867301940918 -2.5
-4.439687252044678 -9.356454849243164 -2.5
-3.6724119186401367 -9.683363914489746 -2.5
-0.7538964748382568 -6.208881855010986 -1.509818434715271
-0.25071775913238525 -6.221533298492432 -1.5030828714370728
0.25090330839157104 -6.226035118103027 -1.5041706562042236
0.7561913728713989 -6.227763652801514 -1.5144100189208984
1.804995059967041 -6.23156213760376 -1.566117525100708
2.371230363845825 -6.252417087554932 -1.6142165660858154
5.883080959320068 -8.523115158081055 -2.5
7.751840591430664 -6.867534160614014 -2.5
8.279306411743164 -6.221498966217041 -2.5
9.170097351074219 -4.812827110290527 -2.5
9.823378562927246 -3.279531240463257 -2.5
10.055419921875 -2.4784374237060547 -2.5
10.222241401672363 -1.6612744331359863 -2.5
10.322768211364746 -0.8333349227905273 -2.5
-9.8753023147583 4.882812390860636e-06 -2.5
-9.747416496276855 -1.5841113328933716 -2.5
-9.588339805603027 -2.3633203506469727 -2.5
-9.085075378417969 -3.87078595161438 -2.5
-7.894736289978027 -5.932504653930664 -2.5
-6.245585918426514 -7.649457931518555 -2.5
-3.501823663711548 -9.233564376831055 -2.5
-1.2612987756729126 -6.178246974945068 -1.5963268280029297
4.937655925750732 -8.552260398864746 -2.5
6.245585918426514 -7.649457931518555 -2.5
7.391767501831055 -6.548530101776123 -2.5
8.346508979797363 -5.278007507324219 -2.5
9.367079734802246 -3.127187490463257 -2.5
9.58834457397461 -2.3633153438568115 -2.5
9.747421264648438 -1.5841113328933716 -2.5
-9.43460464477539 9.765624781721272e-06 -2.5
-9.160441398620605 -2.2578563690185547 -2.5
-8.679638862609863 -3.6980466842651367 -2.5
-7.542421817779541 -5.667763710021973 -2.5
-6.535575866699219 -6.804252624511719 -2.5
-5.966862678527832 -7.308090686798096 -2.5
-5.359462738037109 -7.7645263671875 -2.5
-4.717299461364746 -8.170599937438965 -2.5
-4.044543266296387 -8.523686408996582 -2.5
-2.387509822845459 -6.295346736907959 -1.7840911149978638
-1.7852294445037842 -6.163320064544678 -1.700301170349121
-1.2569726705551147 -6.157065391540527 -1.6651649475097656
-0.746630847454071 -6.14904260635376 -1.6413543224334717
-0.24784667789936066 -6.1502685546875 -1.6310335397720337
0.7478320002555847 -6.158935546875 -1.6439956426620483
1.2548094987869263 -6.146464824676514 -1.6622967720031738
4.717304706573486 -8.170605659484863 -2.5
5.966869831085205 -7.308095455169678 -2.5
6.535571098327637 -6.804257869720459 -2.5
7.0618896484375 -6.256298542022705 -2.5
7.97402811050415 -5.042465686798096 -2.5
8.679638862609863 -3.6980419158935547 -2.5
9.160444259643555 -2.2578465938568115 -2.5
9.312421798706055 -1.5134081840515137 -2.5
-9.029281616210938 9.765624781721272e-06 -2.5
-8.99999713897705 -0.7265527248382568 -2.5
-8.91235065460205 -1.4483983516693115 -2.5
-8.766899108886719 -2.1608543395996094 -2.5
-8.306747436523438 -3.539174795150757 -2.5
-7.631452560424805 -4.82583475112915 -2.5
-7.218390941619873 -5.424262523651123 -2.5
-6.758508205413818 -5.987514495849609 -2.5
-4.514640808105469 -7.819580078125 -2.5
-1.7776952981948853 -6.137304782867432 -1.7691271305084229
-0.2475634664297104 -6.143247127532959 -1.7023053169250488
0.7455077767372131 -6.139819145202637 -1.712462067604065
1.251381754875183 -6.12966775894165 -1.7321703433990479
1.7807226181030273 -6.147758483886719 -1.7721413373947144
2.3515331745147705 -6.200473308563232 -1.8360854387283325
3.870781183242798 -8.15750503540039 -2.5
4.514638423919678 -7.819589614868164 -2.5
5.129218578338623 -7.430942058563232 -2.5
7.631454944610596 -4.825839519500732 -2.5
8.306747436523438 -3.5391650199890137 -2.5
8.766899108886719 -2.1608495712280273 -2.5
8.912348747253418 -1.4483983516693115 -2.5
-8.543068885803223 -1.3883788585662842 -2.5
-8.403647422790527 -2.0713183879852295 -2.5
-7.663759708404541 -4.02224588394165 -2.5
-7.31524658203125 -4.62588357925415 -2.5
-6.919296741485596 -5.199511528015137 -2.5
-4.327578067779541 -7.495575904846191 -2.5
-1.7715917825698853 -6.11624002456665 -1.8392647504806519
-1.2497899532318115 -6.121870040893555 -1.8047460317611694
-0.7449804544448853 -6.135473728179932 -1.7852190732955933
0.7446874976158142 -6.13305139541626 -1.784515619277954
1.77664053440094 -6.133656978607178 -1.8445028066635132
4.916689395904541 -7.123046875 -2.5
5.473910808563232 -6.704320907592773 -2.5
5.99563455581665 -6.242118835449219 -2.5
6.919301509857178 -5.199511528015137 -2.5
7.315244197845459 -4.625888347625732 -2.5
7.663759708404541 -4.022241115570068 -2.5
7.962563514709473 -3.392529249191284 -2.5
8.209731101989746 -2.7408056259155273 -2.5
8.543070793151855 -1.3883788585662842 -2.5
-8.308676719665527 4.882812390860636e-06 -2.5
-8.28173542022705 -0.6685644388198853 -2.5
-8.067235946655273 -1.9884033203125 -2.5
-6.642312049865723 -4.991372108459473 -2.5
-6.219130516052246 -5.50967264175415 -2.5
-5.254785060882568 -6.43594217300415 -2.5
-4.719868183135986 -6.837900161743164 -2.5
-2.323256731033325 -6.125922679901123 -1.9713361263275146
-0.24699705839157104 -6.129126071929932 -1.8456923961639404
0.7438573837280273 -6.126205921173096 -1.8568553924560547
1.7748876810073853 -6.127612113952637 -1.9195269346237183
2.332998037338257 -6.151611328125 -1.9796028137207031
3.5618603229522705 -7.506474494934082 -2.5
4.154340744018555 -7.195527076721191 -2.5
5.254780292510986 -6.435946941375732 -2.5
6.219125747680664 -5.50967264175415 -2.5
6.642309188842773 -4.991372108459473 -2.5
7.022411823272705 -4.44070291519165 -2.5
7.356972694396973 -3.8612256050109863 -2.5
7.643808364868164 -3.256708860397339 -2.5
-7.960910320281982 -0.6426708698272705 -2.5
-7.7547287940979 -1.9113720655441284 -2.5
-7.575780868530273 -2.5291600227355957 -2.5
-7.347702503204346 -3.13055157661438 -2.5
-7.071972370147705 -3.7116503715515137 -2.5
-6.750373363494873 -4.2686767578125 -2.5
-6.384997367858887 -4.798017501831055 -2.5
-5.532656192779541 -5.760112285614014 -2.5
-5.051218032836914 -6.186625957489014 -2.5
-1.768984317779541 -6.107241153717041 -1.9902431964874268
0.24669921398162842 -6.121801853179932 -1.9177775382995605
1.7769726514816284 -6.134819030761719 -1.9992306232452393
3.993403196334839 -6.91677713394165 -2.5
4.537026405334473 -6.573022365570068 -2.5
5.051220417022705 -6.186625957489014 -2.5
5.978227615356445 -5.296240329742432 -2.5
7.575786113739014 -2.529165029525757 -2.5
7.754726409912109 -1.9113622903823853 -2.5
7.883393287658691 -1.2811766862869263 -2.5
-7.686964988708496 0.0 -2.5
-7.662035942077637 -0.6185400485992432 -2.5
-7.587421894073486 -1.2330760955810547 -2.5
-7.4635910987854 -1.8396142721176147 -2.5
-7.291362285614014 -2.434208869934082 -2.5
-6.806469440460205 -3.5723094940185547 -2.5
-6.496940612792969 -4.108417987823486 -2.5
-6.145287990570068 -4.617885589599609 -2.5
-5.753771781921387 -5.097397327423096 -2.5
-4.861584186553955 -5.954360008239746 -2.5
-3.8434863090515137 -6.65709924697876 -2.5
-2.3237743377685547 -6.127280235290527 -2.1312477588653564
-0.24631835520267487 -6.112372875213623 -1.9895167350769043
0.24632811546325684 -6.112558364868164 -1.9895763397216797
0.7419677376747131 -6.110629558563232 -2.0019311904907227
1.2468066215515137 -6.107241153717041 -2.0272023677825928
3.295341730117798 -6.944794654846191 -2.5
3.8434813022613525 -6.6571044921875 -2.5
6.806464672088623 -3.5723047256469727 -2.5
7.071855545043945 -3.0130321979522705 -2.5
7.291367053985596 -2.434218645095825 -2.5
7.463593482971191 -1.8396093845367432 -2.5
-7.406874656677246 9.765624781721272e-06 -2.5
-7.310952186584473 -1.1881444454193115 -2.5
-7.025688171386719 -2.345517635345459 -2.5
-6.260214805603027 -3.9587156772613525 -2.5
-5.921369552612305 -4.449618816375732 -2.5
-5.544120788574219 -4.911660194396973 -2.5
-4.207582950592041 -6.09573221206665 -2.5
-3.703439950942993 -6.414535999298096 -2.5
-3.1752684116363525 -6.691742897033691 -2.5
-1.768984317779541 -6.107241153717041 -2.146074056625366
-1.246801733970642 -6.107241153717041 -2.1038601398468018
-0.24585936963558197 -6.100986003875732 -2.0609030723571777
0.740527331829071 -6.098793983459473 -2.073610782623291
1.2468066215515137 -6.107241153717041 -2.103860378265381
2.626513719558716 -6.925546646118164 -2.5
3.703432559967041 -6.414535999298096 -2.5
5.130922794342041 -5.341855525970459 -2.5
5.921371936798096 -4.449624061584473 -2.5
6.260214805603027 -3.9587206840515137 -2.5
7.025693416595459 -2.345517635345459 -2.5
7.382856369018555 -0.5960009694099426 -2.5
-7.14458703994751 4.882812390860636e-06 -2.5
-7.121418476104736 -0.5748974680900574 -2.5
-6.936977386474609 -1.709814429283142 -2.5
-4.518559455871582 -5.534233093261719 -2.5
-4.058588981628418 -5.87987756729126 -2.5
-2.533505916595459 -6.680302619934082 -2.5
-1.768984317779541 -6.107241153717041 -2.2248587608337402
-1.246801733970642 -6.107241153717041 -2.181096076965332
-0.7412207126617432 -6.10448694229126 -2.1517412662506104
-0.24593260884284973 -6.102709770202637 -2.1371655464172363
0.7409130930900574 -6.101972579956055 -2.1508560180664062
1.2468066215515137 -6.107241153717041 -2.1810953617095947
1.7689892053604126 -6.107241153717041 -2.224858283996582
4.949233055114746 -5.152695178985596 -2.5
5.347802639007568 -4.737743854522705 -2.5
5.711689472198486 -4.292055606842041 -2.5
6.038530349731445 -3.81853985786438 -2.5
6.572880744934082 -2.8004345893859863 -2.5
7.121420860290527 -0.574902355670929 -2.5
-6.898412704467773 4.882812390860636e-06 -2.5
-6.80907678604126 -1.1065820455551147 -2.5
-6.697951316833496 -1.6508984565734863 -2.5
-6.346394062042236 -2.7039451599121094 -2.5
-5.514882564544678 -4.144160270690918 -2.5
-5.163530349731445 -4.57449197769165 -2.5
-4.778696060180664 -4.975146293640137 -2.5
0.2464013546705246 -6.114423751831055 -2.217679738998413
2.4462060928344727 -6.450121879577637 -2.5
3.449208974838257 -5.974199295043945 -2.5
4.778691291809082 -4.975146293640137 -2.5
5.514882564544678 -4.144169807434082 -2.5
6.346396446228027 -2.7039451599121094 -2.5
6.80907678604126 -1.1065869331359863 -2.5
-6.645224571228027 -0.5364550948143005 -2.5
-6.580502986907959 -1.0694384574890137 -2.5
-6.323740005493164 -2.1111669540405273 -2.5
-6.13335657119751 -2.613173723220825 -2.5
-5.90319299697876 -3.0982322692871094 -2.5
-5.634746074676514 -3.5631980895996094 -2.5
-4.216411113739014 -5.164169788360596 -2.5
-3.7871971130371094 -5.4866943359375 -2.5
-3.3334202766418457 -5.773647308349609 -2.5
-2.858027219772339 -6.023154258728027 -2.5
-2.3640966415405273 -6.233603477478027 -2.5
-1.768984317779541 -6.107241153717041 -2.384291887283325
-1.3335448503494263 -6.5321044921875 -2.5
-0.80360347032547 -6.618232250213623 -2.5
0.2684423625469208 -6.661430358886719 -2.5
0.8035937547683716 -6.618222713470459 -2.5
3.3334226608276367 -5.773652076721191 -2.5
4.216411113739014 -5.164165019989014 -2.5
4.618281364440918 -4.808144569396973 -2.5
4.990200042724609 -4.420937538146973 -2.5
5.329760551452637 -4.005053520202637 -2.5
5.90319299697876 -3.0982372760772705 -2.5
6.133359432220459 -2.613173723220825 -2.5
6.323740005493164 -2.1111717224121094 -2.5
6.473114967346191 -1.595483422279358 -2.5
-6.448561668395996 4.882812390860636e-06 -2.5
-6.261176586151123 -1.54324209690094 -2.5
-6.11669397354126 -2.042050838470459 -2.5
-5.709914207458496 -2.9967918395996094 -2.5
-5.450258731842041 -3.446533203125 -2.5
-5.155256271362305 -3.8739256858825684 -2.5
-3.663203001022339 -5.307065486907959 -2.5
-3.2242822647094727 -5.584619045257568 -2.5
-2.7644481658935547 -5.82595682144165 -2.5
-1.289882779121399 -6.318246841430664 -2.5
-0.2596533000469208 -6.443334579467773 -2.5
0.25965818762779236 -6.443329811096191 -2.5
0.7772900462150574 -6.401547908782959 -2.5
1.2468066215515137 -6.107241153717041 -2.4165115356445312
2.286689519882202 -6.029511451721191 -2.5
2.7644433975219727 -5.82595682144165 -2.5
3.2242822647094727 -5.584619045257568 -2.5
4.078359127044678 -4.995087623596191 -2.5
5.155258655548096 -3.8739256858825684 -2.5
5.450263500213623 -3.446537971496582 -2.5
5.709921836853027 -2.9967918395996094 -2.5
5.932548522949219 -2.5276219844818115 -2.5
6.11669397354126 -2.042050838470459 -2.5
6.261176586151123 -1.54324209690094 -2.5
6.365058422088623 -1.034423828125 -2.5
-6.161579608917236 -1.0013525485992432 -2.5
-5.921159744262695 -1.9767773151397705 -2.5
-5.742897987365723 -2.4468164443969727 -2.5
-5.276027679443359 -3.336357355117798 -2.5
-4.990456581115723 -3.7500829696655273 -2.5
-4.672516822814941 -4.139487266540527 -2.5
-4.324277400970459 -4.502040863037109 -2.5
-3.121208429336548 -5.406084060668945 -2.5
-2.676079034805298 -5.639716625213623 -2.5
-1.7367528676986694 -5.995952129364014 -2.5
-1.2486474514007568 -6.116259574890137 -2.5
0.7524365186691284 -6.196904182434082 -2.5
1.7367479801177979 -5.995956897735596 -2.5
2.2135937213897705 -5.836757659912109 -2.5
2.676074266433716 -5.639716625213623 -2.5
3.546098470687866 -5.137407302856445 -2.5
4.324277400970459 -4.502045631408691 -2.5
4.990454196929932 -3.7500877380371094 -2.5
5.27603006362915 -3.33636212348938 -2.5
5.527387619018555 -2.9010009765625 -2.5
6.222177505493164 -0.5023046731948853 -2.5
-6.047370433807373 3.9062499126885086e-05 -2.5
-5.969064712524414 -0.9700683355331421 -2.5
-5.354684829711914 -2.810356378555298 -2.5
-5.111178874969482 -3.23211407661438 -2.5
-4.189162731170654 -4.361386775970459 -2.5
-3.8246335983276367 -4.684321403503418 -2.5
-2.592465877532959 -5.463496208190918 -2.5
-2.144423723220825 -5.654389381408691 -2.5
-1.6824902296066284 -5.808613300323486 -2.5
-1.209633708000183 -5.925160884857178 -2.5
-0.728930652141571 -6.003281116485596 -2.5
-0.24350585043430328 -6.042470455169678 -2.5
0.2435009777545929 -6.042470455169678 -2.5
1.2096288204193115 -5.925160884857178 -2.5
1.6824902296066284 -5.808613300323486 -2.5
2.592465877532959 -5.463505744934082 -2.5
3.824638605117798 -4.684326171875 -2.5
4.189165115356445 -4.361386775970459 -2.5
5.111181735992432 -3.23211407661438 -2.5
5.871650218963623 -1.4472362995147705 -2.5
5.969057559967041 -0.9700634479522705 -2.5
6.027763366699219 -0.4866113066673279 -2.5
-5.786596775054932 -0.9404150247573853 -2.5
-5.560808181762695 -1.8564696311950684 -2.5
-5.393393516540527 -2.297905206680298 -2.5
-5.191003322601318 -2.7244482040405273 -2.5
-2.931262254714966 -5.077085018157959 -2.5
-2.5132176876068115 -5.296489238739014 -2.5
-2.0788769721984863 -5.481552600860596 -2.5
-1.1726561784744263 -5.744038105010986 -2.5
0.7066503763198853 -5.819770336151123 -2.5
1.1726561784744263 -5.744038105010986 -2.5
1.6310546398162842 -5.631049633026123 -2.5
2.5132176876068115 -5.296489238739014 -2.5
2.9312548637390137 -5.077089786529541 -2.5
3.3302879333496094 -4.824755668640137 -2.5
3.707719564437866 -4.541132926940918 -2.5
4.388159275054932 -3.887568235397339 -2.5
4.686748027801514 -3.521860361099243 -2.5
4.954941272735596 -3.133315324783325 -2.5
5.191000938415527 -2.7244529724121094 -2.5
5.393398284912109 -2.297910213470459 -2.5
5.560810565948486 -1.85647451877594 -2.5
-5.687021255493164 0.0 -2.5
-5.668576717376709 -0.4576074182987213 -2.5
-5.521765232086182 -1.3609960079193115 -2.5
-5.39434814453125 -1.8008935451507568 -2.5
-4.806616306304932 -3.0395164489746094 -2.5
-4.54644775390625 -3.4164304733276367 -2.5
-4.256794452667236 -3.771191358566284 -2.5
-3.596730947494507 -4.405195236206055 -2.5
-2.843520402908325 -4.925097465515137 -2.5
-1.5822314023971558 -5.462485313415527 -2.5
-1.137548804283142 -5.572089672088623 -2.5
1.5822314023971558 -5.462480545043945 -2.5
2.0166406631469727 -5.317465782165527 -2.5
3.230595588684082 -4.680322170257568 -2.5
3.5967283248901367 -4.405195236206055 -2.5
4.806616306304932 -3.0395214557647705 -2.5
5.394345760345459 -1.8008984327316284 -2.5
5.521767616271973 -1.3609960079193115 -2.5
-5.502255916595459 -0.4441796839237213 -2.5
-5.448674201965332 -0.8854931592941284 -2.5
-5.236069202423096 -1.7480517625808716 -2.5
-5.07843017578125 -2.1637158393859863 -2.5
-4.665583610534668 -2.950331926345825 -2.5
-4.413049221038818 -3.3161864280700684 -2.5
-3.8239452838897705 -3.981152296066284 -2.5
-3.4911985397338867 -4.275942325592041 -2.5
-2.760082960128784 -4.780600547790527 -2.5
-2.366450071334839 -4.987187385559082 -2.5
-1.9574755430221558 -5.161435604095459 -2.5
-1.535805583000183 -5.302206993103027 -2.5
-1.1041796207427979 -5.408593654632568 -2.5
0.6653759479522705 -5.479907035827637 -2.5
1.1041747331619263 -5.408593654632568 -2.5
1.535805583000183 -5.302206993103027 -2.5
1.9574755430221558 -5.161435604095459 -2.5
3.135805606842041 -4.54299783706665 -2.5
3.8239500522613525 -3.981152296066284 -2.5
4.413051605224609 -3.3161914348602295 -2.5
4.665575981140137 -2.9503369331359863 -2.5
4.887856483459473 -2.5653319358825684 -2.5
5.078432559967041 -2.1637158393859863 -2.5
-5.361269474029541 4.882812390860636e-06 -2.5
-5.343881607055664 -0.4314013719558716 -2.5
-5.2918381690979 -0.8600048422813416 -2.5
-5.205475807189941 -1.2830370664596558 -2.5
-5.085358619689941 -1.6977441310882568 -2.5
-4.932255744934082 -2.101435422897339 -2.5
-4.286025524139404 -3.2207372188568115 -2.5
-4.012963771820068 -3.55517578125 -2.5
-3.713879346847534 -3.8665575981140137 -2.5
-3.3907055854797363 -4.15286111831665 -2.5
-2.6806347370147705 -4.642988204956055 -2.5
-2.298334836959839 -4.843632698059082 -2.5
-1.9011328220367432 -5.012870788574219 -2.5
-1.0723925828933716 -5.252919673919678 -2.5
-0.21587401628494263 -5.356923580169678 -2.5
0.2158789038658142 -5.356918811798096 -2.5
0.6462304592132568 -5.322177410125732 -2.5
2.298330068588257 -4.843642234802246 -2.5
2.6806297302246094 -4.642988204956055 -2.5
3.3907079696655273 -4.15286111831665 -2.5
4.012963771820068 -3.555170774459839 -2.5
4.747168064117432 -2.491503953933716 -2.5
5.343881607055664 -0.4314062297344208 -2.5
