ply
format ascii 1.0
element vertex 752
property float x
property float y
property float z
end_header
-9.8656005859375 -17.08772850036621 5.286962032318115
9.983622550964355 -17.2921142578125 5.3501996994018555
-9.85970687866211 -17.07752799987793 5.050280570983887
9.971161842346191 -17.27052116394043 5.107354640960693
-9.853852272033691 -17.067407608032227 4.815219402313232
7.210903167724609 -15.196669578552246 4.10982608795166
9.946533203125 -17.227855682373047 4.627511501312256
9.934365272521973 -17.206771850585938 4.390348434448242
9.92227554321289 -17.185834884643555 4.154911518096924
-9.830829620361328 -17.02751350402832 3.8897221088409424
-9.825148582458496 -17.017690658569336 3.661686420440674
9.89834976196289 -17.144399642944336 3.6889524459838867
-9.819511413574219 -17.007915496826172 3.4348535537719727
9.886503219604492 -17.123886108398438 3.4582743644714355
9.874731063842773 -17.103500366210938 3.229037284851074
9.839838981628418 -17.04305648803711 2.549288034439087
-9.791688919067383 -16.959720611572266 2.316474676132202
-9.7861909866333 -16.9501953125 2.0955257415771484
9.816884994506836 -17.0032958984375 2.10209059715271
-9.775248527526855 -16.931249618530273 1.6558843851089478
9.794130325317383 -16.96390151977539 1.6590791940689087
-9.76980972290039 -16.92182159423828 1.4370770454406738
9.782841682434082 -16.9443302154541 1.4389889240264893
-9.76437759399414 -16.912416458129883 1.2188689708709717
-5.156254768371582 -25.257001876831055 1.3223211765289307
9.760360717773438 -16.905414581298828 1.001345157623291
-17.465620040893555 -18.183631896972656 1.0133538246154785
-9.753554344177246 -16.893680572509766 0.7840276956558228
9.7492036819458 -16.886064529418945 0.7836751937866211
-9.748170852661133 -16.884336471557617 0.5672851204872131
9.738051414489746 -16.866762161254883 0.5666949152946472
-19.05241584777832 -16.878978729248047 0.45840269327163696
-9.742782592773438 -16.875019073486328 0.350920706987381
3.5861668586730957 -29.534706115722656 0.5358037948608398
-19.034921646118164 -16.86348533630371 0.17612914741039276
9.71923828125 -16.83417510986328 0.1346295177936554
-19.03931999206543 -16.867372512817383 -0.10570449382066727
9.712729454040527 -16.822914123535156 -0.08072509616613388
18.32637596130371 -16.23577117919922 -0.10174652189016342
-9.726676940917969 -16.847118377685547 -0.29643356800079346
18.32637596130371 -16.23577117919922 -0.37308791279792786
-9.721323013305664 -16.83783721923828 -0.5118179321289062
9.699750900268555 -16.800424575805664 -0.5106788277626038
9.693265914916992 -16.789188385009766 -0.7253909111022949
18.32637596130371 -16.23577117919922 -0.9161181449890137
-24.33411979675293 -12.771537780761719 -1.3334100246429443
-19.07134437561035 -16.895761489868164 -1.236228346824646
-9.71059799194336 -16.819292068481445 -0.942305862903595
9.68679141998291 -16.777963638305664 -0.939991295337677
18.326385498046875 -16.23577117919922 -1.187939167022705
-22.83253288269043 -14.438432693481445 -1.6109747886657715
-19.039318084716797 -16.86737823486328 -1.516850233078003
-9.705248832702637 -16.810014724731445 -1.1575149297714233
9.680307388305664 -16.766742706298828 -1.1545361280441284
19.965829849243164 -20.78666877746582 -1.7187639474868774
18.32638168334961 -16.23577117919922 -1.46005117893219
17.431386947631836 -7.426816463470459 -1.129907250404358
-19.03931999206543 -16.86737823486328 -1.7999224662780762
-16.760608673095703 -20.528045654296875 -1.8752851486206055
5.030695915222168 -13.26485824584961 -1.003883957862854
9.673832893371582 -16.755521774291992 -1.3690764904022217
-18.13224220275879 -13.625497817993164 -1.8577702045440674
-19.854408264160156 -20.67061996459961 -2.347599983215332
-9.641701698303223 -20.319501876831055 -1.8422002792358398
-10.262551307678223 -27.060115814208984 -2.3704910278320312
-8.061537742614746 -27.831640243530273 -2.373345375061035
-5.801167011260986 -28.415966033935547 -2.3755109310150146
-1.1688696146011353 -29.005117416381836 -2.377687692642212
2.4662084579467773 -20.31100082397461 -1.6758577823638916
4.906130313873291 -12.936410903930664 -1.133241057395935
9.667348861694336 -16.74429702758789 -1.5836683511734009
19.854394912719727 -20.670623779296875 -2.347599983215332
22.913095474243164 -17.218076705932617 -2.347599983215332
24.224271774291992 -15.318514823913574 -2.347599983215332
16.37200164794922 -6.975449085235596 -1.4576431512832642
-26.07964324951172 -6.428085803985596 -2.5
-25.47783660888672 -8.505751609802246 -2.5
-22.687084197998047 -14.346464157104492 -2.4983649253845215
-18.281227111816406 -13.737455368041992 -2.1283814907073975
-12.6519136428833 -15.4957857131958 -1.8619359731674194
-11.089345932006836 -16.065658569335938 -1.816935658454895
-3.061022996902466 -25.20976448059082 -2.3636245727539062
1.022829532623291 -25.381141662597656 -2.3642594814300537
5.076921463012695 -24.86836814880371 -2.362356424331665
4.880915641784668 -12.869916915893555 -1.2811150550842285
9.660863876342773 -16.73306655883789 -1.798359990119934
14.328164100646973 -20.757919311523438 -2.347599983215332
15.952006340026855 -19.537689208984375 -2.347599983215332
18.879501342773438 -16.72579574584961 -2.347599983215332
20.164165496826172 -15.152372360229492 -2.347599983215332
15.697465896606445 -6.688061237335205 -1.5881179571151733
18.35867691040039 -6.1290283203125 -1.8014419078826904
26.07964324951172 -6.428066253662109 -2.5
26.5123233795166 -4.308671951293945 -2.5
26.773061752319336 -2.1613476276397705 -2.5
-23.977596282958984 1.4648437172581907e-05 -2.5
-23.899843215942383 -1.9293895959854126 -2.5
-21.231081008911133 -11.14293384552002 -2.5
-16.853384017944336 -14.930800437927246 -2.347599983215332
-9.199201583862305 -15.9334716796875 -1.918292760848999
-7.986433029174805 -21.058500289916992 -2.348242998123169
-6.271914005279541 -21.65315818786621 -2.350446939468384
-2.720510244369507 -22.40536117553711 -2.3532333374023438
-0.9090160727500916 -22.5570011138916 -2.353795289993286
2.5079028606414795 -20.654388427734375 -2.1693291664123535
4.512426853179932 -22.103271484375 -2.3521132469177246
3.7227392196655273 -12.852373123168945 -1.3951243162155151
4.858857154846191 -12.811747550964355 -1.4286444187164307
12.790488243103027 -18.530223846435547 -2.347599983215332
16.853384017944336 -14.930805206298828 -2.347599983215332
19.15042495727539 -14.390600204467773 -2.4976162910461426
20.265594482421875 -12.815199851989746 -2.5
21.231082916259766 -11.142929077148438 -2.5
23.280818939208984 -5.738222599029541 -2.5
23.66706085205078 -3.8462791442871094 -2.5
23.899818420410156 -1.9293993711471558 -2.5
-21.019813537597656 -5.180942058563232 -2.5
-20.534765243530273 -6.855512619018555 -2.5
-18.29742431640625 -11.570605278015137 -2.5
-14.143080711364746 -14.724520683288574 -2.3576974868774414
-10.94338607788086 -15.854232788085938 -2.224632501602173
-9.199193954467773 -15.9334716796875 -2.1246337890625
-5.655932426452637 -19.526546478271484 -2.347599983215332
-4.066359996795654 -19.9183292388916 -2.347599983215332
-2.4504101276397705 -20.18095588684082 -2.347599983215332
0.8185717463493347 -20.312685012817383 -2.347599983215332
2.4504148960113525 -20.18095588684082 -2.347599983215332
3.6651318073272705 -12.653481483459473 -1.5212794542312622
4.816296100616455 -12.6995210647583 -1.5684562921524048
9.240839958190918 -16.005590438842773 -2.134251117706299
14.143080711364746 -14.724496841430664 -2.357694625854492
18.297422409057617 -11.570595741271973 -2.5
19.169145584106445 -10.060736656188965 -2.5
14.946259498596191 -6.367998123168945 -1.8761107921600342
18.320425033569336 -6.116254806518555 -2.2304155826568604
21.019794464111328 -5.180932521820068 -2.5
21.368539810180664 -3.472729444503784 -2.5
-19.66400718688965 -1.587441325187683 -2.5
-19.472515106201172 -3.164599657058716 -2.5
-18.712711334228516 -6.247231483459473 -2.5
-18.149335861206055 -7.732709884643555 -2.5
-17.468265533447266 -9.168046951293945 -2.5
-16.67388916015625 -10.5439453125 -2.5
-15.771390914916992 -11.851435661315918 -2.5
-14.766603469848633 -13.082075119018555 -2.5
-13.66604995727539 -14.227875709533691 -2.5
-7.941681861877441 -16.73676300048828 -2.347599983215332
-5.15408182144165 -17.793954849243164 -2.347599983215332
2.232988119125366 -18.39029312133789 -2.347599983215332
3.6780638694763184 -12.698139190673828 -1.675297498703003
6.01232385635376 -12.6707124710083 -1.7772727012634277
9.186762809753418 -15.911928176879883 -2.328357219696045
10.523612976074219 -15.246078491210938 -2.347599983215332
12.014667510986328 -14.715302467346191 -2.4073874950408936
13.66604995727539 -14.227875709533691 -2.5
15.771395683288574 -11.85142993927002 -2.5
16.673891067504883 -10.543935775756836 -2.5
19.154720306396484 -4.72122049331665 -2.5
19.664003372192383 -1.5874364376068115 -2.5
-18.057308197021484 -1.457739233970642 -2.5
-17.88145637512207 -2.9060254096984863 -2.5
-16.040966033935547 -8.418959617614746 -2.5
-14.482748985290527 -10.88308048248291 -2.5
-13.560060501098633 -12.01317310333252 -2.5
-3.402785539627075 -16.66789436340332 -2.347599983215332
-2.050537109375 -16.887664794921875 -2.347599983215332
-0.6849926710128784 -16.997909545898438 -2.347599983215332
0.6849877834320068 -16.997905731201172 -2.347599983215332
3.675969123840332 -12.69090747833252 -1.8233226537704468
8.512836456298828 -14.744668006896973 -2.3495280742645264
11.457411766052246 -14.032793045043945 -2.5
12.549423217773438 -13.06534194946289 -2.5
13.560053825378418 -12.01317310333252 -2.5
14.482748985290527 -10.88308048248291 -2.5
15.311498641967773 -9.682421684265137 -2.5
16.040966033935547 -8.4189453125 -2.5
14.913192749023438 -6.35391092300415 -2.2370142936706543
17.881454467773438 -2.9060254096984863 -2.5
-16.743757247924805 1.4648437172581907e-05 -2.5
-16.52692985534668 -2.6858885288238525 -2.5
-16.25720977783203 -4.007060527801514 -2.5
-15.403915405273438 -6.562993049621582 -2.5
-14.151659965515137 -8.948974609375 -2.5
-13.38567066192627 -10.05868148803711 -2.5
-12.532877922058105 -11.103168487548828 -2.5
-11.598803520202637 -12.075644493103027 -2.5
-6.98040246963501 -14.710898399353027 -2.4312069416046143
-5.585695743560791 -14.728281021118164 -2.351905345916748
-4.374431133270264 -15.10228443145752 -2.347599983215332
-3.14501953125 -15.405302047729492 -2.347599983215332
-1.8952099084854126 -15.608412742614746 -2.347599983215332
-0.633105456829071 -15.710302352905273 -2.347599983215332
0.633105456829071 -15.710307121276855 -2.347599983215332
1.8952075242996216 -15.608417510986328 -2.347599983215332
3.6767942905426025 -12.693744659423828 -1.9732009172439575
4.809526443481445 -12.68166446685791 -2.025089979171753
6.025429725646973 -12.69832992553711 -2.0985984802246094
10.589506149291992 -12.969804763793945 -2.5
11.598798751831055 -12.075644493103027 -2.5
14.825859069824219 -7.781210899353027 -2.5
15.882055282592773 -5.302202224731445 -2.5
16.25721549987793 -4.007050514221191 -2.5
16.526927947998047 -2.6858885288238525 -2.5
16.689462661743164 -1.3473095893859863 -2.5
-15.510629653930664 -1.2521483898162842 -2.5
-15.359580039978027 -2.4961814880371094 -2.5
-15.10891056060791 -3.7240283489227295 -2.5
-14.31588363647461 -6.099433422088623 -2.5
-13.77865982055664 -7.231601238250732 -2.5
-10.779541015625 -11.222700119018555 -2.5
-7.780549049377441 -13.476293563842773 -2.5
-6.670915603637695 -14.058676719665527 -2.5
-3.003957509994507 -14.71432113647461 -2.4127204418182373
-1.7873339653015137 -14.719965934753418 -2.3822362422943115
-0.5933032035827637 -14.722734451293945 -2.36723256111145
0.5933080911636353 -14.722748756408691 -2.3672327995300293
1.787331461906433 -14.71996021270752 -2.3822364807128906
4.809179782867432 -12.680766105651855 -2.1788454055786133
8.839706420898438 -12.806532859802246 -2.5
9.841537475585938 -12.0537109375 -2.5
10.779536247253418 -11.222700119018555 -2.5
11.647631645202637 -10.318915367126465 -2.5
12.440199851989746 -9.3482027053833 -2.5
13.152074813842773 -8.316874504089355 -2.5
13.778661727905273 -7.23159646987915 -2.5
14.315878868103027 -6.099428653717041 -2.5
14.760263442993164 -4.927700042724609 -2.5
15.108905792236328 -3.7240233421325684 -2.5
15.359575271606445 -2.4961767196655273 -2.5
-14.483935356140137 -1.1692626476287842 -2.5
-14.342883110046387 -2.330947160720825 -2.5
-13.78323745727539 -4.601523399353027 -2.5
-13.36827564239502 -5.695683479309082 -2.5
-12.86661148071289 -6.752919673919678 -2.5
-12.281498908996582 -7.766357421875 -2.5
-11.616747856140137 -8.729418754577637 -2.5
-10.066010475158691 -10.479833602905273 -2.5
-9.190094947814941 -11.255834579467773 -2.5
-8.254579544067383 -11.95882797241211 -2.5
-7.265534400939941 -12.584257125854492 -2.5
-6.229348182678223 -13.128100395202637 -2.5
-2.9065892696380615 -14.23739242553711 -2.5
1.7496312856674194 -14.409502029418945 -2.4972963333129883
2.9065892696380615 -14.23739242553711 -2.5
3.6766674518585205 -12.693320274353027 -2.273591995239258
6.014506816864014 -12.67531681060791 -2.413776397705078
9.190093040466309 -11.255829811096191 -2.5
10.876640319824219 -9.635878562927246 -2.5
11.616738319396973 -8.729418754577637 -2.5
12.86661148071289 -6.752914905548096 -2.5
13.368266105651855 -5.695683479309082 -2.5
-13.449223518371582 -2.185722589492798 -2.5
-12.064933776855469 -6.332167625427246 -2.5
-10.892946243286133 -8.185517311096191 -2.5
-9.438830375671387 -9.826874732971191 -2.5
-8.61749267578125 -10.554516792297363 -2.5
-6.812839031219482 -11.800180435180664 -2.5
-5.841217994689941 -12.310132026672363 -2.5
-3.790908098220825 -13.0877046585083 -2.5
-2.7254858016967773 -13.35030746459961 -2.5
0.5486499071121216 -13.614619255065918 -2.5
1.642397403717041 -13.52633285522461 -2.5
2.7254881858825684 -13.350302696228027 -2.5
4.831728458404541 -12.740229606628418 -2.5
7.740258693695068 -11.21371078491211 -2.5
10.198959350585938 -9.035497665405273 -2.5
10.892949104309082 -8.185517311096191 -2.5
12.064936637878418 -6.332162857055664 -2.5
12.5353364944458 -5.340805530548096 -2.5
-12.781867027282715 -1.0318652391433716 -2.5
-12.657387733459473 -2.0570311546325684 -2.5
-9.598485946655273 -8.503524780273438 -2.5
-8.883112907409668 -9.248300552368164 -2.5
-8.110129356384277 -9.933115005493164 -2.5
-7.284548282623291 -10.55349063873291 -2.5
-4.547255992889404 -11.990131378173828 -2.5
-3.5677099227905273 -12.317152976989746 -2.5
-1.5456957817077637 -12.729950904846191 -2.5
-0.5163476467132568 -12.813041687011719 -2.5
0.5163476467132568 -12.813051223754883 -2.5
3.5677123069763184 -12.317152976989746 -2.5
6.411718368530273 -11.10543441772461 -2.5
7.2845458984375 -10.553485870361328 -2.5
8.883110046386719 -9.248305320739746 -2.5
10.251605987548828 -7.703583717346191 -2.5
12.450815200805664 -3.068862199783325 -2.5
12.65738296508789 -2.0570311546325684 -2.5
-12.068249702453613 -0.9742528796195984 -2.5
-11.755688667297363 -2.897529125213623 -2.5
-11.484418869018555 -3.834062337875366 -2.5
-11.13866138458252 -4.745741844177246 -2.5
-10.720670700073242 -5.626645565032959 -2.5
-10.233146667480469 -6.471054553985596 -2.5
-9.679265022277832 -7.273496150970459 -2.5
-9.062604904174805 -8.028769493103027 -2.5
-7.657336235046387 -9.378544807434082 -2.5
-5.190395355224609 -10.938544273376465 -2.5
-1.4594018459320068 -12.019227981567383 -2.5
-0.4875195324420929 -12.097695350646973 -2.5
0.4875219762325287 -12.097695350646973 -2.5
1.4594018459320068 -12.019238471984863 -2.5
2.421821117401123 -11.86282730102539 -2.5
3.3685302734375 -11.629487037658691 -2.5
4.293388366699219 -11.320722579956055 -2.5
5.190390586853027 -10.938539505004883 -2.5
6.877856254577637 -9.964286804199219 -2.5
7.657338619232178 -9.378549575805664 -2.5
8.387163162231445 -8.73196792602539 -2.5
9.062597274780273 -8.02877426147461 -2.5
9.679262161254883 -7.273496150970459 -2.5
10.233139038085938 -6.471093654632568 -2.5
11.13866138458252 -4.745737075805664 -2.5
11.755682945251465 -2.897529125213623 -2.5
-11.464516639709473 4.882812390860636e-06 -2.5
-11.316052436828613 -1.8390429019927979 -2.5
-11.131379127502441 -2.743647336959839 -2.5
-10.151325225830078 -5.327826976776123 -2.5
-9.165224075317383 -6.887221336364746 -2.5
-7.941747665405273 -8.268241882324219 -2.5
-7.250678539276123 -8.880473136901855 -2.5
-6.512587547302246 -9.435111999511719 -2.5
-5.732253074645996 -9.928559303283691 -2.5
-4.06536865234375 -10.71950626373291 -2.5
-2.293200731277466 -11.23282241821289 -2.5
0.46163085103034973 -11.455219268798828 -2.5
5.732260704040527 -9.928564071655273 -2.5
7.250673770904541 -8.880477905273438 -2.5
9.1652193069458 -6.887221336364746 -2.5
9.689682006835938 -6.127392292022705 -2.5
10.151318550109863 -5.327817440032959 -2.5
10.547114372253418 -4.493700981140137 -2.5
11.42733383178711 -0.9225048422813416 -2.5
-10.883708000183105 -4.882812390860636e-06 -2.5
-10.848407745361328 -0.875781238079071 -2.5
-10.5674409866333 -2.6046533584594727 -2.5
-10.323588371276855 -3.446523427963257 -2.5
-8.146564483642578 -7.217231273651123 -2.5
-6.883347034454346 -8.430571556091309 -2.5
-6.18264627456665 -8.957109451293945 -2.5
-5.441850662231445 -9.425565719604492 -2.5
-4.665756702423096 -9.8328857421875 -2.5
-3.8594138622283936 -10.176435470581055 -2.5
-2.177018880844116 -10.663744926452637 -2.5
1.3118871450424194 -10.80434513092041 -2.5
3.8594164848327637 -10.176440238952637 -2.5
4.665756702423096 -9.8328857421875 -2.5
6.883339881896973 -8.430571556091309 -2.5
8.146567344665527 -7.217236042022705 -2.5
8.700898170471191 -6.538295745849609 -2.5
9.637041091918945 -5.057909965515137 -2.5
10.012778282165527 -4.266049861907959 -2.5
10.323588371276855 -3.4465184211730957 -2.5
10.567436218261719 -2.6046483516693115 -2.5
10.848407745361328 -0.8757763504981995 -2.5
-9.823381423950195 -3.279531240463257 -2.5
-9.170100212097168 -4.812841892242432 -2.5
-8.753087997436523 -5.535121917724609 -2.5
-7.751842975616455 -6.867538928985596 -2.5
-7.174103736877441 -7.469027996063232 -2.5
-6.549831390380859 -8.022089958190918 -2.5
-5.883080959320068 -8.523115158081055 -2.5
-5.178181171417236 -8.968867301940918 -2.5
-2.8813183307647705 -9.947465896606445 -2.5
-0.41700437664985657 -10.347953796386719 -2.5
2.8813230991363525 -9.947470664978027 -2.5
3.6724119186401367 -9.683359146118164 -2.5
4.439687252044678 -9.356454849243164 -2.5
7.174096584320068 -7.469027996063232 -2.5
7.751835823059082 -6.867538928985596 -2.5
8.279311180114746 -6.221503734588623 -2.5
9.823383331298828 -3.279536008834839 -2.5
10.055415153503418 -2.478442430496216 -2.5
10.222241401672363 -1.6612792015075684 -2.5
10.322772979736328 -0.8333398103713989 -2.5
-9.8753023147583 4.882812390860636e-06 -2.5
-9.588339805603027 -2.3633251190185547 -2.5
-8.744147300720215 -4.589277267456055 -2.5
-7.894738674163818 -5.932509422302246 -2.5
-7.391769886016846 -6.548540115356445 -2.5
-6.245585918426514 -7.649467468261719 -2.5
-3.501826047897339 -9.233569145202637 -2.5
-1.190334439277649 -9.803300857543945 -2.5
-0.39763426780700684 -9.867289543151855 -2.5
0.3976391553878784 -9.867289543151855 -2.5
1.975319743156433 -9.675732612609863 -2.5
2.747487783432007 -9.485400199890137 -2.5
5.609809398651123 -8.127216339111328 -2.5
6.840864181518555 -7.12209939956665 -2.5
7.894736289978027 -5.932514667510986 -2.5
8.346498489379883 -5.278012752532959 -2.5
8.744145393371582 -4.589282035827637 -2.5
9.085078239440918 -3.870790958404541 -2.5
9.367079734802246 -3.127192258834839 -2.5
9.588339805603027 -2.3633251190185547 -2.5
9.747416496276855 -1.5841162204742432 -2.5
9.843280792236328 -0.794628918170929 -2.5
-9.434601783752441 4.882812390860636e-06 -2.5
-9.404010772705078 -0.7591747641563416 -2.5
-9.312426567077637 -1.5134228467941284 -2.5
-8.94906234741211 -2.9876415729522705 -2.5
-8.679640769958496 -3.6980466842651367 -2.5
-7.542421817779541 -5.667768478393555 -2.5
-6.535575866699219 -6.804257869720459 -2.5
-5.966869831085205 -7.308095455169678 -2.5
-2.624870538711548 -9.062104225158691 -2.5
-1.8871654272079468 -9.243926048278809 -2.5
-0.379890114068985 -9.426947593688965 -2.5
0.37989500164985657 -9.426947593688965 -2.5
1.1372191905975342 -9.36581039428711 -2.5
4.717299461364746 -8.170599937438965 -2.5
5.966865062713623 -7.308080673217773 -2.5
7.061894416809082 -6.256298542022705 -2.5
7.542426586151123 -5.667783260345459 -2.5
7.974023342132568 -5.042475700378418 -2.5
8.353920936584473 -4.384472370147705 -2.5
8.679638862609863 -3.698051691055298 -2.5
8.949057579040527 -2.9876365661621094 -2.5
9.404008865356445 -0.75916987657547 -2.5
-9.029281616210938 2.4414061044808477e-05 -2.5
-8.999995231628418 -0.7265576124191284 -2.5
-8.564597129821777 -2.8592772483825684 -2.5
-8.306750297546387 -3.539174795150757 -2.5
-7.218388557434082 -5.424272537231445 -2.5
-6.254799842834473 -6.511923789978027 -2.5
-5.710522174835205 -6.994125843048096 -2.5
-5.129216194152832 -7.430952072143555 -2.5
-4.514640808105469 -7.81957483291626 -2.5
-3.870783567428589 -8.157500267028809 -2.5
-1.0883593559265137 -8.963441848754883 -2.5
-0.36357420682907104 -9.021952629089355 -2.5
0.36357420682907104 -9.021952629089355 -2.5
1.088356852531433 -8.963441848754883 -2.5
1.8060864210128784 -8.846806526184082 -2.5
2.5121045112609863 -8.6727876663208 -2.5
3.2018237113952637 -8.442519187927246 -2.5
3.870778799057007 -8.157509803771973 -2.5
6.25478982925415 -6.511938095092773 -2.5
7.995028972625732 -4.196113109588623 -2.5
8.306747436523438 -3.5391697883605957 -2.5
8.999995231628418 -0.7265527248382568 -2.5
-8.655156135559082 0.0 -2.5
-8.627084732055664 -0.6964550614356995 -2.5
-8.543070793151855 -1.3883886337280273 -2.5
-8.403647422790527 -2.0713231563568115 -2.5
-7.66375732421875 -4.022250652313232 -2.5
-6.91925048828125 -5.199526309967041 -2.5
-5.99563455581665 -6.242124080657959 -2.5
-4.91668701171875 -7.123046875 -2.5
-4.327580451965332 -7.495585918426514 -2.5
-3.710400342941284 -7.819506645202637 -2.5
-2.408015012741089 -8.313427925109863 -2.5
-1.7312524318695068 -8.480238914489746 -2.5
-1.0432641506195068 -8.592045783996582 -2.5
0.3485058546066284 -8.6481294631958 -2.5
1.7312548160552979 -8.480238914489746 -2.5
3.069157600402832 -8.0927095413208 -2.5
3.710395336151123 -7.819501876831055 -2.5
4.916689395904541 -7.123046875 -2.5
5.473910808563232 -6.704320907592773 -2.5
7.315244197845459 -4.62588357925415 -2.5
7.962563514709473 -3.392534017562866 -2.5
8.40365219116211 -2.0713183879852295 -2.5
8.543066024780273 -1.3883837461471558 -2.5
8.627084732055664 -0.6964501738548279 -2.5
-7.356967449188232 -3.8612401485443115 -2.5
-6.642314434051514 -4.991372108459473 -2.5
-2.3116235733032227 -7.980639457702637 -2.5
-0.3345580995082855 -8.301933288574219 -2.5
1.001499056816101 -8.248095512390137 -2.5
2.3116209506988525 -7.980629920959473 -2.5
2.946298837661743 -7.768749713897705 -2.5
3.5618650913238525 -7.506479263305664 -2.5
4.719868183135986 -6.837910175323486 -2.5
5.254780292510986 -6.435946941375732 -2.5
6.219125747680664 -5.509677410125732 -2.5
6.642304420471191 -4.991366863250732 -2.5
7.35696268081665 -3.8612353801727295 -2.5
7.881078720092773 -2.631093740463257 -2.5
-7.98681640625 0.0 -2.5
-7.575780868530273 -2.529165029525757 -2.5
-7.347704887390137 -3.130566358566284 -2.5
-7.071972370147705 -3.711660146713257 -2.5
-4.537028789520264 -6.573017597198486 -2.5
-2.832163095474243 -7.467797756195068 -2.5
0.9627026319503784 -7.928578853607178 -2.5
2.2220702171325684 -7.671474456787109 -2.5
2.832160472869873 -7.46780252456665 -2.5
3.423881769180298 -7.215688228607178 -2.5
3.99340558052063 -6.91677713394165 -2.5
5.978212833404541 -5.296240329742432 -2.5
7.071967601776123 -3.7116503715515137 -2.5
7.754726409912109 -1.9113720655441284 -2.5
7.883383750915527 -1.2811766862869263 -2.5
-7.662040710449219 -0.6185449361801147 -2.5
-7.291359901428223 -2.434213876724243 -2.5
-7.071847915649414 -3.0130321979522705 -2.5
-5.324948787689209 -5.543862342834473 -2.5
-4.861581802368164 -5.954360008239746 -2.5
-3.8434863090515137 -6.6571044921875 -2.5
-2.1386523246765137 -7.383466720581055 -2.5
-1.53759765625 -7.5316162109375 -2.5
0.926562488079071 -7.630918025970459 -2.5
1.5375902652740479 -7.53161096572876 -2.5
2.1386523246765137 -7.383466720581055 -2.5
4.366696834564209 -6.326244831085205 -2.5
5.324941158294678 -5.543857097625732 -2.5
6.145287990570068 -4.617880821228027 -2.5
-7.406869888305664 0.0 -2.5
-7.382853984832764 -0.5960107445716858 -2.5
-7.191642761230469 -1.7725927829742432 -2.5
-6.558461666107178 -3.442148447036743 -2.5
-6.260214805603027 -3.958730459213257 -2.5
-5.544120788574219 -4.911674499511719 -2.5
-5.130922794342041 -5.341860294342041 -2.5
-4.684443473815918 -5.737397193908691 -2.5
-3.703439950942993 -6.414540767669678 -2.5
-1.4815673828125 -7.257182598114014 -2.5
-0.8928027153015137 -7.352870941162109 -2.5
-0.2982446253299713 -7.400868892669678 -2.5
0.2982421815395355 -7.400868892669678 -2.5
1.4815624952316284 -7.257182598114014 -2.5
2.060724973678589 -7.114438533782959 -2.5
3.1752684116363525 -6.691747665405273 -2.5
3.703439950942993 -6.414540767669678 -2.5
5.130912780761719 -5.341855525970459 -2.5
5.544120788574219 -4.911664962768555 -2.5
7.191640377044678 -1.7725830078125 -2.5
-7.121420860290527 -0.5748974680900574 -2.5
-6.9369797706604 -1.7098193168640137 -2.5
-6.776906490325928 -2.262465715408325 -2.5
-6.5728759765625 -2.8004393577575684 -2.5
-6.326220512390137 -3.320263624191284 -2.5
-6.038535118103027 -3.81853985786438 -2.5
-4.518564224243164 -5.534228324890137 -2.5
-1.9877513647079468 -6.862499713897705 -2.5
-0.8611840605735779 -7.092494964599609 -2.5
-0.2876830995082855 -7.1387939453125 -2.5
0.2876879870891571 -7.138798713684082 -2.5
0.8611865043640137 -7.092494964599609 -2.5
1.429101586341858 -7.000195026397705 -2.5
1.9877513647079468 -6.862504959106445 -2.5
3.0628271102905273 -6.454780101776123 -2.5
4.518561840057373 -5.534233093261719 -2.5
6.038535118103027 -3.818535089492798 -2.5
6.326215744018555 -3.320253849029541 -2.5
6.5728759765625 -2.8004345893859863 -2.5
6.776899337768555 -2.262460947036743 -2.5
6.936977386474609 -1.7098193168640137 -2.5
7.052070140838623 -1.1460741758346558 -2.5
7.121420860290527 -0.5748974680900574 -2.5
-6.898412704467773 0.0 -2.5
-6.876042366027832 -0.5550927519798279 -2.5
-6.809079647064209 -1.1065869331359863 -2.5
-6.543393611907959 -2.184506893157959 -2.5
-4.778698444366455 -4.975146293640137 -2.5
-1.9192626476287842 -6.626049518585205 -2.5
-0.8315136432647705 -6.848114967346191 -2.5
-0.2777734398841858 -6.892807483673096 -2.5
0.27777099609375 -6.89281702041626 -2.5
0.8315136432647705 -6.848105430603027 -2.5
1.379858374595642 -6.758994102478027 -2.5
1.9192651510238647 -6.626049518585205 -2.5
3.449208974838257 -5.974204063415527 -2.5
3.9187450408935547 -5.677279949188232 -2.5
4.362861156463623 -5.343544960021973 -2.5
5.830463886260986 -3.686962842941284 -2.5
6.346396446228027 -2.7039451599121094 -2.5
6.543393611907959 -2.184511661529541 -2.5
-6.666840553283691 4.882812390860636e-06 -2.5
-6.580510139465332 -1.0694433450698853 -2.5
-6.323740005493164 -2.1111814975738525 -2.5
-6.13335657119751 -2.6131885051727295 -2.5
-5.903195858001709 -3.0982372760772705 -2.5
-5.634748458862305 -3.5632030963897705 -2.5
-4.618283748626709 -4.808144569396973 -2.5
-4.216413497924805 -5.164165019989014 -2.5
-3.7871997356414795 -5.486699104309082 -2.5
-3.3334226608276367 -5.773647308349609 -2.5
-2.858024835586548 -6.023159027099609 -2.5
-2.3640966415405273 -6.233603477478027 -2.5
-1.8548314571380615 -6.403617858886719 -2.5
-0.26844480633735657 -6.661435604095459 -2.5
0.8035986423492432 -6.618232250213623 -2.5
1.3335424661636353 -6.5321044921875 -2.5
2.3640942573547363 -6.233608245849609 -2.5
2.858022451400757 -6.023163795471191 -2.5
4.216413497924805 -5.164174556732178 -2.5
4.990200042724609 -4.420932292938232 -2.5
5.329755783081055 -4.005053520202637 -2.5
5.634741306304932 -3.5632030963897705 -2.5
5.903188228607178 -3.0982322692871094 -2.5
6.133359432220459 -2.613173723220825 -2.5
6.323744773864746 -2.1111767292022705 -2.5
6.473114967346191 -1.595483422279358 -2.5
6.580507755279541 -1.069433569908142 -2.5
-6.448564529418945 0.0 -2.5
-6.365056037902832 -1.034423828125 -2.5
-6.11669921875 -2.042055606842041 -2.5
-5.709921836853027 -2.9968016147613525 -2.5
-5.155258655548096 -3.8739306926727295 -2.5
-4.826818943023682 -4.276186466217041 -2.5
-4.078361511230469 -4.995092868804932 -2.5
-3.663203001022339 -5.307065486907959 -2.5
-3.2242822647094727 -5.584619045257568 -2.5
-2.7644505500793457 -5.82595682144165 -2.5
-1.289880394935608 -6.318242073059082 -2.5
-0.7772876024246216 -6.401547908782959 -2.5
-0.25965818762779236 -6.443329811096191 -2.5
0.25965574383735657 -6.443329811096191 -2.5
0.7772876024246216 -6.401542663574219 -2.5
1.794103980064392 -6.19396448135376 -2.5
2.7644505500793457 -5.82595682144165 -2.5
3.663203001022339 -5.307065486907959 -2.5
4.078366756439209 -4.995087623596191 -2.5
5.155253887176514 -3.8739256858825684 -2.5
5.450258731842041 -3.446537971496582 -2.5
5.709921836853027 -2.9967968463897705 -2.5
5.932548522949219 -2.5276219844818115 -2.5
6.365058422088623 -1.034423828125 -2.5
6.427651405334473 -0.5188964605331421 -2.5
-6.242421627044678 0.0 -2.5
-6.222175121307373 -0.5023095607757568 -2.5
-5.921164512634277 -1.976782202720642 -2.5
-5.527387619018555 -2.900995969772339 -2.5
-3.947988271713257 -4.835410118103027 -2.5
-3.12121319770813 -5.406088829040527 -2.5
-2.2135937213897705 -5.836762428283691 -2.5
-1.73675537109375 -5.995952129364014 -2.5
-1.2486474514007568 -6.116264343261719 -2.5
-0.75244140625 -6.196904182434082 -2.5
-0.25135740637779236 -6.237358093261719 -2.5
0.25135740637779236 -6.237358093261719 -2.5
2.2135937213897705 -5.836757659912109 -2.5
4.672516822814941 -4.139492034912109 -2.5
5.527387619018555 -2.9010009765625 -2.5
5.921162128448486 -1.9767773151397705 -2.5
6.061025142669678 -1.4939111471176147 -2.5
-6.047375202178955 0.0 -2.5
-6.027763366699219 -0.4866113066673279 -2.5
-5.969064712524414 -0.9700732231140137 -2.5
-5.563459396362305 -2.370371103286743 -2.5
-5.354684829711914 -2.810356378555298 -2.5
-5.111176490783691 -3.232119083404541 -2.5
-4.526523113250732 -4.010151386260986 -2.5
-4.189165115356445 -4.361381530761719 -2.5
-3.824636220932007 -4.684326171875 -2.5
-2.1444287300109863 -5.654389381408691 -2.5
-1.6824853420257568 -5.808613300323486 -2.5
-1.209631323814392 -5.925156116485596 -2.5
-0.728930652141571 -6.003285884857178 -2.5
-0.2435009777545929 -6.042470455169678 -2.5
0.2435034066438675 -6.042470455169678 -2.5
3.023688793182373 -5.2371826171875 -2.5
3.435305118560791 -4.976884841918945 -2.5
4.189162731170654 -4.361381530761719 -2.5
5.354677677154541 -2.810356378555298 -2.5
5.563457012176514 -2.370371103286743 -2.5
5.736152172088623 -1.915004849433899 -2.5
6.027768611907959 -0.48661619424819946 -2.5
-5.692162990570068 -1.4029979705810547 -2.5
-5.560812950134277 -1.8564794063568115 -2.5
-4.954938888549805 -3.133315324783325 -2.5
-4.686748027801514 -3.521860361099243 -2.5
-4.388156414031982 -3.887563467025757 -2.5
-4.061108112335205 -4.22805643081665 -2.5
-3.707719564437866 -4.5411376953125 -2.5
-2.931262254714966 -5.077085018157959 -2.5
-2.5132176876068115 -5.296494007110596 -2.5
-2.078874349594116 -5.481552600860596 -2.5
-1.6310571432113647 -5.631059646606445 -2.5
-1.1726561784744263 -5.744038105010986 -2.5
0.23605956137180328 -5.857758522033691 -2.5
1.1726586818695068 -5.744042873382568 -2.5
1.6310571432113647 -5.631049633026123 -2.5
2.5132153034210205 -5.296494007110596 -2.5
2.9312596321105957 -5.077089786529541 -2.5
4.061105728149414 -4.228066444396973 -2.5
4.686745643615723 -3.521840810775757 -2.5
5.191000938415527 -2.7244482040405273 -2.5
5.692162990570068 -1.402993083000183 -2.5
5.786596775054932 -0.9404150247573853 -2.5
-5.687023639678955 0.0 -2.5
-5.613376140594482 -0.9122655987739563 -2.5
-5.521767616271973 -1.361000895500183 -2.5
-5.231943130493164 -2.2291259765625 -2.5
-5.035607814788818 -2.642890453338623 -2.5
-4.806613445281982 -3.0395164489746094 -2.5
-3.596733331680298 -4.405195236206055 -2.5
-3.230597972869873 -4.680331707000732 -2.5
-2.843515634536743 -4.925102233886719 -2.5
-2.0166478157043457 -5.317455768585205 -2.5
-1.137551188468933 -5.572089672088623 -2.5
-0.6854956150054932 -5.645556449890137 -2.5
-0.22899413108825684 -5.682406902313232 -2.5
0.22899657487869263 -5.682412147521973 -2.5
1.5822314023971558 -5.462485313415527 -2.5
2.0166454315185547 -5.317461013793945 -2.5
2.437980890274048 -5.137948989868164 -2.5
2.843513011932373 -4.925107479095459 -2.5
3.230597972869873 -4.68032693862915 -2.5
3.596730947494507 -4.405200004577637 -2.5
3.9395408630371094 -4.101503849029541 -2.5
4.54644775390625 -3.4164304733276367 -2.5
5.521767616271973 -1.361000895500183 -2.5
5.6685791015625 -0.4576123058795929 -2.5
-5.520161151885986 0.0 -2.5
-5.448676586151123 -0.885498046875 -2.5
-5.07843017578125 -2.1637158393859863 -2.5
-4.887856483459473 -2.5653467178344727 -2.5
-4.665585994720459 -2.9503369331359863 -2.5
-3.8239476680755615 -3.981152296066284 -2.5
-3.4911985397338867 -4.275942325592041 -2.5
-3.135807991027832 -4.543002605438232 -2.5
-2.760082960128784 -4.780595779418945 -2.5
-1.9574755430221558 -5.161435604095459 -2.5
-1.5358374118804932 -5.302211761474609 -2.5
-1.1041772365570068 -5.408593654632568 -2.5
-0.6653832793235779 -5.479911804199219 -2.5
-0.22227294743061066 -5.515688419342041 -2.5
0.22227782011032104 -5.515678405761719 -2.5
1.9574731588363647 -5.161430358886719 -2.5
2.366447687149048 -4.987192153930664 -2.5
2.760082960128784 -4.780600547790527 -2.5
3.135807991027832 -4.543002605438232 -2.5
3.8239500522613525 -3.981157064437866 -2.5
4.413051605224609 -3.3161914348602295 -2.5
4.665580749511719 -2.9503467082977295 -2.5
5.078432559967041 -2.1637158393859863 -2.5
5.448667049407959 -0.8854931592941284 -2.5
5.502255916595459 -0.4441894292831421 -2.5
-5.361271858215332 0.0 -2.5
-5.205478191375732 -1.2830419540405273 -2.5
-4.747168064117432 -2.491503953933716 -2.5
-4.531289100646973 -2.86541485786438 -2.5
-4.286025524139404 -3.2207422256469727 -2.5
-3.713876962661743 -3.8665623664855957 -2.5
-3.3907103538513184 -4.15286111831665 -2.5
-2.298334836959839 -4.843632698059082 -2.5
-1.9011303186416626 -5.012870788574219 -2.5
-1.491601586341858 -5.149589538574219 -2.5
-0.6462304592132568 -5.322177410125732 -2.5
-0.21587646007537842 -5.356923580169678 -2.5
1.4915966987609863 -5.149589538574219 -2.5
1.9011303186416626 -5.012876033782959 -2.5
2.298334836959839 -4.843642234802246 -2.5
3.3907079696655273 -4.15286111831665 -2.5
3.713884115219116 -3.8665623664855957 -2.5
4.286027908325195 -3.2207422256469727 -2.5
4.747168064117432 -2.491503953933716 -2.5
5.20547342300415 -1.2830370664596558 -2.5
5.291840553283691 -0.8600097298622131 -2.5
5.343881607055664 -0.4314062297344208 -2.5
