ply
format ascii 1.0
element vertex 812
property float x
property float y
property float z
end_header
-12.017719268798828 17.41064453125 5.66860294342041
-13.26927661895752 16.251934051513672 5.6218180656433105
-14.769648551940918 15.376845359802246 5.7129716873168945
24.874658584594727 13.055204391479492 7.194674015045166
-10.261083602905273 21.624780654907227 6.130112648010254
-11.058676719665527 19.154184341430664 5.664401054382324
-13.865165710449219 16.98177719116211 5.61466121673584
-17.017744064331055 15.076395988464355 5.82270622253418
-18.51827049255371 13.915566444396973 5.932451248168945
-22.404951095581055 11.759003639221191 6.480342388153076
24.591093063354492 12.906386375427246 6.785627365112305
-10.261083602905273 21.62479019165039 5.848259925842285
-11.116361618041992 19.25409698486328 5.432150363922119
-12.80263614654541 18.54778289794922 5.5065507888793945
-14.5132417678833 17.7755126953125 5.606877326965332
-16.235429763793945 16.902870178222656 5.726411819458008
-17.93782615661621 15.891542434692383 5.8553290367126465
24.76333999633789 12.996776580810547 6.505618572235107
-10.261083602905273 21.624780654907227 5.567928314208984
-11.60585880279541 20.101932525634766 5.39949893951416
-13.367876052856445 19.366689682006836 5.474071502685547
-15.209892272949219 18.62874984741211 5.594348430633545
-22.349149703979492 14.132734298706055 6.151102066040039
-10.288744926452637 21.68303680419922 5.303288459777832
-12.137734413146973 21.023162841796875 5.364101886749268
-17.985204696655273 18.724584579467773 5.736998558044434
-22.227352142333984 16.702762603759766 6.1436991691589355
25.904197692871094 11.036738395690918 5.895405292510986
24.61772346496582 15.567294120788574 6.098384857177734
-10.762524604797363 22.681547164916992 5.256415367126465
26.28606414794922 11.199423789978027 5.652561664581299
25.883651733398438 13.584765434265137 5.783040523529053
18.330360412597656 16.239286422729492 4.844743728637695
-15.37132740020752 22.269189834594727 5.353169918060303
-17.550640106201172 21.495643615722656 5.48994255065918
26.018163681030273 13.65536117553711 5.475456237792969
-12.408744812011719 26.1508731842041 5.062549114227295
-14.584755897521973 25.261518478393555 5.101716995239258
-16.772674560546875 24.2994327545166 5.164072036743164
-14.243242263793945 14.828798294067383 3.5961339473724365
-17.19280242919922 12.919550895690918 3.7613749504089355
25.808494567871094 13.545331954956055 4.765561580657959
-13.071171760559082 16.009286880493164 3.379171133041382
-14.243242263793945 14.828798294067383 3.361762046813965
-15.594277381896973 13.81533145904541 3.406320095062256
-17.19280242919922 12.919550895690918 3.5162322521209717
26.829490661621094 11.430936813354492 4.436958312988281
25.13619041442871 13.19247055053711 4.319005012512207
-13.071171760559082 16.009296417236328 3.1444365978240967
-14.243242263793945 14.828798294067383 3.1282384395599365
-15.594266891479492 13.815321922302246 3.1697001457214355
-17.19280242919922 12.919550895690918 3.271979331970215
-19.2611026763916 12.1799898147583 3.4671924114227295
-11.058667182922363 19.154178619384766 3.114640474319458
-13.071171760559082 16.009296417236328 2.910492420196533
-15.594266891479492 13.815321922302246 2.933878183364868
-17.19280242919922 12.919550895690918 3.028545379638672
-19.2611026763916 12.179970741271973 3.209232807159424
-22.404970169067383 11.759003639221191 3.5632989406585693
-10.26107406616211 21.624794006347656 3.100623607635498
-12.017714500427246 17.41064453125 2.740471124649048
-13.071171760559082 16.009296417236328 2.677276611328125
-15.594266891479492 13.815321922302246 2.6987876892089844
-19.2611026763916 12.179970741271973 2.9520819187164307
-10.261078834533691 21.624774932861328 2.8313043117523193
-11.058667182922363 19.1541690826416 2.6162071228027344
-13.071162223815918 16.009296417236328 2.444729804992676
-14.243247032165527 14.828788757324219 2.4321374893188477
-15.594266891479492 13.815321922302246 2.464373826980591
-19.2611026763916 12.179970741271973 2.695666551589966
-10.261078834533691 21.624759674072266 2.5626866817474365
-12.017714500427246 17.41064453125 2.2650201320648193
-16.134613037109375 14.29403305053711 2.307858943939209
-19.962167739868164 12.623300552368164 2.52872633934021
-22.404951095581055 11.759003639221191 2.709102153778076
-10.511845588684082 27.71746063232422 2.8419413566589355
-10.26107406616211 21.624774932861328 2.294710636138916
-11.058661460876465 19.154159545898438 2.120377779006958
-12.074247360229492 17.4925479888916 2.037710428237915
-10.5118408203125 27.717470169067383 2.5107638835906982
-10.26107406616211 21.624755859375 2.027301549911499
-11.34023380279541 19.641855239868164 1.9209814071655273
-15.225531578063965 18.64790916442871 2.0390188694000244
-10.511836051940918 27.71746063232422 2.1802055835723877
-17.28972053527832 21.17607307434082 2.0106136798858643
-11.491694450378418 24.218231201171875 1.673092007637024
-16.045257568359375 23.245555877685547 1.7629116773605347
-14.95724105834961 25.906679153442383 1.5345098972320557
-16.74799346923828 24.26363182067871 1.5123522281646729
-22.604570388793945 11.863779067993164 -0.10608886182308197
-20.93160629272461 18.543779373168945 -0.4261248707771301
-22.404951095581055 11.759003639221191 -0.38557571172714233
-18.8200626373291 19.593759536743164 -0.7151857018470764
-20.931610107421875 18.54378890991211 -0.7361442446708679
-17.36225128173828 21.264917373657227 -1.0272024869918823
-17.192792892456055 12.919530868530273 -0.8046960234642029
-22.40494155883789 11.759003639221191 -0.9467806816101074
-14.243242263793945 14.828798294067383 -0.9976162314414978
-15.594277381896973 13.815321922302246 -1.0108394622802734
-22.404951095581055 11.759003639221191 -1.2276992797851562
-25.969091415405273 2.096435546875 -1.2641009092330933
-11.058661460876465 19.1541690826416 -1.3189300298690796
-12.017714500427246 17.41064453125 -1.2615736722946167
-14.243242263793945 14.828798294067383 -1.226133108139038
-15.594277381896973 13.81533145904541 -1.2423855066299438
-22.404951095581055 11.759003639221191 -1.508919358253479
-25.04219627380371 2.021611213684082 -1.498207926750183
16.725692749023438 2.718193292617798 -1.1990715265274048
-10.595937728881836 27.939193725585938 -2.114438533782959
-11.058671951293945 19.1541690826416 -1.565066933631897
-12.017704963684082 17.41064453125 -1.4970065355300903
-14.243242263793945 14.828798294067383 -1.4549527168273926
-17.19279670715332 12.919530868530273 -1.521806001663208
-19.261089324951172 12.1799898147583 -1.6126002073287964
-22.404951095581055 11.759003639221191 -1.7905114889144897
-24.269657135009766 1.9592382907867432 -1.7229562997817993
16.28152847290039 23.587841033935547 -2.347599983215332
12.28688907623291 25.89409637451172 -2.347599983215332
10.163471221923828 26.798847198486328 -2.347599983215332
7.974194049835205 27.52983283996582 -2.347599983215332
5.733012676239014 28.082128524780273 -2.347599983215332
3.4546825885772705 28.452314376831055 -2.347599983215332
-3.4547557830810547 28.45235252380371 -2.347599983215332
-5.73302698135376 28.082128524780273 -2.347599983215332
-7.974091529846191 27.529720306396484 -2.347599983215332
-10.163461685180664 26.798847198486328 -2.347599983215332
-11.986845016479492 25.261737823486328 -2.290266275405884
-13.07115650177002 16.009296417236328 -1.6928505897521973
-19.261089324951172 12.179970741271973 -1.8666126728057861
-22.404951095581055 11.759013175964355 -2.072547197341919
-24.244735717773438 1.9572362899780273 -1.9923044443130493
26.07965850830078 6.428056716918945 -2.5
23.783485412597656 12.482528686523438 -2.5
12.611391067504883 21.843544006347656 -2.347599983215332
5.045209884643555 24.713022232055664 -2.347599983215332
3.0402586460113525 25.038846969604492 -2.347599983215332
1.015590786933899 25.202299118041992 -2.347599983215332
-1.0156543254852295 25.20228385925293 -2.347599983215332
-7.017373085021973 24.22694206237793 -2.347599983215332
-8.944062232971191 23.583709716796875 -2.347599983215332
-10.54872989654541 22.230985641479492 -2.290266275405884
-11.058667182922363 19.1541690826416 -2.058563709259033
-12.017714500427246 17.41064453125 -1.9690420627593994
-13.071162223815918 16.009296417236328 -1.923636555671692
-15.594277381896973 13.815321922302246 -1.9390932321548462
-17.19279670715332 12.919530868530273 -2.0016608238220215
-22.33365249633789 11.72158145904541 -2.347599983215332
-23.20443344116211 9.886474609375 -2.347599983215332
-26.5123233795166 4.308671951293945 -2.5
23.977567672729492 0.0 -2.5
15.635859489440918 1.2622655630111694 -1.635562539100647
16.076210021972656 2.6126365661621094 -1.6981616020202637
21.23111343383789 11.142949104309082 -2.5
12.79049301147461 18.530214309692383 -2.347599983215332
7.984257698059082 21.052743911743164 -2.347599983215332
6.26431131362915 21.626922607421875 -2.347599983215332
4.503745079040527 22.06087303161621 -2.347599983215332
-0.9066552519798279 22.49764633178711 -2.347599983215332
-4.503769397735596 22.060888290405273 -2.347599983215332
-6.264335632324219 21.626909255981445 -2.347599983215332
-7.98428201675415 21.05274772644043 -2.347599983215332
-9.652411460876465 20.342016220092773 -2.347599983215332
-13.071162223815918 16.009296417236328 -2.1548941135406494
-17.192792892456055 12.919530868530273 -2.242300271987915
-20.71415901184082 8.825458526611328 -2.347599983215332
-21.357177734375 7.130048751831055 -2.347599983215332
-23.89981460571289 1.9293651580810547 -2.5
15.602177619934082 1.2595410346984863 -1.8075907230377197
21.01982307434082 5.180927753448486 -2.5
20.534774780273438 6.85549783706665 -2.5
19.916542053222656 8.485634803771973 -2.5
19.169139862060547 10.060731887817383 -2.5
12.85707950592041 15.747079849243164 -2.347599983215332
11.548291206359863 16.7305850982666 -2.347599983215332
10.164589881896973 17.605575561523438 -2.347599983215332
8.714956283569336 18.366405487060547 -2.347599983215332
7.208803653717041 19.00810432434082 -2.347599983215332
5.655947208404541 19.526533126831055 -2.347599983215332
0.8185595273971558 20.31269073486328 -2.347599983215332
-7.208847522735596 19.008100509643555 -2.347599983215332
-10.1646089553833 17.605560302734375 -2.347599983215332
-12.8570556640625 15.747089385986328 -2.347599983215332
-14.082499504089355 14.66146469116211 -2.347599983215332
-15.216601371765137 13.480731964111328 -2.347599983215332
-16.252012252807617 12.212587356567383 -2.347599983215332
-18.000595092773438 9.44742202758789 -2.347599983215332
-18.702417373657227 7.968339443206787 -2.347599983215332
-21.578691482543945 1.741982340812683 -2.5
15.57729434967041 1.2575292587280273 -1.9804317951202393
16.050439834594727 2.608457088470459 -2.0606539249420166
19.154735565185547 4.721210956573486 -2.5
18.14934539794922 7.73269510269165 -2.5
15.657450675964355 9.901190757751465 -2.347599983215332
10.523622512817383 15.246073722839355 -2.347599983215332
9.262704849243164 16.043437957763672 -2.347599983215332
7.941713809967041 16.73674774169922 -2.347599983215332
2.232959032058716 18.390283584594727 -2.347599983215332
0.7459374666213989 18.510332107543945 -2.347599983215332
-0.7459374666213989 18.51033592224121 -2.347599983215332
-2.2330076694488525 18.39029312133789 -2.347599983215332
-6.569184303283691 17.321523666381836 -2.347599983215332
-12.832968711853027 13.360536575317383 -2.347599983215332
-13.866435050964355 12.28458023071289 -2.347599983215332
-14.809965133666992 11.1289644241333 -2.347599983215332
-15.657450675964355 9.901171684265137 -2.347599983215332
-17.04296875 7.261308193206787 -2.347599983215332
-19.101102828979492 4.707997798919678 -2.493001699447632
18.116064071655273 9.765624781721272e-06 -2.5
17.033212661743164 1.3750683069229126 -2.3582143783569336
17.589628219604492 4.33544921875 -2.5
17.183740615844727 5.736757755279541 -2.5
16.666406631469727 7.100878715515137 -2.5
14.378114700317383 9.092167854309082 -2.347599983215332
12.733437538146973 11.28084945678711 -2.347599983215332
11.784423828125 12.26888656616211 -2.347599983215332
9.663749694824219 14.000350952148438 -2.347599983215332
8.50576114654541 14.73256778717041 -2.347599983215332
7.292607307434082 15.369208335876465 -2.347599983215332
4.732968807220459 16.34004783630371 -2.347599983215332
3.4027490615844727 16.667890548706055 -2.347599983215332
2.0505175590515137 16.88765525817871 -2.347599983215332
-0.6849804520606995 16.997909545898438 -2.347599983215332
-2.050541877746582 16.887664794921875 -2.347599983215332
-3.402783155441284 16.667890548706055 -2.347599983215332
-6.032416820526123 15.906220436096191 -2.347599983215332
-11.784403800964355 12.268877029418945 -2.347599983215332
-15.063115119934082 7.905703067779541 -2.347599983215332
-15.65041446685791 6.667988300323486 -2.347599983215332
-18.057310104370117 1.4577147960662842 -2.5
16.743759155273438 -1.9531249563442543e-05 -2.5
16.689462661743164 1.3473047018051147 -2.5
16.526933670043945 2.6858885288238525 -2.5
13.288993835449219 8.403427124023438 -2.347599983215332
12.569686889648438 9.445497512817383 -2.347599983215332
11.768877029418945 10.426318168640137 -2.347599983215332
10.89174747467041 11.33951187133789 -2.347599983215332
7.861533164978027 13.616561889648438 -2.347599983215332
4.374320983886719 15.10228443145752 -2.347599983215332
-0.6331201195716858 15.710302352905273 -2.347599983215332
-3.145029306411743 15.405312538146973 -2.347599983215332
-8.931723594665527 12.939824104309082 -2.347599983215332
-9.943964958190918 12.179169654846191 -2.347599983215332
-11.768866539001465 10.426318168640137 -2.347599983215332
-12.569677352905273 9.445487976074219 -2.347599983215332
-14.464892387390137 6.162900447845459 -2.347599983215332
-14.913890838623047 4.978964805603027 -2.347599983215332
-16.2459659576416 4.004267692565918 -2.4982686042785645
-16.52692413330078 2.6858787536621094 -2.5
-16.689456939697266 1.3472949266433716 -2.5
15.359580039978027 2.496161937713623 -2.5
15.108915328979492 3.724003791809082 -2.5
11.681845664978027 8.778339385986328 -2.347599983215332
10.937606811523438 9.689863204956055 -2.347599983215332
10.122431755065918 10.538554191589355 -2.347599983215332
9.241591453552246 11.3189058303833 -2.347599983215332
8.300848960876465 12.025839805603027 -2.347599983215332
7.306249618530273 12.654794692993164 -2.347599983215332
1.7614697217941284 14.505956649780273 -2.347599983215332
0.58837890625 14.600634574890137 -2.347599983215332
-0.5884374976158142 14.600625038146973 -2.347599983215332
-1.7614257335662842 14.505937576293945 -2.347599983215332
-2.9230175018310547 14.317177772521973 -2.347599983215332
-4.065522193908691 14.03554630279541 -2.347599983215332
-7.306244850158691 12.65478515625 -2.347599983215332
-9.241596221923828 11.3189058303833 -2.347599983215332
-10.12240219116211 10.538554191589355 -2.347599983215332
-10.937597274780273 9.689863204956055 -2.347599983215332
-11.681840896606445 8.778339385986328 -2.347599983215332
-12.35033130645752 7.809853553771973 -2.347599983215332
-12.93871021270752 6.790741920471191 -2.347599983215332
-13.860468864440918 4.627295017242432 -2.347599983215332
14.483935356140137 1.1692577600479126 -2.5
14.342880249023438 2.330947160720825 -2.5
13.783231735229492 4.601513385772705 -2.5
12.08226490020752 6.341249942779541 -2.347599983215332
10.213603019714355 9.048466682434082 -2.347599983215332
9.452392578125 9.84097671508789 -2.347599983215332
8.629862785339355 10.569677352905273 -2.347599983215332
6.82262659072876 11.81712818145752 -2.347599983215332
5.849618911743164 12.327802658081055 -2.347599983215332
4.838681697845459 12.758524894714355 -2.347599983215332
0.5494384765625 13.634169578552246 -2.347599983215332
-3.796342611312866 13.1065034866333 -2.347599983215332
-6.82262659072876 11.81712818145752 -2.347599983215332
-7.751386642456055 11.229804039001465 -2.347599983215332
-8.629853248596191 10.569686889648438 -2.347599983215332
-10.213607788085938 9.04848575592041 -2.347599983215332
-11.532821655273438 7.292910099029541 -2.347599983215332
-12.08226490020752 6.341239929199219 -2.347599983215332
-12.55333423614502 5.348466873168945 -2.347599983215332
-12.943007469177246 4.320995807647705 -2.347599983215332
-14.342875480651855 2.330947160720825 -2.5
13.625673294067383 0.0 -2.5
13.449228286743164 2.1857128143310547 -2.5
13.229736328125 3.2608299255371094 -2.5
12.924452781677246 4.314814567565918 -2.5
10.814248085021973 6.838525295257568 -2.347599983215332
10.22891616821289 7.686513423919678 -2.347599983215332
9.57723617553711 8.484686851501465 -2.347599983215332
6.397529125213623 11.080829620361328 -2.347599983215332
5.485146522521973 11.559687614440918 -2.347599983215332
3.559819221496582 12.28988265991211 -2.347599983215332
2.5593504905700684 12.53646469116211 -2.347599983215332
1.542275309562683 12.701757431030273 -2.347599983215332
0.5152050852775574 12.78466796875 -2.347599983215332
-0.515209972858429 12.784687042236328 -2.347599983215332
-1.542275309562683 12.701757431030273 -2.347599983215332
-3.559814453125 12.289873123168945 -2.347599983215332
-4.537182331085205 11.963583946228027 -2.347599983215332
-7.268363952636719 10.53011703491211 -2.347599983215332
-8.86343765258789 9.227822303771973 -2.347599983215332
-9.577226638793945 8.484686851501465 -2.347599983215332
-10.228910446166992 7.6865234375 -2.347599983215332
-13.229736328125 3.2608299255371094 -2.5
-13.44921875 2.1857030391693115 -2.5
12.823456764221191 9.765624781721272e-06 -2.5
12.781865119934082 1.0318652391433716 -2.5
12.45082950592041 3.068857431411743 -2.5
12.163505554199219 4.060781002044678 -2.5
11.078144073486328 4.719931602478027 -2.347599983215332
10.662431716918945 5.596074104309082 -2.347599983215332
9.626679420471191 7.233974456787109 -2.347599983215332
9.013368606567383 7.985146522521973 -2.347599983215332
8.341601371765137 8.684511184692383 -2.347599983215332
7.615742206573486 9.327577590942383 -2.347599983215332
6.840497970581055 9.91015625 -2.347599983215332
5.162197113037109 10.879101753234863 -2.347599983215332
4.270058631896973 11.259208679199219 -2.347599983215332
3.350229501724243 11.566288948059082 -2.347599983215332
2.4086668491363525 11.798368453979492 -2.347599983215332
1.4514696598052979 11.953925132751465 -2.347599983215332
-0.4848730266094208 12.03197193145752 -2.347599983215332
-1.4514745473861694 11.953925132751465 -2.347599983215332
-2.4086620807647705 11.798368453979492 -2.347599983215332
-3.350224494934082 11.566298484802246 -2.347599983215332
-8.341596603393555 8.684531211853027 -2.347599983215332
-9.626669883728027 7.233974456787109 -2.347599983215332
-10.1775484085083 6.435888290405273 -2.347599983215332
-10.662426948547363 5.596074104309082 -2.347599983215332
-11.07814884185791 4.719941139221191 -2.347599983215332
-12.781865119934082 1.0318456888198853 -2.5
12.10750961303711 0.0 -2.5
12.068251609802246 0.9742480516433716 -2.5
11.484414100646973 3.834062337875366 -2.5
10.459648132324219 4.456435680389404 -2.347599983215332
10.067138671875 5.283632755279541 -2.347599983215332
8.510146141052246 7.53933572769165 -2.347599983215332
7.875888347625732 8.199667930603027 -2.347599983215332
6.458583831787109 9.356864929199219 -2.347599983215332
4.874003887176514 10.271738052368164 -2.347599983215332
4.031660079956055 10.630605697631836 -2.347599983215332
3.1631834506988525 10.920546531677246 -2.347599983215332
1.370449185371399 11.286552429199219 -2.347599983215332
0.45780760049819946 11.360214233398438 -2.347599983215332
-4.031650066375732 10.630615234375 -2.347599983215332
-5.684716701507568 9.846230506896973 -2.347599983215332
-6.458574295043945 9.356855392456055 -2.347599983215332
-7.190541744232178 8.806825637817383 -2.347599983215332
-8.510146141052246 7.539326190948486 -2.347599983215332
-9.089208602905273 6.83010721206665 -2.347599983215332
-9.609335899353027 6.076581954956055 -2.347599983215332
-10.067143440246582 5.283622741699219 -2.347599983215332
-10.4596529006958 4.456445217132568 -2.347599983215332
-11.481650352478027 3.833124876022339 -2.499396562576294
-11.95071792602539 1.9421874284744263 -2.5
-12.068251609802246 0.9742480516433716 -2.5
11.427343368530273 0.9225097298622131 -2.5
11.316054344177246 1.8390331268310547 -2.5
9.532509803771973 5.003027439117432 -2.347599983215332
9.099013328552246 5.753867149353027 -2.347599983215332
7.457616806030273 7.764199256896973 -2.347599983215332
6.115576267242432 8.859941482543945 -2.347599983215332
5.382832050323486 9.323320388793945 -2.347599983215332
3.8175487518310547 10.066044807434082 -2.347599983215332
2.9952049255371094 10.340595245361328 -2.347599983215332
2.1534178256988525 10.548066139221191 -2.347599983215332
1.2976561784744263 10.68715763092041 -2.347599983215332
0.43349120020866394 10.756903648376465 -2.347599983215332
-0.43348631262779236 10.756903648376465 -2.347599983215332
-2.995190382003784 10.340595245361328 -2.347599983215332
-4.615146160125732 9.72622013092041 -2.347599983215332
-5.382822036743164 9.323309898376465 -2.347599983215332
-6.115585803985596 8.85995101928711 -2.347599983215332
-6.808671951293945 8.339120864868164 -2.347599983215332
-8.606518745422363 6.467382431030273 -2.347599983215332
-10.028203010559082 4.272616863250732 -2.377000093460083
-11.131376266479492 2.7436230182647705 -2.5
-11.316054344177246 1.8390429019927979 -2.5
10.88370132446289 -9.765624781721272e-06 -2.5
10.848407745361328 0.875781238079071 -2.5
10.742773056030273 1.7458691596984863 -2.5
9.982851028442383 4.253291130065918 -2.4925262928009033
8.638036727905273 5.462363243103027 -2.347599983215332
8.170488357543945 6.139716625213623 -2.347599983215332
7.079804420471191 7.370849609375 -2.347599983215332
5.805761814117432 8.411073684692383 -2.347599983215332
5.110116958618164 8.85098648071289 -2.347599983215332
4.381337642669678 9.233476638793945 -2.347599983215332
2.843456983566284 9.816718101501465 -2.347599983215332
2.044316291809082 10.013681411743164 -2.347599983215332
1.2319189310073853 10.145712852478027 -2.347599983215332
0.4115380644798279 10.211942672729492 -2.347599983215332
-0.4115332067012787 10.211953163146973 -2.347599983215332
-3.624140501022339 9.556093215942383 -2.347599983215332
-5.805756568908691 8.411073684692383 -2.347599983215332
-7.079794883728027 7.370849609375 -2.347599983215332
-7.649946212768555 6.777265548706055 -2.347599983215332
-8.170483589172363 6.139716625213623 -2.347599983215332
-8.638031959533691 5.462363243103027 -2.347599983215332
-10.567445755004883 2.604628801345825 -2.5
-10.74276351928711 1.74587881565094 -2.5
10.35635757446289 0.0 -2.5
10.322772979736328 0.8333398103713989 -2.5
10.222246170043945 1.6612792015075684 -2.5
7.279286861419678 6.448905944824219 -2.347599983215332
5.524453163146973 8.003535270690918 -2.347599983215332
4.862519264221191 8.422119140625 -2.347599983215332
4.169043064117432 8.786084175109863 -2.347599983215332
3.44854474067688 9.093056678771973 -2.347599983215332
1.9452636241912842 9.528486251831055 -2.347599983215332
0.39158201217651367 9.717147827148438 -2.347599983215332
-1.1722265481948853 9.654120445251465 -2.347599983215332
-4.169043064117432 8.786073684692383 -2.347599983215332
-4.862519264221191 8.422128677368164 -2.347599983215332
-6.150546550750732 7.533056259155273 -2.347599983215332
-7.279286861419678 6.448896408081055 -2.347599983215332
-7.774604320526123 5.842236042022705 -2.347599983215332
-8.219491958618164 5.197714805603027 -2.347599983215332
-8.611093521118164 4.519433498382568 -2.347599983215332
-9.511308670043945 4.052402019500732 -2.495718240737915
-10.322772979736328 0.8333398103713989 -2.5
9.8753023147583 9.765624781721272e-06 -2.5
9.367079734802246 3.1271777153015137 -2.5
9.07802677154541 3.8677732944488525 -2.498058319091797
8.211103439331055 4.309521198272705 -2.347599983215332
7.413476467132568 5.570868968963623 -2.347599983215332
6.941162109375 6.149325847625732 -2.347599983215332
6.423847675323486 6.687929630279541 -2.347599983215332
5.864853382110596 7.183144569396973 -2.347599983215332
4.636660099029541 8.03091812133789 -2.347599983215332
2.580009698867798 8.907167434692383 -2.347599983215332
1.1177783012390137 9.205702781677246 -2.347599983215332
0.37339842319488525 9.26578140258789 -2.347599983215332
-0.37339842319488525 9.26578140258789 -2.347599983215332
-2.5799999237060547 8.907167434692383 -2.347599983215332
-3.9753904342651367 8.377968788146973 -2.347599983215332
-4.636650085449219 8.030927658081055 -2.347599983215332
-5.267836570739746 7.631786823272705 -2.347599983215332
-5.864848613739014 7.183144569396973 -2.347599983215332
-6.941166877746582 6.149335861206055 -2.347599983215332
-7.413476467132568 5.570859432220459 -2.347599983215332
-7.837705135345459 4.956249713897705 -2.347599983215332
-8.211098670959473 4.309521198272705 -2.347599983215332
-9.08071231842041 3.8689258098602295 -2.4988009929656982
-9.58834457397461 2.3633203506469727 -2.5
-9.843271255493164 0.7946386337280273 -2.5
9.434598922729492 -9.765624781721272e-06 -2.5
9.404004096984863 0.75916987657547 -2.5
9.312421798706055 1.5133984088897705 -2.5
8.679648399353027 3.6980369091033936 -2.5
7.846591472625732 4.118203163146973 -2.3481690883636475
7.487929344177246 4.735077857971191 -2.347599983215332
7.082646369934082 5.322246074676514 -2.347599983215332
5.603134632110596 6.862587928771973 -2.347599983215332
5.03274393081665 7.291191101074219 -2.347599983215332
4.429736137390137 7.672529220581055 -2.347599983215332
3.797988176345825 8.004081726074219 -2.347599983215332
3.141611337661743 8.283759117126465 -2.347599983215332
1.0679004192352295 8.794873237609863 -2.347599983215332
-1.7721190452575684 8.680429458618164 -2.347599983215332
-2.4648633003234863 8.509687423706055 -2.347599983215332
-3.141606330871582 8.2837495803833 -2.347599983215332
-3.797978401184082 8.004091262817383 -2.347599983215332
-4.429731369018555 7.672519207000732 -2.347599983215332
-5.032753944396973 7.291210651397705 -2.347599983215332
-5.603125095367432 6.862597465515137 -2.347599983215332
-7.487934589385986 4.735077857971191 -2.347599983215332
-8.679643630981445 3.6980466842651367 -2.5
-8.94906234741211 2.9876365661621094 -2.5
-9.312421798706055 1.5134179592132568 -2.5
-9.404013633728027 0.7591601610183716 -2.5
8.912353515625 1.4483983516693115 -2.5
8.56459903717041 2.8592870235443115 -2.5
8.18359375 3.486699104309082 -2.4629316329956055
7.509472370147705 3.941288948059082 -2.3481690883636475
7.166249752044678 4.531660079956055 -2.347599983215332
6.346513748168945 5.622519493103027 -2.347599983215332
5.873505592346191 6.114951133728027 -2.347599983215332
3.00665020942688 7.927870750427246 -2.347599983215332
2.3589744567871094 8.144082069396973 -2.347599983215332
1.0220214128494263 8.417040824890137 -2.347599983215332
-0.3414062559604645 8.4719820022583 -2.347599983215332
-1.0220165252685547 8.417040824890137 -2.347599983215332
-1.6959960460662842 8.307499885559082 -2.347599983215332
-2.358964681625366 8.144091606140137 -2.347599983215332
-3.006640672683716 7.927880764007568 -2.347599983215332
-5.362411975860596 6.567773342132568 -2.347599983215332
-6.346508502960205 5.622529029846191 -2.347599983215332
-8.306757926940918 3.539179563522339 -2.5
-8.564594268798828 2.8592870235443115 -2.5
-8.912343978881836 1.4484081268310547 -2.5
8.627089500427246 0.6964452862739563 -2.5
8.543075561523438 1.3883886337280273 -2.5
8.209735870361328 2.7408201694488525 -2.5
7.198329925537109 3.7779881954193115 -2.3481690883636475
6.083544731140137 5.389560222625732 -2.347599983215332
5.140224456787109 6.295634746551514 -2.347599983215332
1.6257226467132568 7.963281154632568 -2.347599983215332
0.9796679615974426 8.06827163696289 -2.347599983215332
0.3272656202316284 8.120946884155273 -2.347599983215332
-0.9796679615974426 8.06827163696289 -2.347599983215332
-2.261225461959839 7.806650161743164 -2.347599983215332
-2.8820555210113525 7.599374771118164 -2.347599983215332
-3.484208822250366 7.342841625213623 -2.347599983215332
-4.616962909698486 6.68883752822876 -2.347599983215332
-5.140219688415527 6.295624732971191 -2.347599983215332
-5.630136489868164 5.86160135269165 -2.347599983215332
-6.083544731140137 5.389560222625732 -2.347599983215332
-6.497499942779541 4.882548809051514 -2.347599983215332
-7.652099609375 4.016122817993164 -2.4961979389190674
8.30868148803711 0.0 -2.5
8.28173828125 0.6685839891433716 -2.5
8.20108413696289 1.332802653312683 -2.5
7.092617034912109 3.7224998474121094 -2.4101693630218506
6.629735946655273 4.192392349243164 -2.3602044582366943
5.840019226074219 5.173808574676514 -2.347599983215332
5.404765605926514 5.626962661743164 -2.347599983215332
3.344736337661743 7.048876762390137 -2.347599983215332
2.170712947845459 7.494150161743164 -2.347599983215332
1.560644507408142 7.644492149353027 -2.347599983215332
0.9404589533805847 7.745292663574219 -2.347599983215332
0.31416991353034973 7.795849323272705 -2.347599983215332
-1.5606396198272705 7.644501686096191 -2.347599983215332
-2.170703172683716 7.494160175323486 -2.347599983215332
-2.766679525375366 7.295175552368164 -2.347599983215332
-3.3447265625 7.048886775970459 -2.347599983215332
-3.9010887145996094 6.756894588470459 -2.347599983215332
-4.9344482421875 6.043612957000732 -2.347599983215332
-5.404755592346191 5.626943111419678 -2.347599983215332
-6.029335975646973 4.530751705169678 -2.2692856788635254
-6.723535060882568 4.251698970794678 -2.393596649169922
-7.353476524353027 3.8593945503234863 -2.4988107681274414
-7.643818378448486 3.256718635559082 -2.5
-7.881083965301514 2.631093740463257 -2.5
-8.067235946655273 1.9883984327316284 -2.5
-8.281728744506836 0.6685742139816284 -2.5
7.960917949676514 0.6426757574081421 -2.5
7.575790882110596 2.5291600227355957 -2.5
6.492528915405273 4.105634689331055 -2.404503345489502
5.613789081573486 4.973378658294678 -2.347599983215332
5.195390701293945 5.40896463394165 -2.347599983215332
3.7499706745147705 6.495136737823486 -2.347599983215332
3.215165853500366 6.775829792022705 -2.347599983215332
2.6595213413238525 7.01256799697876 -2.347599983215332
0.302001953125 7.493866920471191 -2.347599983215332
-1.5001806020736694 7.348369121551514 -2.347599983215332
-2.6595067977905273 7.01256799697876 -2.347599983215332
-3.215161085128784 6.775829792022705 -2.347599983215332
-4.260454177856445 6.172333717346191 -2.347599983215332
-5.195380687713623 5.408974647521973 -2.347599983215332
-5.613779067993164 4.973359107971191 -2.347599983215332
-5.995771408081055 4.505527019500732 -2.347599983215332
-6.697729110717773 4.235390663146973 -2.480503559112549
-7.883388519287109 1.2811717987060547 -2.5
7.686962604522705 0.0 -2.5
7.587421894073486 1.2330663204193115 -2.5
6.759316444396973 3.5475683212280273 -2.4826767444610596
5.770673751831055 4.336367130279541 -2.347599983215332
5.403027057647705 4.786669731140137 -2.347599983215332
4.56521463394165 5.591396331787109 -2.347599983215332
3.0944628715515137 6.521435260772705 -2.347599983215332
2.5596776008605957 6.749287128448486 -2.347599983215332
2.008291006088257 6.93337869644165 -2.347599983215332
1.4438672065734863 7.072480201721191 -2.347599983215332
0.29066404700279236 7.212509632110596 -2.347599983215332
-0.2906543016433716 7.212509632110596 -2.347599983215332
-0.8700780868530273 7.165741920471191 -2.347599983215332
-2.0082714557647705 6.933369159698486 -2.347599983215332
-3.0944530963897705 6.521445274353027 -2.347599983215332
-3.60918927192688 6.251279354095459 -2.347599983215332
-4.565219402313232 5.591376781463623 -2.347599983215332
-5.000331878662109 5.205908298492432 -2.347599983215332
-5.403027057647705 4.786669731140137 -2.347599983215332
-6.48293924331665 4.099560260772705 -2.49461030960083
-6.806474685668945 3.5723142623901367 -2.5
-7.071855545043945 3.0130369663238525 -2.5
-7.463588714599609 1.839599609375 -2.5
7.406865119934082 0.0 -2.5
6.133632659912109 3.8786914348602295 -2.4494473934173584
4.81814432144165 5.016211032867432 -2.347599983215332
3.9510936737060547 5.724140644073486 -2.347599983215332
2.9817090034484863 6.283818244934082 -2.347599983215332
0.28006836771965027 6.949716567993164 -2.347599983215332
-0.28006836771965027 6.949697017669678 -2.347599983215332
-0.83837890625 6.904628753662109 -2.347599983215332
-2.4663963317871094 6.503368854522705 -2.347599983215332
-3.477675676345825 6.023515701293945 -2.347599983215332
-4.818139553070068 5.016211032867432 -2.347599983215332
-6.252797603607178 3.9540233612060547 -2.4970364570617676
-6.814165115356445 2.9032421112060547 -2.5
-7.025683403015137 2.345527410507202 -2.5
-7.191640377044678 1.7725781202316284 -2.5
-7.382861137390137 0.5960156321525574 -2.5
7.144599437713623 -9.765624781721272e-06 -2.5
7.052080154418945 1.1460741758346558 -2.5
6.776914119720459 2.262460947036743 -2.5
5.483876705169678 4.120859146118164 -2.4002835750579834
4.647529125213623 4.838583946228027 -2.347599983215332
4.243114948272705 5.196875095367432 -2.347599983215332
3.8111815452575684 5.521445274353027 -2.347599983215332
2.3790624141693115 6.27306604385376 -2.347599983215332
1.3419921398162842 6.573486328125 -2.347599983215332
-0.2701464891433716 6.703622817993164 -2.347599983215332
-0.8086913824081421 6.660146236419678 -2.347599983215332
-1.3419921398162842 6.573476314544678 -2.347599983215332
-2.3790674209594727 6.273076057434082 -2.347599983215332
-2.8761229515075684 6.061298847198486 -2.347599983215332
-5.626288890838623 4.227870941162109 -2.4626197814941406
-6.036874771118164 3.8174901008605957 -2.49931263923645
-6.326230525970459 3.320253849029541 -2.5
-6.572880744934082 2.800429582595825 -2.5
-6.776899337768555 2.262460947036743 -2.5
6.898407936096191 -9.765624781721272e-06 -2.5
6.80908203125 1.106591820716858 -2.5
6.697958946228027 1.6508886814117432 -2.5
6.543398380279541 2.184511661529541 -2.5
6.346396446228027 2.703935384750366 -2.5
6.107392311096191 3.2054295539855957 -2.4996511936187744
5.778662204742432 3.6542088985443115 -2.4777820110321045
5.362519264221191 4.029667854309082 -2.43092679977417
4.848769187927246 4.295644283294678 -2.347599983215332
4.487392425537109 4.671864986419678 -2.347599983215332
4.096913814544678 5.017802715301514 -2.347599983215332
3.238945245742798 5.610009670257568 -2.347599983215332
2.2970898151397705 6.056933403015137 -2.347599983215332
1.8022656440734863 6.222118854522705 -2.347599983215332
0.7808203101158142 6.430644512176514 -2.347599983215332
0.2608398497104645 6.472626686096191 -2.347599983215332
-0.2608398497104645 6.472636699676514 -2.347599983215332
-0.7808300852775574 6.430654048919678 -2.347599983215332
-2.7770166397094727 5.852441310882568 -2.347599983215332
-3.2389354705810547 5.610009670257568 -2.347599983215332
-3.679863214492798 5.331181526184082 -2.347599983215332
-4.096904277801514 5.017802715301514 -2.347599983215332
-5.5013427734375 4.133984088897705 -2.4938604831695557
-5.830468654632568 3.686962842941284 -2.5
-6.543388366699219 2.184511661529541 -2.5
-6.697958946228027 1.6508984565734863 -2.5
-6.876035213470459 0.5550976395606995 -2.5
6.645224571228027 0.5364550948143005 -2.5
6.473114967346191 1.59548819065094 -2.5
6.133368968963623 2.6131834983825684 -2.5
5.90319299697876 3.0982322692871094 -2.5
4.336757659912109 4.515038967132568 -2.347599983215332
3.556328058242798 5.152235984802246 -2.347599983215332
3.1302146911621094 5.421689510345459 -2.347599983215332
2.219980478286743 5.853613376617432 -2.347599983215332
1.2522557973861694 6.133915901184082 -2.347599983215332
-0.25208982825279236 6.255341529846191 -2.347599983215332
-1.2522460222244263 6.13390588760376 -2.347599983215332
-2.6837987899780273 5.655995845794678 -2.347599983215332
-3.556328058242798 5.152235984802246 -2.347599983215332
-4.336748123168945 4.515038967132568 -2.347599983215332
-4.77932596206665 4.234120845794678 -2.394360065460205
-5.90319299697876 3.0982420444488525 -2.5
-6.133359432220459 2.613173723220825 -2.5
-6.323744773864746 2.1111814975738525 -2.5
-6.473114967346191 1.5954785346984863 -2.5
-6.580507755279541 1.0694531202316284 -2.5
6.365058422088623 1.034423828125 -2.5
6.11669921875 2.042060613632202 -2.5
5.932548522949219 2.5276172161102295 -2.5
4.194746017456055 4.367207050323486 -2.347599983215332
2.147294759750366 5.661952972412109 -2.347599983215332
1.2112499475479126 5.933085918426514 -2.347599983215332
-0.7299121022224426 6.011308670043945 -2.347599983215332
-1.6847362518310547 5.816386699676514 -2.347599983215332
-2.147294759750366 5.661952972412109 -2.347599983215332
-3.8297362327575684 4.690585613250732 -2.347599983215332
-5.450263500213623 3.446542978286743 -2.5
-6.116689205169678 2.042060613632202 -2.5
-6.261181354522705 1.543251872062683 -2.5
-6.365058422088623 1.0344336032867432 -2.5
-6.427656173706055 0.5188964605331421 -2.5
6.222177505493164 0.5023046731948853 -2.5
6.161581993103027 1.001367211341858 -2.5
5.921162128448486 1.9767577648162842 -2.5
5.527392387390137 2.900995969772339 -2.5
5.263203144073486 3.328242063522339 -2.493917226791382
4.934863090515137 3.7082908153533936 -2.472140073776245
4.54541015625 4.026894569396973 -2.4319891929626465
4.063339710235596 4.230370998382568 -2.34914231300354
3.7073240280151367 4.540634632110596 -2.347599983215332
2.9309375286102295 5.076542854309082 -2.347599983215332
2.078662157058716 5.480947017669678 -2.347599983215332
1.6308789253234863 5.630449295043945 -2.347599983215332
1.1725389957427979 5.743417739868164 -2.347599983215332
-1.1725292205810547 5.743408203125 -2.347599983215332
-2.512949228286743 5.295917987823486 -2.347599983215332
-3.7073094844818115 4.540644645690918 -2.347599983215332
-4.990458965301514 3.7500975131988525 -2.5
-5.921162128448486 1.9767773151397705 -2.5
-6.061025142669678 1.4939160346984863 -2.5
6.047372817993164 0.0 -2.5
6.027773380279541 0.4866113066673279 -2.5
5.871650218963623 1.4472265243530273 -2.5
5.563457012176514 2.370371103286743 -2.5
5.354697227478027 2.810351610183716 -2.5
5.108642578125 3.2305173873901367 -2.49875545501709
3.996699094772339 4.161005973815918 -2.38513445854187
3.591484308242798 4.398769378662109 -2.347599983215332
2.839365243911743 4.917910099029541 -2.347599983215332
2.4344334602355957 5.130449295043945 -2.347599983215332
1.579931616783142 5.454531192779541 -2.347599983215332
1.135898470878601 5.56396484375 -2.347599983215332
0.6845019459724426 5.637333869934082 -2.347599983215332
0.22866210341453552 5.674120903015137 -2.347599983215332
-0.22866210341453552 5.674120903015137 -2.347599983215332
-1.135898470878601 5.563974380493164 -2.347599983215332
-1.56472647190094 5.402040958404541 -2.325016975402832
-2.0137012004852295 5.309706687927246 -2.347599983215332
-2.4344334602355957 5.130449295043945 -2.347599983215332
-3.22588849067688 4.673505783081055 -2.347599983215332
-3.591484308242798 4.398759841918945 -2.347599983215332
-4.519179821014404 4.003652095794678 -2.495945453643799
-5.111181735992432 3.232119083404541 -2.5
-5.354687213897705 2.810351610183716 -2.5
-5.563466548919678 2.370371103286743 -2.5
-5.736152172088623 1.9149999618530273 -2.5
-5.871650218963623 1.4472460746765137 -2.5
-5.969052791595459 0.9700585603713989 -2.5
5.862529277801514 0.0 -2.5
5.786611080169678 0.9404199123382568 -2.5
5.560810565948486 1.8564647436141968 -2.5
4.954941272735596 3.1333203315734863 -2.5
4.31472635269165 3.822519540786743 -2.4581618309020996
3.9310057163238525 4.092607498168945 -2.4199042320251465
3.4817090034484863 4.264297008514404 -2.347599983215332
3.127275228500366 4.530644416809082 -2.347599983215332
2.752578020095825 4.767597675323486 -2.347599983215332
1.9521484375 5.147392272949219 -2.347599983215332
-0.6635644435882568 5.464999675750732 -2.347599983215332
-2.752558469772339 4.767587661743164 -2.347599983215332
-3.127275228500366 4.530634880065918 -2.347599983215332
-3.481689453125 4.264316082000732 -2.347599983215332
-4.044677734375 4.210957050323486 -2.4898881912231445
-4.384555339813232 3.884394407272339 -2.4979500770568848
-4.686748027801514 3.521865129470825 -2.5
-4.954941272735596 3.1333203315734863 -2.5
-5.191005706787109 2.7244529724121094 -2.5
-5.393398284912109 2.297910213470459 -2.5
-5.69216775894165 1.4029881954193115 -2.5
-5.786601543426514 0.9404101371765137 -2.5
5.687021255493164 0.0 -2.5
5.668583869934082 0.4576171636581421 -2.5
5.613379001617432 0.91224604845047 -2.5
5.231953144073486 2.229120969772339 -2.5
4.529150485992432 3.403437376022339 -2.490480661392212
3.416933536529541 4.184980392456055 -2.37502121925354
3.0336620807647705 4.39501953125 -2.347599983215332
1.068212866783142 5.232411861419678 -2.347599983215332
-0.2150292992591858 5.336015701293945 -2.347599983215332
-0.6437011361122131 5.301415920257568 -2.347599983215332
-1.068212866783142 5.232411861419678 -2.347599983215332
-1.485781192779541 5.129492282867432 -2.347599983215332
-1.8937108516693115 4.993310451507568 -2.347599983215332
-2.289365291595459 4.82473611831665 -2.347599983215332
-3.0336620807647705 4.395009517669678 -2.347599983215332
-4.546445369720459 3.4164257049560547 -2.5
-5.035605430603027 2.642890453338623 -2.5
-5.231943130493164 2.229120969772339 -2.5
-5.521767616271973 1.3609960079193115 -2.5
5.520165920257568 0.0 -2.5
5.448681354522705 0.885498046875 -2.5
5.236073970794678 1.7480566501617432 -2.5
5.078437328338623 2.1637206077575684 -2.5
4.665585994720459 2.9503417015075684 -2.5
4.098027229309082 3.6305272579193115 -2.4795024394989014
3.7457127571105957 3.8996970653533936 -2.4488463401794434
3.36328125 4.119277477264404 -2.408395290374756
2.944648265838623 4.266054630279541 -2.347599983215332
2.5918262004852295 4.489160060882568 -2.347599983215332
1.8381541967391968 4.846796989440918 -2.347599983215332
1.4421874284744263 4.978993892669678 -2.347599983215332
1.036865234375 5.07888650894165 -2.347599983215332
0.20872069895267487 5.179443359375 -2.347599983215332
-0.20873045921325684 5.179462909698486 -2.347599983215332
-1.8381445407867432 4.846796989440918 -2.347599983215332
-2.2221875190734863 4.683173656463623 -2.347599983215332
-2.944648265838623 4.266054630279541 -2.347599983215332
-4.131894588470459 3.6605565547943115 -2.5
-4.665585994720459 2.950322151184082 -2.5
-4.887861251831055 2.5653417110443115 -2.5
-5.078437328338623 2.1637206077575684 -2.5
-5.502265453338623 0.4441894292831421 -2.5
4.932265281677246 2.1014256477355957 -2.5
4.531298637390137 2.865410089492798 -2.5
4.285243988037109 3.2201366424560547 -2.499537944793701
3.9878125190734863 3.532900333404541 -2.484321355819702
2.8923046588897705 4.190205097198486 -2.3741908073425293
1.785244107246399 4.707294940948486 -2.347599983215332
1.400673747062683 4.835683345794678 -2.347599983215332
1.0070116519927979 4.932704925537109 -2.347599983215332
0.2027246057987213 5.030361175537109 -2.347599983215332
-0.6068359017372131 4.997734069824219 -2.347599983215332
-1.7852343320846558 4.707284927368164 -2.347599983215332
-2.1582324504852295 4.548378944396973 -2.347599983215332
-3.3818359375 4.142001628875732 -2.493457317352295
-4.012959003448486 3.5551953315734863 -2.5
-4.531289100646973 2.865419864654541 -2.5
-4.932255744934082 2.1014256477355957 -2.5
-5.343886375427246 0.431396484375 -2.5
