ply
format ascii 1.0
element vertex 742
property float x
property float y
property float z
end_header
-2.098876953125 -10.2809419631958 2.8115904331207275
4.9356369972229 -17.03980827331543 4.12672233581543
-15.074979782104492 -4.882812390860636e-06 2.8091044425964355
-15.085707664489746 -2.451674699783325 2.8479838371276855
4.91796875 -16.978788375854492 3.091636896133423
4.904164791107178 -16.931142807006836 2.283400774002075
4.900754451751709 -16.91936492919922 2.0836164951324463
4.897356033325195 -16.907630920410156 1.8846276998519897
4.893969535827637 -16.895946502685547 1.6863884925842285
4.890597820281982 -16.884296417236328 1.4888436794281006
4.88723611831665 -16.872690200805664 1.291939616203308
-4.688163757324219 -22.964155197143555 1.2022796869277954
4.877206802368164 -16.838071823120117 0.7045699954032898
14.398900985717773 -24.939613342285156 1.1574352979660034
4.863935470581055 -16.792245864868164 -0.07265166938304901
25.368846893310547 -6.252875804901123 -0.10857787728309631
4.860632419586182 -16.780834197998047 -0.26622024178504944
25.062963485717773 -6.17748498916626 -0.3933418095111847
21.8995304107666 -7.311147212982178 -0.6077714562416077
23.275375366210938 -9.916704177856445 -0.9466531276702881
21.643678665161133 -7.225727558135986 -0.8537864685058594
24.6442813873291 -6.074286937713623 -0.9497225880622864
4.850727558135986 -16.74666404724121 -0.8459365367889404
17.6468505859375 -15.633749961853027 -1.4059127569198608
22.06694793701172 -9.401835441589355 -1.430385708808899
20.86445426940918 -6.965580940246582 -1.3117223978042603
-11.787240982055664 -20.416118621826172 -1.6681787967681885
4.844135761260986 -16.723905563354492 -1.2320613861083984
11.741056442260742 -20.336162567138672 -1.6616448163986206
20.677257537841797 -10.852255821228027 -1.6524401903152466
20.62411117553711 -6.885341644287109 -1.5385842323303223
-24.22429656982422 -15.318520545959473 -2.347599983215332
-21.453310012817383 -19.00599479675293 -2.347599983215332
-19.85440444946289 -20.67061996459961 -2.347599983215332
-18.166698455810547 -22.25019073486328 -2.3527746200561523
-12.39059066772461 -26.112661361694336 -2.367414951324463
-5.917553424835205 -20.42976951599121 -1.7421504259109497
-5.802558422088623 -28.422807693481445 -2.376081943511963
-3.498842716217041 -28.815542221069336 -2.377565860748291
-0.8187499642372131 -20.3172550201416 -1.6655007600784302
4.840839862823486 -16.712514877319336 -1.4251612424850464
10.264055252075195 -27.064096450805664 -2.3708388805389404
12.389589309692383 -26.110530853271484 -2.3672218322753906
16.354562759399414 -23.693681716918945 -2.35813570022583
18.166229248046875 -22.24959373474121 -2.3527159690856934
19.85439109802246 -20.670639038085938 -2.347599983215332
20.46163558959961 -15.375922203063965 -2.096431255340576
20.474166870117188 -10.745668411254883 -1.893942952156067
20.539703369140625 -6.857162952423096 -1.773648977279663
-26.86016082763672 0.0 -2.5
-25.477846145629883 -8.505756378173828 -2.5
-22.687089920043945 -14.34645938873291 -2.4983654022216797
-20.16415023803711 -15.152387619018555 -2.347599983215332
-17.47242546081543 -18.190717697143555 -2.347599983215332
-15.952011108398438 -19.53768539428711 -2.347599983215332
-10.990175247192383 -15.922025680541992 -1.800689697265625
-10.847216606140137 -22.860076904296875 -2.355074644088745
-8.984564781188965 -23.69034194946289 -2.3582167625427246
-5.957133769989014 -20.566396713256836 -1.9928944110870361
-5.077578067779541 -24.87159538269043 -2.362663507461548
-3.061450242996216 -25.213285446166992 -2.363954544067383
-0.8234912157058716 -20.434823989868164 -1.9035073518753052
3.0613818168640137 -25.212718963623047 -2.363901376724243
5.077475547790527 -24.871078491210938 -2.362614631652832
8.984296798706055 -23.689666748046875 -2.3581480979919434
10.84701156616211 -22.859609603881836 -2.3550262451171875
14.328164100646973 -20.757919311523438 -2.347599983215332
15.95201587677002 -19.53767967224121 -2.347599983215332
17.4724063873291 -18.19072151184082 -2.347599983215332
22.687084197998047 -14.346464157104492 -2.4983651638031006
20.420820236206055 -10.717670440673828 -2.1465330123901367
22.373592376708984 -9.532489776611328 -2.2635440826416016
-23.97759246826172 0.0 -2.5
-23.667070388793945 -3.8462841510772705 -2.5
-23.28081512451172 -5.738232135772705 -2.5
-21.2310791015625 -11.142929077148438 -2.5
-20.265605926513672 -12.81520938873291 -2.5
-19.15042495727539 -14.390609741210938 -2.497617244720459
-16.853384017944336 -14.930805206298828 -2.347599983215332
-14.240057945251465 -17.44093132019043 -2.347599983215332
-10.990180015563965 -15.922025680541992 -2.017169237136841
-9.372743606567383 -16.234081268310547 -1.9544854164123535
-9.652387619018555 -20.34200668334961 -2.347599983215332
-6.272065162658691 -21.6536808013916 -2.3505043983459473
-2.720634698867798 -22.406463623046875 -2.353348970413208
4.512575626373291 -22.104013442993164 -2.352191686630249
4.834238052368164 -16.689735412597656 -1.811668038368225
6.068017482757568 -16.000028610229492 -1.7841683626174927
14.240065574645996 -17.440927505493164 -2.347599983215332
20.26559829711914 -12.815195083618164 -2.5
21.23108673095703 -11.142929077148438 -2.5
23.89981460571289 -1.9293993711471558 -2.5
-21.648900985717773 0.0 -2.5
-19.91653823852539 -8.485644340515137 -2.5
-19.169145584106445 -10.060751914978027 -2.5
-17.30705451965332 -13.005410194396973 -2.5
-16.193828582763672 -14.346488952636719 -2.4983649253845215
-10.912646293640137 -15.809701919555664 -2.218385696411133
-9.372743606567383 -16.234086990356445 -2.164719820022583
-8.714961051940918 -18.36641502380371 -2.347599983215332
-7.208827972412109 -19.00810432434082 -2.347599983215332
-5.655942440032959 -19.52653694152832 -2.347599983215332
4.610583305358887 -15.917552947998047 -1.9137049913406372
12.85708999633789 -15.747089385986328 -2.347599983215332
14.143088340759277 -14.724526405334473 -2.357698917388916
18.297428131103516 -11.570600509643555 -2.5
20.53476333618164 -6.855517387390137 -2.5
21.01980209350586 -5.180927753448486 -2.5
21.578691482543945 -1.7420165538787842 -2.5
-19.72798728942871 0.0 -2.5
-19.66400909423828 -1.5874462127685547 -2.5
-18.71271514892578 -6.247231483459473 -2.5
-18.149335861206055 -7.732709884643555 -2.5
-17.46826171875 -9.168061256408691 -2.5
-14.7666015625 -13.082075119018555 -2.5
-12.014692306518555 -14.715346336364746 -2.40739369392395
-10.523608207702637 -15.24608325958252 -2.347599983215332
-9.262680053710938 -16.043437957763672 -2.347599983215332
-7.94167947769165 -16.736753463745117 -2.347599983215332
-3.705556631088257 -18.150970458984375 -2.347599983215332
-0.7459325790405273 -18.510351181030273 -2.347599983215332
4.610583305358887 -15.917552947998047 -2.1000421047210693
6.071313381195068 -16.00872039794922 -2.169675350189209
7.941681861877441 -16.73674774169922 -2.347599983215332
9.262687683105469 -16.043441772460938 -2.347599983215332
12.014689445495605 -14.715341567993164 -2.407393455505371
13.666044235229492 -14.227880477905273 -2.5
15.771393775939941 -11.85142993927002 -2.5
17.468263626098633 -9.168046951293945 -2.5
19.66400909423828 -1.5874511003494263 -2.5
-18.11605453491211 0.0 -2.5
-17.881460189819336 -2.9060351848602295 -2.5
-17.58963394165039 -4.335473537445068 -2.5
-16.666400909423828 -7.100888729095459 -2.5
-16.040966033935547 -8.418954849243164 -2.5
-11.457416534423828 -14.032793045043945 -2.5
-10.149808883666992 -14.704550743103027 -2.4656786918640137
-8.505849838256836 -14.732572555541992 -2.347599983215332
-6.032431602478027 -15.906220436096191 -2.347599983215332
-4.732954025268555 -16.34004783630371 -2.347599983215332
-0.6849902272224426 -16.997905731201172 -2.347599983215332
0.6849951148033142 -16.997909545898438 -2.347599983215332
2.050541877746582 -16.88766098022461 -2.347599983215332
3.402778148651123 -16.66791534423828 -2.347599983215332
4.583984375 -15.825722694396973 -2.2737059593200684
6.032431602478027 -15.906220436096191 -2.347599983215332
11.457406997680664 -14.032797813415527 -2.5
13.56005573272705 -12.013158798217773 -2.5
14.482748985290527 -10.88308048248291 -2.5
15.311511039733887 -9.682421684265137 -2.5
16.666399002075195 -7.100878715515137 -2.5
17.58963394165039 -4.335464000701904 -2.5
-16.526927947998047 -2.685903310775757 -2.5
-16.25721549987793 -4.007065296173096 -2.5
-15.403915405273438 -6.563002586364746 -2.5
-14.151655197143555 -8.948974609375 -2.5
-13.385673522949219 -10.058695793151855 -2.5
-11.598808288574219 -12.075644493103027 -2.5
-9.511548042297363 -13.7798433303833 -2.5
-6.980414867401123 -14.71092700958252 -2.431210517883301
-5.585707664489746 -14.728304862976074 -2.3519105911254883
-1.8952099084854126 -15.60842227935791 -2.347599983215332
-0.6330956816673279 -15.710311889648438 -2.347599983215332
0.6331103444099426 -15.710307121276855 -2.347599983215332
3.145024299621582 -15.405306816101074 -2.347599983215332
4.374426364898682 -15.10228443145752 -2.347599983215332
6.98040771484375 -14.71092700958252 -2.4312095642089844
9.511540412902832 -13.779848098754883 -2.5
10.589509010314941 -12.969809532165527 -2.5
13.385673522949219 -10.05868148803711 -2.5
14.151655197143555 -8.948969841003418 -2.5
14.8258638381958 -7.781210899353027 -2.5
15.403910636901855 -6.56298828125 -2.5
15.882064819335938 -5.302216529846191 -2.5
16.52692985534668 -2.6858885288238525 -2.5
16.689464569091797 -1.347314476966858 -2.5
-15.359575271606445 -2.4961864948272705 -2.5
-15.108905792236328 -3.7240283489227295 -2.5
-14.315878868103027 -6.099428653717041 -2.5
-11.647636413574219 -10.318921089172363 -2.5
-9.841537475585938 -12.05370044708252 -2.5
-5.507826805114746 -14.52294921875 -2.4953742027282715
-3.003955125808716 -14.71434497833252 -2.4127249717712402
3.003959894180298 -14.71434497833252 -2.412724494934082
4.259543418884277 -14.70565414428711 -2.4596803188323975
5.507826805114746 -14.522953987121582 -2.4953739643096924
6.670917987823486 -14.05868148803711 -2.5
7.780549049377441 -13.476293563842773 -2.5
8.839706420898438 -12.806528091430664 -2.5
10.779541015625 -11.222709655761719 -2.5
13.77865982055664 -7.23159646987915 -2.5
15.359580039978027 -2.496171712875366 -2.5
15.5106201171875 -1.2521532773971558 -2.5
-14.531054496765137 -4.882812390860636e-06 -2.5
-14.34288501739502 -2.3309569358825684 -2.5
-12.281503677368164 -7.766362190246582 -2.5
-11.616747856140137 -8.7294282913208 -2.5
-10.876649856567383 -9.635883331298828 -2.5
-9.190093040466309 -11.255834579467773 -2.5
-8.254590034484863 -11.958823204040527 -2.5
-7.265522480010986 -12.584277153015137 -2.5
-4.042797565460205 -13.957343101501465 -2.5
-2.9065868854522705 -14.23739242553711 -2.5
0.5841357111930847 -14.495136260986328 -2.495845317840576
6.229350566864014 -13.128090858459473 -2.5
8.254579544067383 -11.95882797241211 -2.5
10.066010475158691 -10.479843139648438 -2.5
11.616755485534668 -8.7294282913208 -2.5
12.281498908996582 -7.766357421875 -2.5
12.866608619689941 -6.75292444229126 -2.5
13.368270874023438 -5.695688247680664 -2.5
13.783234596252441 -4.601523399353027 -2.5
14.342883110046387 -2.330947160720825 -2.5
14.483935356140137 -1.1692626476287842 -2.5
-13.625673294067383 -4.882812390860636e-06 -2.5
-12.535341262817383 -5.340815544128418 -2.5
-11.516288757324219 -7.282470703125 -2.5
-10.892949104309082 -8.185522079467773 -2.5
-10.198954582214355 -9.035502433776855 -2.5
-5.841220378875732 -12.310121536254883 -2.5
-4.831733226776123 -12.740229606628418 -2.5
-2.7254931926727295 -13.350312232971191 -2.5
-0.5486523509025574 -13.614619255065918 -2.5
0.5486474633216858 -13.614619255065918 -2.5
1.642397403717041 -13.52633285522461 -2.5
5.841217994689941 -12.310121536254883 -2.5
8.61749267578125 -10.554521560668945 -2.5
9.438827514648438 -9.826879501342773 -2.5
10.89294147491455 -8.185526847839355 -2.5
11.516279220581055 -7.282460689544678 -2.5
12.06493091583252 -6.332162857055664 -2.5
12.924448013305664 -4.3148193359375 -2.5
13.449220657348633 -2.185717821121216 -2.5
13.581491470336914 -1.0964159965515137 -2.5
-12.781865119934082 -1.0318652391433716 -2.5
-12.657387733459473 -2.0570409297943115 -2.5
-12.450815200805664 -3.0688719749450684 -2.5
-11.797308921813965 -5.0263671875 -2.5
-11.354598999023438 -5.959355354309082 -2.5
-10.838252067565918 -6.853696346282959 -2.5
-10.25162124633789 -7.703593730926514 -2.5
-8.110126495361328 -9.933115005493164 -2.5
-6.411733150482178 -11.10543441772461 -2.5
-2.5650243759155273 -12.56429672241211 -2.5
-1.5457030534744263 -12.729950904846191 -2.5
-0.5163476467132568 -12.813051223754883 -2.5
2.565014600753784 -12.56429672241211 -2.5
3.567704916000366 -12.317157745361328 -2.5
4.547250747680664 -11.990140914916992 -2.5
5.497314453125 -11.58535099029541 -2.5
7.284548282623291 -10.55349063873291 -2.5
8.110124588012695 -9.933115005493164 -2.5
9.598485946655273 -8.503524780273438 -2.5
10.25161075592041 -7.703593730926514 -2.5
10.838244438171387 -6.853701114654541 -2.5
11.354598999023438 -5.959355354309082 -2.5
12.163505554199219 -4.060786247253418 -2.5
-11.950722694396973 -1.9421874284744263 -2.5
-10.72066879272461 -5.626655101776123 -2.5
-10.233149528503418 -6.471054553985596 -2.5
-9.062602043151855 -8.028779029846191 -2.5
-8.38717269897461 -8.731972694396973 -2.5
-6.877851486206055 -9.9642915725708 -2.5
-6.053764343261719 -10.4854097366333 -2.5
-5.190395355224609 -10.938544273376465 -2.5
-2.421821117401123 -11.862821578979492 -2.5
-1.4594042301177979 -12.019243240356445 -2.5
0.4875146448612213 -12.097695350646973 -2.5
1.4593993425369263 -12.019243240356445 -2.5
2.421811580657959 -11.862832069396973 -2.5
3.368525266647339 -11.629487037658691 -2.5
4.293376445770264 -11.320722579956055 -2.5
6.053759574890137 -10.485414505004883 -2.5
6.877853870391846 -9.9642915725708 -2.5
7.657341003417969 -9.3785400390625 -2.5
9.67926025390625 -7.273505687713623 -2.5
11.138659477233887 -4.745741844177246 -2.5
-11.13137149810791 -2.743657112121582 -2.5
-10.87451171875 -3.6304540634155273 -2.5
-10.151323318481445 -5.327831745147705 -2.5
-8.581308364868164 -7.602387428283691 -2.5
-5.732260704040527 -9.928568840026855 -2.5
-4.065375804901123 -10.719511032104492 -2.5
-3.189628839492798 -11.011869430541992 -2.5
-1.3819042444229126 -11.380932807922363 -2.5
0.46163085103034973 -11.455209732055664 -2.5
1.381899356842041 -11.380932807922363 -2.5
2.293203115463257 -11.232816696166992 -2.5
3.189628839492798 -11.011869430541992 -2.5
6.512590408325195 -9.435107231140137 -2.5
7.250680923461914 -8.880473136901855 -2.5
7.941742897033691 -8.268241882324219 -2.5
9.689692497253418 -6.127397537231445 -2.5
10.151323318481445 -5.327831745147705 -2.5
10.874499320983887 -3.630449056625366 -2.5
11.427343368530273 -0.9225097298622131 -2.5
-10.74276351928711 -1.74587881565094 -2.5
-10.5674409866333 -2.6046533584594727 -2.5
-10.01278305053711 -4.266054630279541 -2.5
-9.637036323547363 -5.057914733886719 -2.5
-8.70089340209961 -6.538300514221191 -2.5
-8.146562576293945 -7.217236042022705 -2.5
-7.539409160614014 -7.849355220794678 -2.5
-6.883339881896973 -8.430571556091309 -2.5
-6.182651042938232 -8.957109451293945 -2.5
-4.665761470794678 -9.8328857421875 -2.5
-3.8594138622283936 -10.176445007324219 -2.5
-2.1770262718200684 -10.6637544631958 -2.5
-1.3118798732757568 -10.804349899291992 -2.5
-0.4382421672344208 -10.8748779296875 -2.5
0.4382373094558716 -10.874882698059082 -2.5
2.1770215034484863 -10.663744926452637 -2.5
3.8594114780426025 -10.1764497756958 -2.5
4.665761470794678 -9.832890510559082 -2.5
5.441855430603027 -9.425556182861328 -2.5
6.182651042938232 -8.95711898803711 -2.5
6.883342266082764 -8.43057632446289 -2.5
7.5393967628479 -7.849365234375 -2.5
8.700896263122559 -6.538305282592773 -2.5
9.198793411254883 -5.816972732543945 -2.5
10.01278305053711 -4.266044616699219 -2.5
10.567436218261719 -2.6046483516693115 -2.5
10.742755889892578 -1.7458837032318115 -2.5
-10.222246170043945 -1.6612889766693115 -2.5
-10.055415153503418 -2.478456974029541 -2.5
-9.823373794555664 -3.2795262336730957 -2.5
-9.170097351074219 -4.812846660614014 -2.5
-8.75308609008789 -5.535126686096191 -2.5
-7.751840591430664 -6.867538928985596 -2.5
-7.174106121063232 -7.469027996063232 -2.5
-5.883080959320068 -8.523110389709473 -2.5
-4.439687252044678 -9.356459617614746 -2.5
-2.071537971496582 -10.147055625915527 -2.5
-1.2483203411102295 -10.280844688415527 -2.5
0.4170019328594208 -10.3479585647583 -2.5
1.2483203411102295 -10.28084945678711 -2.5
2.8813133239746094 -9.947470664978027 -2.5
5.178178787231445 -8.968867301940918 -2.5
6.549824237823486 -8.0220947265625 -2.5
7.174096584320068 -7.469038009643555 -2.5
8.279311180114746 -6.221503734588623 -2.5
9.527633666992188 -4.059345722198486 -2.5
10.05541706085205 -2.478447198867798 -2.5
10.322772979736328 -0.8333495855331421 -2.5
-9.8753023147583 0.0 -2.5
-9.843276023864746 -0.7946386337280273 -2.5
-9.588339805603027 -2.3633251190185547 -2.5
-9.367084503173828 -3.127192258834839 -2.5
-8.744145393371582 -4.589286804199219 -2.5
-8.346508979797363 -5.278022289276123 -2.5
-7.391772270202637 -6.548544883728027 -2.5
-6.840864181518555 -7.122089862823486 -2.5
-5.609809398651123 -8.127211570739746 -2.5
-4.937655925750732 -8.552265167236328 -2.5
-3.5018310546875 -9.233569145202637 -2.5
-2.747485399246216 -9.4854097366333 -2.5
-0.3976415991783142 -9.867300033569336 -2.5
1.190332055091858 -9.803300857543945 -2.5
1.9753124713897705 -9.675726890563965 -2.5
2.7474803924560547 -9.4854097366333 -2.5
3.501826047897339 -9.233569145202637 -2.5
4.233466625213623 -8.921850204467773 -2.5
6.245590686798096 -7.649462699890137 -2.5
6.840856552124023 -7.122094631195068 -2.5
8.346503257751465 -5.278017520904541 -2.5
8.744145393371582 -4.589282035827637 -2.5
9.085075378417969 -3.870781183242798 -2.5
9.367084503173828 -3.127197265625 -2.5
9.58834171295166 -2.3633203506469727 -2.5
-9.434598922729492 -4.882812390860636e-06 -2.5
-9.404004096984863 -0.7591845393180847 -2.5
-9.160439491271973 -2.257861375808716 -2.5
-8.949067115783691 -2.9876415729522705 -2.5
-8.353920936584473 -4.384487152099609 -2.5
-7.97402811050415 -5.042470455169678 -2.5
-7.542421817779541 -5.667768478393555 -2.5
-7.061899185180664 -6.256298542022705 -2.5
-6.535581111907959 -6.804252624511719 -2.5
-5.966869831085205 -7.308090686798096 -2.5
-4.717299461364746 -8.170610427856445 -2.5
-4.044540882110596 -8.523695945739746 -2.5
-3.3455564975738525 -8.821513175964355 -2.5
0.3798925578594208 -9.426953315734863 -2.5
1.8871581554412842 -9.243935585021973 -2.5
2.624868154525757 -9.062104225158691 -2.5
4.044538497924805 -8.523695945739746 -2.5
4.717302322387695 -8.170605659484863 -2.5
5.966865062713623 -7.308095455169678 -2.5
7.061894416809082 -6.256308555603027 -2.5
7.542421817779541 -5.667768478393555 -2.5
7.97402811050415 -5.04248046875 -2.5
8.353925704956055 -4.384477615356445 -2.5
8.94906234741211 -2.9876415729522705 -2.5
-9.029281616210938 -4.882812390860636e-06 -2.5
-8.999995231628418 -0.7265625 -2.5
-8.7669038772583 -2.1608593463897705 -2.5
-8.306747436523438 -3.539179563522339 -2.5
-7.631450176239014 -4.825854301452637 -2.5
-7.218388557434082 -5.424272537231445 -2.5
-6.758505821228027 -5.987519264221191 -2.5
-5.710522174835205 -6.994125843048096 -2.5
-5.129218578338623 -7.430952072143555 -2.5
-1.8060888051986694 -8.8468017578125 -2.5
-1.0883642435073853 -8.963446617126465 -2.5
-0.36357420682907104 -9.021952629089355 -2.5
1.0883593559265137 -8.963452339172363 -2.5
3.2018260955810547 -8.44252872467041 -2.5
4.514638423919678 -7.819584846496582 -2.5
6.758508205413818 -5.987524509429932 -2.5
7.631452560424805 -4.825849533081055 -2.5
8.306747436523438 -3.539179563522339 -2.5
8.564594268798828 -2.8592967987060547 -2.5
8.766899108886719 -2.1608593463897705 -2.5
8.91235065460205 -1.448403239250183 -2.5
8.99999713897705 -0.7265625 -2.5
-8.627084732055664 -0.6964648365974426 -2.5
-8.543066024780273 -1.3883886337280273 -2.5
-8.209726333618164 -2.7408154010772705 -2.5
-7.962568283081055 -3.3925437927246094 -2.5
-6.919301509857178 -5.199516296386719 -2.5
-5.99563455581665 -6.242114067077637 -2.5
-5.473910808563232 -6.704326152801514 -2.5
-4.327573299407959 -7.495585918426514 -2.5
-3.710390567779541 -7.819501876831055 -2.5
-3.069159984588623 -8.0927095413208 -2.5
-2.408017635345459 -8.313437461853027 -2.5
-1.7312548160552979 -8.480243682861328 -2.5
-0.3485058546066284 -8.648134231567383 -2.5
1.0432665348052979 -8.592050552368164 -2.5
1.7312499284744263 -8.480238914489746 -2.5
3.069155216217041 -8.092714309692383 -2.5
5.473910808563232 -6.704326152801514 -2.5
6.478476524353027 -5.739428520202637 -2.5
7.31524658203125 -4.625888347625732 -2.5
7.663759708404541 -4.022255897521973 -2.5
7.962560653686523 -3.392534017562866 -2.5
8.543073654174805 -1.388393521308899 -2.5
-8.308676719665527 0.0 -2.5
-8.281733512878418 -0.6685839891433716 -2.5
-8.20108413696289 -1.3328173160552979 -2.5
-8.067240715026855 -1.9884033203125 -2.5
-7.643813133239746 -3.2567334175109863 -2.5
-6.642314434051514 -4.991372108459473 -2.5
-6.219130516052246 -5.50967264175415 -2.5
-5.755629539489746 -5.992246150970459 -2.5
-4.154340744018555 -7.195527076721191 -2.5
-2.946293830871582 -7.768749713897705 -2.5
-0.33455076813697815 -8.3019380569458 -2.5
0.33455565571784973 -8.3019380569458 -2.5
1.6619482040405273 -8.140766143798828 -2.5
2.3116209506988525 -7.980639457702637 -2.5
4.719865798950195 -6.837904930114746 -2.5
5.254782676696777 -6.43594217300415 -2.5
5.755617618560791 -5.992236137390137 -2.5
6.219128131866455 -5.509677410125732 -2.5
7.35696268081665 -3.8612353801727295 -2.5
7.881081581115723 -2.631098508834839 -2.5
8.067238807678223 -1.9884082078933716 -2.5
-7.960917949676514 -0.6426806449890137 -2.5
-7.883383750915527 -1.2811815738677979 -2.5
-7.754731178283691 -1.9113818407058716 -2.5
-7.347704887390137 -3.130571126937866 -2.5
-7.071977615356445 -3.7116551399230957 -2.5
-6.750370979309082 -4.268681526184082 -2.5
-5.978212833404541 -5.296235084533691 -2.5
-5.532665729522705 -5.760112285614014 -2.5
-4.537026405334473 -6.573022365570068 -2.5
-3.993408203125 -6.916781902313232 -2.5
-3.423881769180298 -7.215688228607178 -2.5
-2.832167863845825 -7.46780252456665 -2.5
-0.9627099633216858 -7.92858362197876 -2.5
-0.3215966820716858 -7.98034143447876 -2.5
0.3215966820716858 -7.980336666107178 -2.5
1.5975682735443115 -7.825409889221191 -2.5
5.978217601776123 -5.296235084533691 -2.5
6.750370979309082 -4.268686294555664 -2.5
7.071969985961914 -3.711660146713257 -2.5
7.960917949676514 -0.6426757574081421 -2.5
-7.686962604522705 0.0 -2.5
-7.662040710449219 -0.6185546517372131 -2.5
-7.463598251342773 -1.8396239280700684 -2.5
-7.291367053985596 -2.434218645095825 -2.5
-7.071845531463623 -3.0130321979522705 -2.5
-6.4969482421875 -4.10842752456665 -2.5
-6.14529275894165 -4.617885589599609 -2.5
-5.324951171875 -5.54385232925415 -2.5
-4.366694450378418 -6.326250076293945 -2.5
-3.29534649848938 -6.944794654846191 -2.5
-2.725839853286743 -7.187441349029541 -2.5
-2.1386523246765137 -7.383471488952637 -2.5
-1.5375927686691284 -7.5316162109375 -2.5
0.926562488079071 -7.630922794342041 -2.5
1.5375927686691284 -7.5316162109375 -2.5
2.1386425495147705 -7.383471488952637 -2.5
2.725830078125 -7.187441349029541 -2.5
3.295341730117798 -6.944799423217773 -2.5
4.366694450378418 -6.326250076293945 -2.5
4.861581802368164 -5.954360008239746 -2.5
6.145285606384277 -4.617890357971191 -2.5
6.496938228607178 -4.10842752456665 -2.5
7.291364669799805 -2.4342236518859863 -2.5
7.463595867156982 -1.8396239280700684 -2.5
-7.406874656677246 0.0 -2.5
-7.382861137390137 -0.5960156321525574 -2.5
-7.025688171386719 -2.345517635345459 -2.5
-6.558461666107178 -3.442148447036743 -2.5
-5.921367168426514 -4.449624061584473 -2.5
-5.544126033782959 -4.911664962768555 -2.5
-5.130927562713623 -5.341850280761719 -2.5
-3.703437328338623 -6.414540767669678 -2.5
-3.1752684116363525 -6.691747665405273 -2.5
-0.8928076028823853 -7.352870941162109 -2.5
-0.2982421815395355 -7.40087366104126 -2.5
0.8928027153015137 -7.352870941162109 -2.5
1.4815624952316284 -7.257187366485596 -2.5
2.060717821121216 -7.114438533782959 -2.5
3.1752636432647705 -6.691742897033691 -2.5
4.684440612792969 -5.737407207489014 -2.5
5.13092041015625 -5.341865062713623 -2.5
5.544123649597168 -4.911664962768555 -2.5
5.921371936798096 -4.449628829956055 -2.5
6.558464050292969 -3.442143440246582 -2.5
7.191642761230469 -1.7725878953933716 -2.5
7.310956954956055 -1.1881542205810547 -2.5
-7.144589900970459 -4.882812390860636e-06 -2.5
-7.052065372467041 -1.1460741758346558 -2.5
-6.936982154846191 -1.709814429283142 -2.5
-6.326215744018555 -3.320258617401123 -2.5
-6.038535118103027 -3.81853985786438 -2.5
-5.711689472198486 -4.292060375213623 -2.5
-5.347802639007568 -4.737743854522705 -2.5
-4.058588981628418 -5.879887580871582 -2.5
-2.533505916595459 -6.680307388305664 -2.5
-1.42910635471344 -7.000200271606445 -2.5
-0.8611865043640137 -7.092494964599609 -2.5
0.28767576813697815 -7.138798713684082 -2.5
0.8611865043640137 -7.092504501342773 -2.5
1.429101586341858 -7.000205039978027 -2.5
2.533505916595459 -6.680307388305664 -2.5
3.5722949504852295 -6.187402248382568 -2.5
4.518561840057373 -5.534238338470459 -2.5
5.711689472198486 -4.292060375213623 -2.5
6.038532733917236 -3.818544864654541 -2.5
6.326215744018555 -3.320263624191284 -2.5
6.5728759765625 -2.8004393577575684 -2.5
6.776901721954346 -2.2624707221984863 -2.5
6.936977386474609 -1.7098193168640137 -2.5
7.052070140838623 -1.1460790634155273 -2.5
-6.898412704467773 0.0 -2.5
-6.876035213470459 -0.5550927519798279 -2.5
-6.80908203125 -1.1065820455551147 -2.5
-6.697948932647705 -1.6509032249450684 -2.5
-6.543393611907959 -2.184501886367798 -2.5
-5.830468654632568 -3.686967611312866 -2.5
-5.514887809753418 -4.144169807434082 -2.5
-5.163535118103027 -4.574496746063232 -2.5
-4.778696060180664 -4.975151062011719 -2.5
-3.9187498092651367 -5.677279949188232 -2.5
-3.4492039680480957 -5.974199295043945 -2.5
-2.4462108612060547 -6.450121879577637 -2.5
-1.379858374595642 -6.758998870849609 -2.5
-0.8315136432647705 -6.848114967346191 -2.5
-0.2777734398841858 -6.892822265625 -2.5
0.8315087556838989 -6.848114967346191 -2.5
1.919252872467041 -6.626059532165527 -2.5
2.4462060928344727 -6.450126647949219 -2.5
2.9572949409484863 -6.232372760772705 -2.5
3.9187450408935547 -5.677279949188232 -2.5
4.778691291809082 -4.975156307220459 -2.5
5.830466270446777 -3.6869726181030273 -2.5
6.108237266540527 -3.2058496475219727 -2.5
6.346398830413818 -2.7039451599121094 -2.5
6.54339599609375 -2.184511661529541 -2.5
6.809072017669678 -1.1065869331359863 -2.5
6.876039981842041 -0.5550976395606995 -2.5
-6.666840553283691 0.0 -2.5
-6.645219802856445 -0.5364648103713989 -2.5
-6.473114967346191 -1.5954930782318115 -2.5
-6.323750019073486 -2.1111767292022705 -2.5
-5.9031982421875 -3.0982420444488525 -2.5
-5.329760551452637 -4.005053520202637 -2.5
-4.990200042724609 -4.420937538146973 -2.5
-4.216411113739014 -5.164169788360596 -2.5
-3.3334226608276367 -5.773657321929932 -2.5
-2.858022451400757 -6.023163795471191 -2.5
-2.364091634750366 -6.233603477478027 -2.5
-1.3335448503494263 -6.532109260559082 -2.5
0.26844725012779236 -6.661435604095459 -2.5
1.3335399627685547 -6.532109260559082 -2.5
2.364091634750366 -6.233608245849609 -2.5
3.7872021198272705 -5.486708641052246 -2.5
4.618278503417969 -4.808149337768555 -2.5
4.9902024269104 -4.420942306518555 -2.5
6.13336181640625 -2.6131787300109863 -2.5
6.323742389678955 -2.1111814975738525 -2.5
6.580502986907959 -1.0694433450698853 -2.5
6.645222187042236 -0.5364599227905273 -2.5
-6.448564529418945 -9.765624781721272e-06 -2.5
-6.427651405334473 -0.5188964605331421 -2.5
-6.261181354522705 -1.5432469844818115 -2.5
-4.826821327209473 -4.276186466217041 -2.5
-3.6632080078125 -5.307065486907959 -2.5
-3.2242822647094727 -5.584619045257568 -2.5
-2.764453172683716 -5.825966835021973 -2.5
-2.286694288253784 -6.029516696929932 -2.5
-1.289882779121399 -6.318246841430664 -2.5
0.25965818762779236 -6.443334579467773 -2.5
1.7941014766693115 -6.19396448135376 -2.5
2.286684513092041 -6.029516696929932 -2.5
3.663203001022339 -5.307070255279541 -2.5
4.467072486877441 -4.650722503662109 -2.5
4.826821327209473 -4.276191234588623 -2.5
5.155253887176514 -3.8739306926727295 -2.5
5.709919452667236 -2.9968016147613525 -2.5
6.11669921875 -2.042055606842041 -2.5
6.427651405334473 -0.5189062356948853 -2.5
-6.161581993103027 -1.0013574361801147 -2.5
-5.921166896820068 -1.9767773151397705 -2.5
-5.742900371551514 -2.4468212127685547 -2.5
-5.527387619018555 -2.900991201400757 -2.5
-5.276025295257568 -3.33636212348938 -2.5
-4.990463733673096 -3.7500877380371094 -2.5
-4.67251443862915 -4.139492034912109 -2.5
-3.5461034774780273 -5.137416839599609 -2.5
-2.676079034805298 -5.639716625213623 -2.5
-2.2135937213897705 -5.836767673492432 -2.5
-1.7367528676986694 -5.995961666107178 -2.5
-1.2486425638198853 -6.116264343261719 -2.5
-0.75244140625 -6.196908950805664 -2.5
0.25135740637779236 -6.237358093261719 -2.5
0.7524365186691284 -6.196913719177246 -2.5
3.546093702316284 -5.137416839599609 -2.5
4.324275016784668 -4.502055644989014 -2.5
5.27603006362915 -3.336367130279541 -2.5
5.921162128448486 -1.9767773151397705 -2.5
6.161581993103027 -1.0013623237609863 -2.5
-6.027763366699219 -0.4866113066673279 -2.5
-5.736156940460205 -1.9150097370147705 -2.5
-5.563461780548096 -2.370366096496582 -2.5
-4.189174652099609 -4.361376762390137 -2.5
-3.8246335983276367 -4.684330940246582 -2.5
-2.1444287300109863 -5.654394626617432 -2.5
0.7289355397224426 -6.003285884857178 -2.5
3.023691415786743 -5.2371826171875 -2.5
3.435302734375 -4.976894378662109 -2.5
3.824636220932007 -4.684335708618164 -2.5
4.189162731170654 -4.361386775970459 -2.5
4.834528923034668 -3.6329150199890137 -2.5
5.736156940460205 -1.915014624595642 -2.5
5.871650218963623 -1.447241187095642 -2.5
5.969057559967041 -0.9700732231140137 -2.5
-5.843505859375 -0.47172850370407104 -2.5
-5.786596775054932 -0.9404150247573853 -2.5
-5.692158222198486 -1.4029979705810547 -2.5
-5.190996170043945 -2.724443197250366 -2.5
-4.954941272735596 -3.1333203315734863 -2.5
-4.388154029846191 -3.8875732421875 -2.5
-4.061108112335205 -4.228061199188232 -2.5
-2.0788769721984863 -5.481543064117432 -2.5
-0.23605956137180328 -5.857768535614014 -2.5
0.2360546886920929 -5.857773303985596 -2.5
2.0788817405700684 -5.481557369232178 -2.5
2.5132176876068115 -5.296504020690918 -2.5
2.9312548637390137 -5.077089786529541 -2.5
3.3302879333496094 -4.824755668640137 -2.5
4.388156414031982 -3.8875732421875 -2.5
5.393395900726318 -2.297914981842041 -2.5
5.560815334320068 -1.8564696311950684 -2.5
5.786601543426514 -0.9404247999191284 -2.5
-5.687026023864746 -4.882812390860636e-06 -2.5
-5.668583869934082 -0.4576171636581421 -2.5
-5.613373756408691 -0.9122607111930847 -2.5
-5.521767616271973 -1.361000895500183 -2.5
-5.394350528717041 -1.8008984327316284 -2.5
-5.231943130493164 -2.2291259765625 -2.5
-5.035605430603027 -2.642890453338623 -2.5
-4.546454906463623 -3.416435480117798 -2.5
-4.256792068481445 -3.771196126937866 -2.5
-3.9395408630371094 -4.101493835449219 -2.5
-2.843515634536743 -4.925107479095459 -2.5
-2.437983274459839 -5.137953758239746 -2.5
-2.0166454315185547 -5.317455768585205 -2.5
-1.5822314023971558 -5.462485313415527 -2.5
-1.1375536918640137 -5.572094440460205 -2.5
-0.685498058795929 -5.645561218261719 -2.5
-0.22899413108825684 -5.682416915893555 -2.5
0.6854931712150574 -5.645561218261719 -2.5
1.1375536918640137 -5.572094440460205 -2.5
1.5822265148162842 -5.462494850158691 -2.5
3.9395360946655273 -4.101499080657959 -2.5
4.54644775390625 -3.41644024848938 -2.5
5.035607814788818 -2.642890453338623 -2.5
5.231945514678955 -2.2291259765625 -2.5
5.613376140594482 -0.9122655987739563 -2.5
-5.520161151885986 -4.882812390860636e-06 -2.5
-5.359745979309082 -1.3210644721984863 -2.5
-5.078427791595459 -2.1637206077575684 -2.5
-4.665585994720459 -2.9503417015075684 -2.5
-4.413046836853027 -3.3161914348602295 -2.5
-4.131889343261719 -3.6605420112609863 -2.5
-3.8239500522613525 -3.981157064437866 -2.5
-3.491201162338257 -4.275942325592041 -2.5
-2.760082960128784 -4.780600547790527 -2.5
-2.366450071334839 -4.987196922302246 -2.5
-1.9574755430221558 -5.161440372467041 -2.5
-1.1041796207427979 -5.40859842300415 -2.5
-0.6653857231140137 -5.479911804199219 -2.5
-0.22227539122104645 -5.515683650970459 -2.5
0.22227539122104645 -5.515688419342041 -2.5
0.6653808355331421 -5.479907035827637 -2.5
1.535805583000183 -5.302216529846191 -2.5
2.760082960128784 -4.780600547790527 -2.5
3.135805606842041 -4.543002605438232 -2.5
3.8239452838897705 -3.9811620712280273 -2.5
4.131894588470459 -3.6605467796325684 -2.5
4.665578365325928 -2.9503417015075684 -2.5
5.07843017578125 -2.1637206077575684 -2.5
5.236069202423096 -1.7480615377426147 -2.5
5.359748363494873 -1.3210644721984863 -2.5
5.448674201965332 -0.885498046875 -2.5
-5.361269474029541 -4.882812390860636e-06 -2.5
-5.343881607055664 -0.4314062297344208 -2.5
-5.291840553283691 -0.8600146174430847 -2.5
-5.085351467132568 -1.6977441310882568 -2.5
-4.932255744934082 -2.101435422897339 -2.5
-4.747162818908691 -2.491508722305298 -2.5
-4.286025524139404 -3.2207372188568115 -2.5
-4.012963771820068 -3.555180549621582 -2.5
-3.0455517768859863 -4.412240982055664 -2.5
-2.298334836959839 -4.843642234802246 -2.5
-1.0723925828933716 -5.252924919128418 -2.5
-0.2158789038658142 -5.356928825378418 -2.5
0.21587401628494263 -5.356923580169678 -2.5
0.6462353467941284 -5.322177410125732 -2.5
1.491601586341858 -5.149599552154541 -2.5
1.9011328220367432 -5.012870788574219 -2.5
2.6806297302246094 -4.642997741699219 -2.5
3.045546770095825 -4.412240982055664 -2.5
3.3907079696655273 -4.152871131896973 -2.5
3.713881731033325 -3.8665623664855957 -2.5
4.531291484832764 -2.865419864654541 -2.5
5.205481052398682 -1.2830419540405273 -2.5
