ply
format ascii 1.0
element vertex 868
property float x
property float y
property float z
end_header
-1.1534862518310547 28.623579025268555 7.67588472366333
-6.808202743530273 14.348066329956055 4.2553935050964355
-3.395947217941284 27.968124389648438 7.215430736541748
-5.555766582489014 27.21393585205078 7.113428115844727
-9.76363754272461 25.744604110717773 7.051605224609375
-14.41954517364502 24.975379943847656 7.385882377624512
-5.555766582489014 27.21393585205078 6.786365985870361
-7.668896198272705 26.47605323791504 6.734835147857666
-9.76363754272461 25.744604110717773 6.727382659912109
-1.1585546731948853 28.7493896484375 6.693098068237305
-3.419931650161743 28.16568374633789 6.600010395050049
-5.611162185668945 27.485273361206055 6.52548885345459
-6.810791015625 14.353500366210938 3.695726156234741
-3.4840283393859863 28.69356346130371 6.386932849884033
-5.705405235290527 27.946889877319336 6.3027472496032715
-7.886132717132568 27.226030349731445 6.263376235961914
-10.0421724319458 26.479061126708984 6.2576751708984375
-14.370644569396973 24.89067840576172 6.350907325744629
-5.719452857971191 28.01572608947754 5.986734390258789
-7.894838809967041 27.256107330322266 5.9412760734558105
-10.051308631896973 26.50309944152832 5.93470573425293
-6.812485218048096 14.357074737548828 3.327223539352417
-3.4959959983825684 28.79212760925293 5.737854957580566
-5.719452857971191 28.01572608947754 5.656740665435791
-10.051308631896973 26.50309944152832 5.607576847076416
-6.813334941864014 14.358857154846191 3.144207715988159
-3.4960010051727295 28.792123794555664 5.404591083526611
-5.719458103179932 28.015722274780273 5.328187942504883
-7.894838809967041 27.256107330322266 5.2877302169799805
-10.051313400268555 26.50309944152832 5.281882286071777
-6.814174652099609 14.360634803771973 2.9619598388671875
-14.509369850158691 25.13096046447754 5.407410144805908
-16.724559783935547 24.22966194152832 5.486145973205566
20.204357147216797 10.604082107543945 3.9908506870269775
0.7407421469688416 18.381610870361328 3.2175395488739014
-5.719452857971191 28.01572608947754 5.000988483428955
-7.894838809967041 27.256107330322266 4.963016033172607
-14.509369850158691 25.13096046447754 5.07534646987915
-5.719452857971191 28.01572608947754 4.675055980682373
-7.894843578338623 27.256113052368164 4.639557838439941
-12.273138999938965 25.865102767944336 4.680884838104248
-16.795639038085938 24.332632064819336 4.834107398986816
-1.192690372467041 29.596410751342773 4.506533145904541
-3.4960010051727295 28.792123794555664 4.412685871124268
-5.719452857971191 28.01572608947754 4.35030460357666
-7.835507869720459 27.05123519897461 4.284821510314941
-1.8091552257537842 4.770351409912109 0.7762139439582825
-1.1866259574890137 29.44590187072754 4.150038242340088
-3.4877636432647705 28.724246978759766 4.074757099151611
-5.710107326507568 27.970115661621094 4.020089149475098
-12.21645450592041 25.74561882019043 4.0130438804626465
-16.616567611694336 24.073198318481445 4.119245529174805
20.934364318847656 6.988969802856445 2.858956813812256
-1.192690372467041 29.596410751342773 3.837010383605957
-7.894838809967041 27.256107330322266 3.675867795944214
-12.21646499633789 25.74561882019043 3.6914806365966797
-14.42000961303711 24.97617530822754 3.7359142303466797
-1.192690372467041 29.596410751342773 3.5037310123443604
-3.4960010051727295 28.792123794555664 3.430765390396118
-5.719458103179932 28.015722274780273 3.382267475128174
-12.24014663696289 25.795555114746094 3.37738037109375
-16.724565505981445 24.22966194152832 3.4825353622436523
-1.1926854848861694 29.596410751342773 3.171318292617798
-3.4960010051727295 28.792123794555664 3.1052770614624023
-7.894843578338623 27.256113052368164 3.038133382797241
-1.8063573837280273 4.762963771820068 0.5453881621360779
-12.240156173706055 25.795555114746094 3.0569543838500977
-14.509384155273438 25.13096046447754 3.106898069381714
-16.724559783935547 24.22966194152832 3.1521332263946533
9.405688285827637 16.2911376953125 1.803436517715454
-1.192690372467041 29.596410751342773 2.83969783782959
-5.719452857971191 28.01572608947754 2.7412543296813965
-7.894838809967041 27.256107330322266 2.7204394340515137
9.38729476928711 16.25929069519043 1.5901635885238647
-5.719452857971191 28.01572608947754 2.4218101501464844
-7.894838809967041 27.256113052368164 2.4034204483032227
-14.509384155273438 25.13096046447754 2.4578192234039307
-16.724559783935547 24.22966766357422 2.493605375289917
-1.192690372467041 29.596410751342773 2.1784863471984863
-5.719452857971191 28.01572608947754 2.1029646396636963
-1.8042919635772705 4.757524490356445 0.3742181360721588
-14.509374618530273 25.130966186523438 2.1342339515686035
-16.724565505981445 24.22966766357422 2.1653082370758057
2.156669855117798 17.76190948486328 1.1167348623275757
0.7015185356140137 17.408246994018555 1.0874019861221313
-1.192690372467041 29.596410751342773 1.8487279415130615
-3.4960010051727295 28.792123794555664 1.8102291822433472
-7.894838809967041 27.256107330322266 1.771087646484375
-1.8035986423492432 4.755698204040527 0.31745055317878723
-12.24014663696289 25.795555114746094 1.782059907913208
9.332704544067383 16.164731979370117 0.9574716091156006
0.701098620891571 17.397802352905273 0.8931738138198853
-1.1927001476287842 29.596410751342773 1.5194265842437744
-7.894838809967041 27.256107330322266 1.455615520477295
-1.80312979221344 4.754467487335205 0.2608679234981537
-12.21646499633789 25.74561882019043 1.4617977142333984
-14.42000961303711 24.976171493530273 1.4793930053710938
-16.692176818847656 24.182758331298828 1.5073113441467285
2.1515135765075684 17.7193603515625 0.7174056768417358
-1.1876220703125 29.470600128173828 1.1854379177093506
-3.4772703647613525 28.637821197509766 1.1594598293304443
-5.704062461853027 27.94025421142578 1.1461318731307983
9.29677677154541 16.10250473022461 0.541015625
0.701098620891571 17.397802352905273 0.5066360235214233
-1.1926952600479126 29.596410751342773 0.8618639707565308
-3.4960010051727295 28.792123794555664 0.8439157009124756
-7.894838809967041 27.256107330322266 0.8256689310073853
-12.21646499633789 25.74561882019043 0.8291754126548767
-14.367963790893555 24.886024475097656 0.836126983165741
9.278935432434082 16.071611404418945 0.3342129588127136
0.701098620891571 17.397802352905273 0.31357696652412415
-1.192690372467041 29.596410751342773 0.5334411263465881
-3.4960010051727295 28.792123794555664 0.5223321318626404
-5.719452857971191 28.01572608947754 0.5149481296539307
-7.894838809967041 27.256107330322266 0.5110381841659546
-12.24014663696289 25.795560836791992 0.5142037868499756
-14.473075866699219 25.068090438842773 0.5213000178337097
9.261171340942383 16.04084014892578 0.1282843053340912
-3.495986223220825 28.792133331298828 0.20087677240371704
-5.719448089599609 28.01572608947754 0.19803710281848907
-7.894838809967041 27.256107330322266 0.196533203125
-1.802333950996399 4.752363204956055 0.035221558064222336
2.1515135765075684 17.7193603515625 -0.07417450100183487
-3.4960010051727295 28.792123794555664 -0.1205291748046875
-1.8021337985992432 4.751840591430664 -0.0211140438914299
-14.4730806350708 25.068090438842773 -0.1202903687953949
-16.795629501342773 24.3326358795166 -0.12286758422851562
9.225839614868164 15.979647636413574 -0.2811700403690338
2.151503801345825 17.7193546295166 -0.27199187874794006
-1.192690372467041 29.596410751342773 -0.4513606131076813
-7.894843578338623 27.256113052368164 -0.4324050843715668
-1.8019384145736694 4.751318454742432 -0.07742401212453842
-12.292167663574219 25.90518569946289 -0.4369329810142517
-14.473071098327637 25.068090438842773 -0.4410858154296875
9.20827579498291 15.94921875 -0.48480498790740967
0.701098620891571 17.397802352905273 -0.4583567678928375
-3.4959959983825684 28.79212760925293 -0.7635018825531006
-5.719452857971191 28.01572608947754 -0.7527085542678833
-7.894838809967041 27.256107330322266 -0.7469932436943054
-1.8017382621765137 4.750795841217041 -0.13372085988521576
-14.4730806350708 25.068090438842773 -0.7619892954826355
-16.795639038085938 24.332632064819336 -0.7783166170120239
-18.36442756652832 22.492372512817383 -0.7643864154815674
9.190766334533691 15.918886184692383 -0.6877880692481995
2.1515135765075684 17.7193603515625 -0.6678794622421265
-1.192690372467041 29.596410751342773 -1.1083173751831055
-5.719452857971191 28.01572608947754 -1.0698952674865723
-7.894843578338623 27.256113052368164 -1.0617716312408447
-1.8015379905700684 4.750268459320068 -0.19008514285087585
-14.473071098327637 25.068090438842773 -1.0830870866775513
-22.137231826782227 1.7870898246765137 -0.8310095071792603
21.18126106262207 7.071352481842041 -1.0834600925445557
9.173310279846191 15.88863754272461 -0.890166163444519
0.7010937333106995 17.397802352905273 -0.844814121723175
-1.1898291110992432 29.525325775146484 -1.4337124824523926
-12.170820236206055 25.649417877197266 -1.3774895668029785
-16.647397994995117 24.11787986755371 -1.4218801259994507
-18.364439010620117 22.492366790771484 -1.4088659286499023
-22.0823974609375 1.7826659679412842 -1.0749083757400513
-5.719452857971191 28.01572608947754 -1.7051299810409546
-1.8011376857757568 4.749218463897705 -0.3028701841831207
-16.692182540893555 24.18275260925293 -1.7522813081741333
9.138529777526855 15.828413009643555 -1.2933220863342285
0.6262548565864563 15.540605545043945 -1.100575566291809
-5.719452857971191 28.01572608947754 -2.0233397483825684
-1.800942301750183 4.748691082000732 -0.3593505918979645
-12.21646499633789 25.74561882019043 -2.0165042877197266
-14.420014381408691 24.97617530822754 -2.0407769680023193
-16.692182540893555 24.182758331298828 -2.079288959503174
-18.400672912597656 22.536746978759766 -2.0587854385375977
-21.97844123840332 1.7742724418640137 -1.5602986812591553
9.121191024780273 15.798388481140137 -1.4942024946212769
7.974091529846191 27.529775619506836 -2.347599983215332
3.3155810832977295 16.240819931030273 -1.3576945066452026
-2.0923192501068115 17.231767654418945 -1.4217894077301025
-7.894843578338623 27.256113052368164 -2.3242671489715576
-1.8007421493530273 4.7481689453125 -0.41595152020454407
-12.21646499633789 25.74561882019043 -2.334138870239258
-18.126752853393555 22.201250076293945 -2.347599983215332
-19.854442596435547 20.670698165893555 -2.347599983215332
-21.715848922729492 1.75308096408844 -1.784493327140808
26.86014747619629 4.882812390860636e-06 -2.5
26.51232147216797 4.308676719665527 -2.5
26.079652786254883 6.428056716918945 -2.5
20.353397369384766 6.794970512390137 -1.9971673488616943
20.16412353515625 15.152382850646973 -2.347599983215332
8.065459251403809 11.68483829498291 -1.3214865922927856
8.944110870361328 23.583696365356445 -2.347599983215332
7.017406940460205 24.226919174194336 -2.347599983215332
0.6234765648841858 15.471630096435547 -1.441184401512146
-5.045205116271973 24.713022232055664 -2.347599983215332
-7.017402172088623 24.2269287109375 -2.347599983215332
-1.8005468845367432 4.747641563415527 -0.4725884795188904
-10.8128023147583 22.78752899169922 -2.347599983215332
-12.611332893371582 21.843584060668945 -2.347599983215332
-14.328187942504883 20.757909774780273 -2.347599983215332
-17.4724063873291 18.19072723388672 -2.347599983215332
-18.8795166015625 16.725786209106445 -2.347599983215332
-20.164154052734375 15.152387619018555 -2.347599983215332
-22.701932907104492 14.355849266052246 -2.5
-23.783504486083984 12.482523918151855 -2.5
-25.477840423583984 8.505746841430664 -2.5
-26.5123233795166 4.308681488037109 -2.5
-21.615644454956055 1.7449951171875 -2.018413543701172
23.28081703186035 5.738207817077637 -2.5
20.346994400024414 6.792831897735596 -2.236562490463257
22.058889389038086 9.398417472839355 -2.5
19.03021240234375 12.034008979797363 -2.347599983215332
18.000160217285156 13.526254653930664 -2.347599983215332
16.853378295898438 14.930805206298828 -2.347599983215332
14.24007797241211 17.440956115722656 -2.347599983215332
5.197656154632568 17.94440460205078 -1.9478617906570435
3.3155908584594727 16.240825653076172 -1.7282596826553345
0.6234765648841858 15.471635818481445 -1.6144444942474365
-0.6401659846305847 15.88548755645752 -1.6576272249221802
-2.0923192501068115 17.231761932373047 -1.809849500656128
-6.264355182647705 21.626903533935547 -2.347599983215332
-1.8003417253494263 4.747114181518555 -0.5293734669685364
-9.652445793151855 20.341997146606445 -2.347599983215332
-14.240165710449219 17.440893173217773 -2.347599983215332
-15.59731388092041 16.238525390625 -2.347599983215332
-16.853378295898438 14.93080997467041 -2.347599983215332
-18.00017547607422 13.526254653930664 -2.347599983215332
-20.2656192779541 12.815229415893555 -2.5
-22.058866500854492 9.398417472839355 -2.5
-22.74361228942871 7.592919826507568 -2.5
-23.280853271484375 5.738217830657959 -2.5
-21.61345100402832 1.7448095083236694 -2.2608373165130615
21.368539810180664 3.472734212875366 -2.5
20.53476333618164 6.855517387390137 -2.5
18.000585556030273 9.447450637817383 -2.347599983215332
17.181997299194336 10.865283012390137 -2.347599983215332
16.251972198486328 12.21263599395752 -2.347599983215332
15.216620445251465 13.480727195739746 -2.347599983215332
10.246108055114746 14.844057083129883 -2.0828869342803955
8.613505363464355 14.91905689239502 -1.989366888999939
8.714950561523438 18.36641502380371 -2.347599983215332
7.208813190460205 19.00811004638672 -2.347599983215332
1.8872509002685547 15.543007850646973 -1.8080785274505615
0.6234765648841858 15.471635818481445 -1.7881028652191162
-0.6401610970497131 15.885478019714355 -1.8359332084655762
-2.0331737995147705 16.744638442993164 -1.9478617906570435
-4.066376686096191 19.918325424194336 -2.347599983215332
-5.655937194824219 19.526546478271484 -2.347599983215332
-1.8001415729522705 4.74658203125 -0.5862535238265991
-8.714961051940918 18.36641502380371 -2.347599983215332
-11.548310279846191 16.730575561523438 -2.347599983215332
-12.85708999633789 15.747089385986328 -2.347599983215332
-14.08250904083252 14.66146469116211 -2.347599983215332
-19.16914939880371 10.060731887817383 -2.5
-19.91653823852539 8.485649108886719 -2.5
-21.01982879638672 5.180922508239746 -2.5
-21.368555068969727 3.472734212875366 -2.5
-21.57870101928711 1.7419970035552979 -2.5
19.664011001586914 1.587441325187683 -2.5
18.149333953857422 7.732719421386719 -2.5
14.809975624084473 11.128925323486328 -2.347599983215332
13.866425514221191 12.284589767456055 -2.347599983215332
12.832963943481445 13.360541343688965 -2.347599983215332
11.716264724731445 14.34984302520752 -2.347599983215332
10.158305168151855 14.7168550491333 -2.2661099433898926
8.613505363464355 14.91905689239502 -2.1830708980560303
7.941674709320068 16.736757278442383 -2.347599983215332
6.569174766540527 17.321517944335938 -2.347599983215332
5.036835670471191 17.389188766479492 -2.2941958904266357
0.6189159750938416 15.358495712280273 -1.9478617906570435
-0.6189208626747131 15.358490943908691 -1.9478617906570435
-1.9883495569229126 16.375551223754883 -2.0904083251953125
-5.15408182144165 17.793949127197266 -2.347599983215332
-1.7999414205551147 4.746049880981445 -0.6432113647460938
-6.270444393157959 13.214731216430664 -1.8535760641098022
-10.523612976074219 15.246073722839355 -2.347599983215332
-11.716269493103027 14.349848747253418 -2.347599983215332
-12.832978248596191 13.360551834106445 -2.347599983215332
-14.809980392456055 11.128969192504883 -2.347599983215332
-16.656234741210938 10.532768249511719 -2.4973511695861816
-17.468271255493164 9.168046951293945 -2.5
-18.712724685668945 6.247211933135986 -2.5
-19.472515106201172 3.164599657058716 -2.5
10.115644454956055 0.0 -1.395950436592102
17.183740615844727 5.736782073974609 -2.5
14.3781099319458 9.092177391052246 -2.347599983215332
11.784408569335938 12.26888656616211 -2.347599983215332
10.758959770202637 13.17735767364502 -2.347599983215332
8.505839347839355 14.73256778717041 -2.347599983215332
7.292778015136719 15.369237899780273 -2.347599983215332
6.032426834106445 15.906225204467773 -2.347599983215332
4.732944011688232 16.34005355834961 -2.347599983215332
1.829321265220642 15.065932273864746 -2.0943548679351807
-1.7997362613677979 4.745517253875732 -0.7004237174987793
-6.270444393157959 13.214731216430664 -2.0185043811798096
-10.758974075317383 13.177352905273438 -2.347599983215332
-11.784419059753418 12.268891334533691 -2.347599983215332
-13.59988784790039 10.219643592834473 -2.347599983215332
-15.2791109085083 9.661928176879883 -2.494709014892578
-16.040985107421875 8.418940544128418 -2.5
-16.666400909423828 7.100898265838623 -2.5
-17.589637756347656 4.335453987121582 -2.5
-18.057323455810547 1.4577245712280273 -2.5
9.907397270202637 9.765624781721272e-06 -1.4792672395706177
16.257205963134766 4.007050514221191 -2.5
14.060741424560547 7.379658222198486 -2.370983362197876
13.28896427154541 8.40346622467041 -2.347599983215332
10.891733169555664 11.33951187133789 -2.347599983215332
9.943964958190918 12.17916488647461 -2.347599983215332
8.931689262390137 12.9398193359375 -2.347599983215332
7.861527919769287 13.6165771484375 -2.347599983215332
6.740341663360596 14.2050142288208 -2.347599983215332
5.575473308563232 14.701327323913574 -2.347599983215332
4.374413967132568 15.10228443145752 -2.347599983215332
0.6049169898033142 15.011069297790527 -2.2431113719940186
-0.6057909727096558 15.03243637084961 -2.2463040351867676
-1.8951854705810547 15.608431816101074 -2.347599983215332
-3.145014524459839 15.405312538146973 -2.347599983215332
-4.374438285827637 15.10228443145752 -2.347599983215332
-8.931737899780273 12.9398193359375 -2.347599983215332
-14.825868606567383 7.781205654144287 -2.5
-15.88206958770752 5.302211761474609 -2.5
-16.25723648071289 4.007045745849609 -2.5
-16.52694320678711 2.6858935356140137 -2.5
-16.689462661743164 1.347314476966858 -2.5
9.723872184753418 4.882812390860636e-06 -1.5622094869613647
15.510624885559082 1.2521483898162842 -2.5
15.108905792236328 3.7240185737609863 -2.5
14.76025390625 4.927700042724609 -2.5
13.739189147949219 7.210898399353027 -2.4928393363952637
12.350317001342773 7.809892177581787 -2.347599983215332
10.937592506408691 9.689872741699219 -2.347599983215332
10.122416496276855 10.538564682006836 -2.347599983215332
8.300829887390137 12.025849342346191 -2.347599983215332
7.306235313415527 12.654789924621582 -2.347599983215332
6.264243125915527 13.201664924621582 -2.347599983215332
4.065449237823486 14.03555679321289 -2.347599983215332
2.9228711128234863 14.317177772521973 -2.347599983215332
1.7613329887390137 14.50594711303711 -2.347599983215332
0.5883691310882568 14.600639343261719 -2.347599983215332
-0.5883886814117432 14.600629806518555 -2.347599983215332
-4.065449237823486 14.035561561584473 -2.347599983215332
-1.7993407249450684 4.744452953338623 -0.8151792883872986
-6.229086875915527 13.127568244934082 -2.334420919418335
-10.122416496276855 10.538569450378418 -2.347599983215332
-10.937606811523438 9.6898775100708 -2.347599983215332
-13.115375518798828 8.293671607971191 -2.493022918701172
-14.760268211364746 4.927690505981445 -2.5
-15.359569549560547 2.4961962699890137 -2.5
-15.510634422302246 1.2521337270736694 -2.5
9.592089653015137 0.0 -1.6502736806869507
14.483930587768555 1.1692724227905273 -2.5
14.342880249023438 2.330947160720825 -2.5
13.368266105651855 5.695693016052246 -2.5
11.532812118530273 7.292934417724609 -2.347599983215332
10.908578872680664 8.197284698486328 -2.347599983215332
7.751362323760986 11.229819297790527 -2.347599983215332
6.822612285614014 11.817123413085938 -2.347599983215332
5.84960412979126 12.327802658081055 -2.347599983215332
4.838662147521973 12.758524894714355 -2.347599983215332
1.6447460651397705 13.545756340026855 -2.347599983215332
-0.5493847727775574 13.6342134475708 -2.347599983215332
-2.729438304901123 13.369457244873047 -2.347599983215332
-3.796376943588257 13.106484413146973 -2.347599983215332
-1.7991307973861694 4.743916034698486 -0.8729137778282166
-5.849599361419678 12.327821731567383 -2.347599983215332
-9.452392578125 9.840995788574219 -2.347599983215332
-10.213618278503418 9.048480987548828 -2.347599983215332
-10.90859317779541 8.19728946685791 -2.347599983215332
-12.247719764709473 7.7449951171875 -2.4931225776672363
-13.368281364440918 5.695693016052246 -2.5
-14.342890739440918 2.330942392349243 -2.5
-14.483940124511719 1.1692626476287842 -2.5
13.449213981628418 2.185717821121216 -2.5
13.229736328125 3.2608494758605957 -2.5
10.22890567779541 7.686537742614746 -2.347599983215332
8.863432884216309 9.227831840515137 -2.347599983215332
7.268407821655273 10.530121803283691 -2.347599983215332
4.537177562713623 11.96358871459961 -2.347599983215332
3.559804677963257 12.289887428283691 -2.347599983215332
2.559335947036743 12.53646469116211 -2.347599983215332
0.5151953101158142 12.784672737121582 -2.347599983215332
-1.5422850847244263 12.701757431030273 -2.347599983215332
-5.485170841217041 11.55968189239502 -2.347599983215332
-6.397533893585205 11.08084487915039 -2.347599983215332
-7.2684326171875 10.530121803283691 -2.347599983215332
-8.092177391052246 9.911112785339355 -2.347599983215332
-8.863447189331055 9.227836608886719 -2.347599983215332
-10.228920936584473 7.686537742614746 -2.347599983215332
-13.449223518371582 2.185722589492798 -2.5
-13.581493377685547 1.096411108970642 -2.5
9.52322769165039 9.765624781721272e-06 -1.8566049337387085
12.781865119934082 1.0318554639816284 -2.5
12.65738296508789 2.0570361614227295 -2.5
12.450819969177246 3.068862199783325 -2.5
11.797304153442383 5.026371955871582 -2.5
11.350424766540527 5.95718240737915 -2.499082088470459
9.0133638381958 7.985146522521973 -2.347599983215332
6.840468406677246 9.910151481628418 -2.347599983215332
5.162182331085205 10.879106521606445 -2.347599983215332
2.4086523056030273 11.798378944396973 -2.347599983215332
1.4514647722244263 11.953935623168945 -2.347599983215332
0.48486328125 12.03197193145752 -2.347599983215332
-0.4848730266094208 12.031967163085938 -2.347599983215332
-1.4514843225479126 11.953935623168945 -2.347599983215332
-2.4086570739746094 11.79837417602539 -2.347599983215332
-1.7987158298492432 4.742836952209473 -0.9889103770256042
-5.162216663360596 10.879101753234863 -2.347599983215332
-6.020878791809082 10.428446769714355 -2.347599983215332
-6.840497970581055 9.910140991210938 -2.347599983215332
-9.62667465209961 7.233979225158691 -2.347599983215332
-10.815688133239746 6.839423656463623 -2.4947941303253174
-11.797314643859863 5.0263671875 -2.5
-12.45082950592041 3.06884765625 -2.5
-12.781874656677246 1.0318554639816284 -2.5
12.068246841430664 0.9742528796195984 -2.5
11.95071792602539 1.9421874284744263 -2.5
11.755682945251465 2.897524356842041 -2.5
11.48440933227539 3.8340721130371094 -2.5
10.720664024353027 5.626650333404541 -2.5
9.089213371276855 6.830111980438232 -2.347599983215332
8.510146141052246 7.539340496063232 -2.347599983215332
7.875878810882568 8.19967269897461 -2.347599983215332
7.190536975860596 8.806836128234863 -2.347599983215332
6.458574295043945 9.356864929199219 -2.347599983215332
4.873979568481445 10.271723747253418 -2.347599983215332
4.03164529800415 10.630610466003418 -2.347599983215332
3.1631786823272705 10.920551300048828 -2.347599983215332
1.3704296350479126 11.286542892456055 -2.347599983215332
0.4577929675579071 11.360224723815918 -2.347599983215332
-0.4577978551387787 11.360224723815918 -2.347599983215332
-1.3704394102096558 11.286547660827637 -2.347599983215332
-2.2741894721984863 11.139677047729492 -2.347599983215332
-1.7985155582427979 4.742290019989014 -1.0472674369812012
-4.874008655548096 10.271723747253418 -2.347599983215332
-5.684726238250732 9.846220016479492 -2.347599983215332
-10.217246055603027 6.460990905761719 -2.4961118698120117
-10.720678329467773 5.626640319824219 -2.5
-11.13866138458252 4.745747089385986 -2.5
-11.95071792602539 1.9421972036361694 -2.5
-12.068251609802246 0.9742528796195984 -2.5
9.525785446166992 9.765624781721272e-06 -2.07723331451416
11.42733383178711 0.9225195050239563 -2.5
11.13138198852539 2.743642568588257 -2.5
10.547119140625 4.493715763092041 -2.5
8.05819320678711 7.138940334320068 -2.347599983215332
3.8175437450408936 10.066054344177246 -2.347599983215332
2.1534032821655273 10.548070907592773 -2.347599983215332
1.2976415157318115 10.687148094177246 -2.347599983215332
-1.2976610660552979 10.687143325805664 -2.347599983215332
-2.1534080505371094 10.548075675964355 -2.347599983215332
-1.798305630683899 4.741743087768555 -1.1058815717697144
-4.615160942077637 9.72622013092041 -2.347599983215332
-8.058207511901855 7.13894510269165 -2.347599983215332
-9.679643630981445 6.121044635772705 -2.497406244277954
-10.151328086853027 5.327826976776123 -2.5
-10.874516487121582 3.6304588317871094 -2.5
-11.427348136901855 0.9225048422813416 -2.5
10.323578834533691 3.446528196334839 -2.5
10.012778282165527 4.266059398651123 -2.5
7.649950981140137 6.777270317077637 -2.347599983215332
7.079809188842773 7.370863914489746 -2.347599983215332
6.463725566864014 7.916650295257568 -2.347599983215332
5.805747032165527 8.411088943481445 -2.347599983215332
5.110102653503418 8.850981712341309 -2.347599983215332
2.84344220161438 9.816718101501465 -2.347599983215332
-0.4115283191204071 10.211953163146973 -2.347599983215332
-2.843456983566284 9.816718101501465 -2.347599983215332
-1.7981054782867432 4.741196155548096 -1.1647073030471802
-4.381342887878418 9.233481407165527 -2.347599983215332
-6.46373987197876 7.916645526885986 -2.347599983215332
-7.079809188842773 7.370869159698486 -2.347599983215332
-7.649965763092041 6.777270317077637 -2.347599983215332
-10.01278305053711 4.266054630279541 -2.5
-10.323593139648438 3.4465184211730957 -2.5
-10.567445755004883 2.6046581268310547 -2.5
-10.742768287658691 1.7458739280700684 -2.5
10.055410385131836 2.4784374237060547 -2.5
7.774609088897705 5.842246055603027 -2.347599983215332
6.736762523651123 7.013715744018555 -2.347599983215332
3.4485349655151367 9.093070983886719 -2.347599983215332
2.7056639194488525 9.341069221496582 -2.347599983215332
1.172216773033142 9.654135704040527 -2.347599983215332
0.3915771543979645 9.717147827148438 -2.347599983215332
-0.39159178733825684 9.717143058776855 -2.347599983215332
-1.9452587366104126 9.5285005569458 -2.347599983215332
-2.705683469772339 9.341069221496582 -2.347599983215332
-1.7978954315185547 4.740649223327637 -1.2238879203796387
-4.169057369232178 8.786088943481445 -2.347599983215332
-6.150546550750732 7.533071041107178 -2.347599983215332
-6.736767292022705 7.013715744018555 -2.347599983215332
-7.279296875 6.448891639709473 -2.347599983215332
-7.774613857269287 5.842246055603027 -2.347599983215332
-8.753095626831055 5.535121917724609 -2.5
-9.170111656188965 4.812836647033691 -2.5
-9.527636528015137 4.05935525894165 -2.5
-9.823392868041992 3.2795262336730957 -2.5
-10.055415153503418 2.478447198867798 -2.5
9.588335037231445 2.3633153438568115 -2.5
9.367074966430664 3.127202033996582 -2.5
8.744140625 4.589292049407959 -2.5
6.941166877746582 6.149335861206055 -2.347599983215332
6.423842430114746 6.687924861907959 -2.347599983215332
3.2883543968200684 8.670693397521973 -2.347599983215332
2.5799901485443115 8.907177925109863 -2.347599983215332
1.117773413658142 9.2056884765625 -2.347599983215332
0.3733886778354645 9.26578140258789 -2.347599983215332
-0.37340331077575684 9.265786170959473 -2.347599983215332
-1.1177831888198853 9.205698013305664 -2.347599983215332
-2.580004930496216 8.907177925109863 -2.347599983215332
-1.7976806163787842 4.740087985992432 -1.2833749055862427
-4.636655330657959 8.030922889709473 -2.347599983215332
-5.267846584320068 7.631777286529541 -2.347599983215332
-5.8648681640625 7.183154106140137 -2.347599983215332
-6.423842430114746 6.687929630279541 -2.347599983215332
-8.744154930114746 4.589277267456055 -2.5
-9.0850830078125 3.870800733566284 -2.5
-9.36708927154541 3.127192258834839 -2.5
-9.58834457397461 2.3633203506469727 -2.5
-9.747426986694336 1.5841211080551147 -2.5
-9.843290328979492 0.7946386337280273 -2.5
9.434598922729492 9.765624781721272e-06 -2.5
9.404008865356445 0.75916987657547 -2.5
9.312421798706055 1.5134179592132568 -2.5
8.94906234741211 2.9876365661621094 -2.5
8.679638862609863 3.698051691055298 -2.5
7.958710670471191 5.032793045043945 -2.4951999187469482
7.082631587982178 5.322255611419678 -2.347599983215332
5.032734394073486 7.291196346282959 -2.347599983215332
4.429726600646973 7.672529220581055 -2.347599983215332
3.797978401184082 8.004091262817383 -2.347599983215332
-0.3567431569099426 8.852285385131836 -2.347599983215332
-2.4648633003234863 8.509682655334473 -2.347599983215332
-3.7979979515075684 8.004096031188965 -2.347599983215332
-4.429740905761719 7.672529220581055 -2.347599983215332
-6.137177467346191 6.389472484588623 -2.347599983215332
-6.631406307220459 5.874917030334473 -2.347599983215332
-7.381738185882568 5.547016620635986 -2.4467380046844482
-8.949071884155273 2.9876317977905273 -2.5
-9.312426567077637 1.5134228467941284 -2.5
-9.404023170471191 0.7591650485992432 -2.5
9.0 0.7265625 -2.5
8.912353515625 1.448403239250183 -2.5
8.7669038772583 2.160844564437866 -2.5
7.622875690460205 4.820424556732178 -2.497192859649658
6.77834939956665 5.093613147735596 -2.347599983215332
6.346513748168945 5.622524261474609 -2.347599983215332
5.362407207489014 6.567773342132568 -2.347599983215332
4.8165283203125 6.977963924407959 -2.347599983215332
4.239418983459473 7.342905044555664 -2.347599983215332
3.0066356658935547 7.927865982055664 -2.347599983215332
2.358954906463623 8.144091606140137 -2.347599983215332
1.022006869316101 8.417036056518555 -2.347599983215332
0.3414062559604645 8.471977233886719 -2.347599983215332
-0.34141600131988525 8.471986770629883 -2.347599983215332
-1.7972607612609863 4.738974571228027 -1.403302788734436
-3.634829044342041 7.660224437713623 -2.347599983215332
-5.362411975860596 6.567763328552246 -2.347599983215332
-5.873510837554932 6.114980220794678 -2.347599983215332
-6.346513748168945 5.622529029846191 -2.347599983215332
-7.199291706085205 5.409916877746582 -2.4933836460113525
-8.564614295959473 2.8592822551727295 -2.5
-8.912358283996582 1.448403239250183 -2.5
-9.000009536743164 0.7265527248382568 -2.5
8.627089500427246 0.6964550614356995 -2.5
8.403647422790527 2.0713086128234863 -2.5
7.96255350112915 3.392534017562866 -2.5
7.663754940032959 4.022260665893555 -2.5
5.630141258239746 5.861606121063232 -2.347599983215332
4.616962909698486 6.68883752822876 -2.347599983215332
2.8820555210113525 7.599384784698486 -2.347599983215332
2.2612156867980957 7.806645393371582 -2.347599983215332
1.6257128715515137 7.96328592300415 -2.347599983215332
0.9796532988548279 8.068276405334473 -2.347599983215332
0.32725584506988525 8.120942115783691 -2.347599983215332
-0.9796679615974426 8.068281173706055 -2.347599983215332
-1.6257177591323853 7.963281154632568 -2.347599983215332
-1.7970458269119263 4.738412857055664 -1.4637752771377563
-3.4842185974121094 7.342826843261719 -2.347599983215332
-4.616982460021973 6.688827991485596 -2.347599983215332
-5.630151271820068 5.861606121063232 -2.347599983215332
-7.962573051452637 3.3925390243530273 -2.5
-8.209735870361328 2.7408056259155273 -2.5
-8.403661727905273 2.0713231563568115 -2.5
-8.627094268798828 0.696459949016571 -2.5
8.201079368591309 1.3328075408935547 -2.5
7.022397518157959 4.44070291519165 -2.5
6.416357040405273 4.821591854095459 -2.4149584770202637
5.840014457702637 5.173803806304932 -2.347599983215332
5.404755592346191 5.626953125 -2.347599983215332
0.9404345750808716 7.745287895202637 -2.347599983215332
-0.31416991353034973 7.795854091644287 -2.347599983215332
-2.170717716217041 7.494140625 -2.347599983215332
-1.7968310117721558 4.737851619720459 -1.524621605873108
-3.344741106033325 7.048886775970459 -2.347599983215332
-7.022417068481445 4.440707683563232 -2.5
-7.356972694396973 3.8612353801727295 -2.5
-7.643818378448486 3.2567334175109863 -2.5
7.986806392669678 4.882812390860636e-06 -2.5
7.960907936096191 0.6426610946655273 -2.5
7.754726409912109 1.9113720655441284 -2.5
7.347700119018555 3.130566358566284 -2.5
7.071972370147705 3.711664915084839 -2.5
6.750370979309082 4.268686294555664 -2.5
5.195385456085205 5.408979415893555 -2.347599983215332
4.743295669555664 5.809496879577637 -2.347599983215332
4.260448932647705 6.172328948974609 -2.347599983215332
2.6595067977905273 7.01256799697876 -2.347599983215332
1.5001708269119263 7.348369121551514 -2.347599983215332
-1.7966161966323853 4.737280368804932 -1.5859277248382568
-3.2151756286621094 6.775825023651123 -2.347599983215332
-4.260463714599609 6.172319412231445 -2.347599983215332
-5.195385456085205 5.408988952636719 -2.347599983215332
-6.383227348327637 4.796674728393555 -2.499300241470337
-6.750380516052246 4.268681526184082 -2.5
-7.754745960235596 1.911376953125 -2.5
-7.883403301239014 1.2811864614486694 -2.5
7.686962604522705 4.882812390860636e-06 -2.5
7.291362285614014 2.434213876724243 -2.5
6.806464672088623 3.5723142623901367 -2.5
6.49694299697876 4.108422756195068 -2.5
6.132211685180664 4.608066082000732 -2.4946823120117188
5.000341892242432 5.205903053283691 -2.347599983215332
4.56521463394165 5.591391563415527 -2.347599983215332
3.6091794967651367 6.251293659210205 -2.347599983215332
2.0082664489746094 6.933373928070068 -2.347599983215332
1.4438525438308716 7.072494983673096 -2.347599983215332
0.2906494140625 7.212509632110596 -2.347599983215332
-0.2906591594219208 7.212514400482178 -2.347599983215332
-0.8700829744338989 7.165737152099609 -2.347599983215332
-1.4438672065734863 7.072490215301514 -2.347599983215332
-1.79214346408844 4.725502967834473 -1.6436660289764404
-3.609194278717041 6.251293659210205 -2.347599983215332
-4.565234184265137 5.591381549835205 -2.347599983215332
-5.000341892242432 5.205913066864014 -2.347599983215332
-6.145302772521973 4.617890357971191 -2.5
-6.806474685668945 3.5723094940185547 -2.5
-7.29137659072876 2.434213876724243 -2.5
-7.463603496551514 1.8396190404891968 -2.5
-7.587436199188232 1.2330858707427979 -2.5
-7.662045955657959 0.6185351610183716 -2.5
7.406879901885986 0.0 -2.5
7.382851600646973 0.5960058569908142 -2.5
7.310946941375732 1.1881444454193115 -2.5
7.025688171386719 2.345517635345459 -2.5
6.814169883728027 2.903247117996216 -2.5
6.558456897735596 3.442148447036743 -2.5
6.260214805603027 3.9587254524230957 -2.5
5.913413047790527 4.443656921386719 -2.4966423511505127
4.818134784698486 5.016220569610596 -2.347599983215332
4.398876667022705 5.387651443481445 -2.347599983215332
2.981699228286743 6.2838134765625 -2.347599983215332
2.466386556625366 6.503364086151123 -2.347599983215332
1.3912402391433716 6.814785003662109 -2.347599983215332
0.8383691310882568 6.904638290405273 -2.347599983215332
0.28004881739616394 6.949711799621582 -2.347599983215332
-0.8383837938308716 6.904643535614014 -2.347599983215332
-1.3912549018859863 6.814789772033691 -2.347599983215332
-1.7724609375 4.673588752746582 -1.6870827674865723
-2.9817235469818115 6.283818244934082 -2.347599983215332
-3.951103448867798 5.724140644073486 -2.347599983215332
-4.818149089813232 5.016220569610596 -2.347599983215332
-6.5584716796875 3.442148447036743 -2.5
-6.814184188842773 2.903251886367798 -2.5
-7.310956954956055 1.1881542205810547 -2.5
-7.382861137390137 0.5960009694099426 -2.5
7.052065372467041 1.1460790634155273 -2.5
6.936977386474609 1.709814429283142 -2.5
6.776894569396973 2.262460947036743 -2.5
6.038535118103027 3.818554639816284 -2.5
5.708212852478027 4.28945779800415 -2.4984803199768066
4.243110179901123 5.196869850158691 -2.347599983215332
2.8761181831359863 6.061298847198486 -2.347599983215332
1.8665673732757568 6.444164752960205 -2.347599983215332
1.3419774770736694 6.573466777801514 -2.347599983215332
0.2701367139816284 6.70361328125 -2.347599983215332
-1.341982364654541 6.573471546173096 -2.347599983215332
-1.8665869235992432 6.444164752960205 -2.347599983215332
-1.7700780630111694 4.667299747467041 -1.7466634511947632
-2.8761229515075684 6.061303615570068 -2.347599983215332
-3.3545262813568115 5.810224533081055 -2.347599983215332
-3.8111913204193115 5.521440505981445 -2.347599983215332
-5.338764667510986 4.729721546173096 -2.495771646499634
-5.711703777313232 4.292055606842041 -2.5
-6.326225280761719 3.320258617401123 -2.5
-6.5728759765625 2.8004491329193115 -2.5
-6.776914119720459 2.262460947036743 -2.5
-7.121425628662109 0.5749120712280273 -2.5
6.876035213470459 0.5550927519798279 -2.5
6.543388366699219 2.184506893157959 -2.5
6.108237266540527 3.2058544158935547 -2.5
5.1358642578125 4.549985408782959 -2.486603021621704
4.487377643585205 4.671870231628418 -2.347599983215332
3.6798534393310547 5.33120584487915 -2.347599983215332
3.238945245742798 5.610019207000732 -2.347599983215332
2.2970898151397705 6.056923866271973 -2.347599983215332
0.780810534954071 6.430649280548096 -2.347599983215332
-0.26084959506988525 6.472626686096191 -2.347599983215332
-1.767675757408142 4.660981178283691 -1.8065441846847534
-5.158789157867432 4.570282936096191 -2.497696876525879
-5.514882564544678 4.144169807434082 -2.5
-5.83047342300415 3.686967611312866 -2.5
-6.543407917022705 2.184506893157959 -2.5
-6.697963714599609 1.65090811252594 -2.5
-6.876039981842041 0.5550976395606995 -2.5
6.666840553283691 4.882812390860636e-06 -2.5
6.645224571228027 0.5364599227905273 -2.5
6.323735237121582 2.1111814975738525 -2.5
5.329760551452637 4.005063533782959 -2.5
4.336752891540527 4.515038967132568 -2.347599983215332
3.9593749046325684 4.849365234375 -2.347599983215332
3.556328058242798 5.152241230010986 -2.347599983215332
2.683793783187866 5.655991077423096 -2.347599983215332
2.219980478286743 5.853608131408691 -2.347599983215332
1.7417479753494263 6.013261795043945 -2.347599983215332
1.2522411346435547 6.133915901184082 -2.347599983215332
0.25206542015075684 6.255361080169678 -2.347599983215332
-1.7417724132537842 6.013256549835205 -2.347599983215332
-2.6838085651397705 5.655991077423096 -2.347599983215332
-4.568261623382568 4.756064414978027 -2.472919464111328
-5.329770565032959 4.005058288574219 -2.5
-5.634750843048096 3.5632030963897705 -2.5
-6.133364200592041 2.6131932735443115 -2.5
-6.323750019073486 2.1111767292022705 -2.5
-6.473134517669678 1.5954736471176147 -2.5
-6.645234107971191 0.5364599227905273 -2.5
6.427656173706055 0.5188964605331421 -2.5
6.365053653717041 1.0344287157058716 -2.5
6.11669397354126 2.042060613632202 -2.5
5.932538986206055 2.5276269912719727 -2.5
5.709917068481445 2.9968016147613525 -2.5
5.450253963470459 3.446542978286743 -2.5
5.155253887176514 3.8739306926727295 -2.5
4.258793830871582 4.433871746063232 -2.3834352493286133
3.8297412395477295 4.69058084487915 -2.347599983215332
3.439887523651123 4.98354959487915 -2.347599983215332
3.027724504470825 5.244184494018555 -2.347599983215332
2.147294759750366 5.661952972412109 -2.347599983215332
1.684731364250183 5.816381931304932 -2.347599983215332
0.7298974394798279 6.011308670043945 -2.347599983215332
0.24381835758686066 6.050551414489746 -2.347599983215332
-0.24382811784744263 6.050561428070068 -2.347599983215332
-0.7299121022224426 6.011308670043945 -2.347599983215332
-1.2112499475479126 5.933081150054932 -2.347599983215332
-1.6847411394119263 5.816376686096191 -2.347599983215332
-1.7628417015075684 4.648237228393555 -1.9272818565368652
-3.0277342796325684 5.244184494018555 -2.347599983215332
-4.456015586853027 4.639208793640137 -2.493807077407837
-4.826821327209473 4.276201248168945 -2.5
-5.155258655548096 3.8739256858825684 -2.5
-5.709931373596191 2.9967968463897705 -2.5
-5.932558536529541 2.5276172161102295 -2.5
6.222177505493164 0.5023046731948853 -2.5
6.161581993103027 1.0013623237609863 -2.5
5.921162128448486 1.9767773151397705 -2.5
5.276025295257568 3.33636212348938 -2.5
4.990454196929932 3.7500975131988525 -2.5
4.668935298919678 4.136328220367432 -2.4980852603912354
2.9309422969818115 5.076547622680664 -2.347599983215332
2.512939453125 5.29592752456665 -2.347599983215332
1.1725292205810547 5.743417739868164 -2.347599983215332
0.70655757188797 5.819145202636719 -2.347599983215332
0.2360205054283142 5.857123851776123 -2.347599983215332
-0.7065771222114563 5.819145202636719 -2.347599983215332
-1.6308836936950684 5.630449295043945 -2.347599983215332
-1.76040518283844 4.641806602478027 -1.9881725311279297
-2.9309473037719727 5.076547622680664 -2.347599983215332
-4.672519207000732 4.139492034912109 -2.5
-4.990468502044678 3.7500927448272705 -2.5
-5.276049613952637 3.33636212348938 -2.5
-5.527392387390137 2.9010009765625 -2.5
-5.742900371551514 2.446830987930298 -2.5
-5.92117166519165 1.976772427558899 -2.5
-6.222187519073486 0.5023095607757568 -2.5
6.047372817993164 -4.882812390860636e-06 -2.5
5.871645450592041 1.447231411933899 -2.5
5.563457012176514 2.3703808784484863 -2.5
5.354682445526123 2.810356378555298 -2.5
4.834526062011719 3.6329197883605957 -2.5
4.526225566864014 4.009892463684082 -2.4998347759246826
4.177836894989014 4.349594593048096 -2.4932408332824707
1.135888695716858 5.563969612121582 -2.347599983215332
-0.2286718636751175 5.674125671386719 -2.347599983215332
-1.135898470878601 5.56396484375 -2.347599983215332
-1.5799267292022705 5.454521179199219 -2.347599983215332
-1.7579492330551147 4.635336875915527 -2.049436330795288
-2.8393750190734863 4.917924880981445 -2.347599983215332
-3.232851505279541 4.683569431304932 -2.3526551723480225
-4.526528358459473 4.01016092300415 -2.5
-4.834540843963623 3.6329197883605957 -2.5
-5.111196041107178 3.232119083404541 -2.5
-5.354697227478027 2.810356378555298 -2.5
-5.871654987335205 1.4472362995147705 -2.5
-5.969067096710205 0.9700683355331421 -2.5
5.786596775054932 0.9404101371765137 -2.5
5.560815334320068 1.85647451877594 -2.5
5.190996170043945 2.7244579792022705 -2.5
3.127265453338623 4.5306396484375 -2.347599983215332
0.6635693311691284 5.465004920959473 -2.347599983215332
-0.6635791063308716 5.465004920959473 -2.347599983215332
-1.5316357612609863 5.287787914276123 -2.347599983215332
-2.3600194454193115 4.973622798919678 -2.347599983215332
-2.752578020095825 4.767587661743164 -2.347599983215332
-3.1272850036621094 4.530644416809082 -2.347599983215332
-4.0601806640625 4.227099418640137 -2.4994235038757324
-4.954946041107178 3.1333203315734863 -2.5
-5.191005706787109 2.7244529724121094 -2.5
-5.393403053283691 2.297919988632202 -2.5
-5.786611080169678 0.9404247999191284 -2.5
5.68701171875 -4.882812390860636e-06 -2.5
5.394350528717041 1.8008984327316284 -2.5
5.231938362121582 2.2291259765625 -2.5
4.806611061096191 3.0395214557647705 -2.5
4.546440124511719 3.416435480117798 -2.5
3.9346923828125 4.096450328826904 -2.4969258308410645
3.0336570739746094 4.395014762878418 -2.347599983215332
2.670161008834839 4.6248779296875 -2.347599983215332
1.0682079792022705 5.232421875 -2.347599983215332
0.2150292992591858 5.336020469665527 -2.347599983215332
-0.21503905951976776 5.336020469665527 -2.347599983215332
-0.6437157988548279 5.301411151885986 -2.347599983215332
-1.0682079792022705 5.232421875 -2.347599983215332
-1.7529979944229126 4.622270584106445 -2.1731555461883545
-2.289375066757202 4.82473611831665 -2.347599983215332
-3.1020848751068115 4.494140625 -2.400545120239258
-3.5898094177246094 4.396708965301514 -2.4951813220977783
-3.9395458698272705 4.101508617401123 -2.5
-4.256806373596191 3.7712011337280273 -2.5
-4.546464920043945 3.41644024848938 -2.5
-4.806621074676514 3.0395164489746094 -2.5
-5.035614967346191 2.642895460128784 -2.5
-5.231947898864746 2.2291259765625 -2.5
-5.521772384643555 1.361000895500183 -2.5
-5.613383769989014 0.9122704863548279 -2.5
-5.668593406677246 0.4576123058795929 -2.5
5.502255916595459 0.44419431686401367 -2.5
5.448671817779541 0.885498046875 -2.5
5.359750747680664 1.321069359779358 -2.5
5.078427791595459 2.1637256145477295 -2.5
4.665575981140137 2.9503369331359863 -2.5
4.131889343261719 3.6605420112609863 -2.5
2.5918211936950684 4.489179611206055 -2.347599983215332
2.2221875190734863 4.683178424835205 -2.347599983215332
1.4421825408935547 4.978999137878418 -2.347599983215332
1.036865234375 5.078901290893555 -2.347599983215332
0.6248144507408142 5.145859241485596 -2.347599983215332
-2.2221922874450684 4.683168888092041 -2.347599983215332
-3.092470645904541 4.480200290679932 -2.465439558029175
-4.131908893585205 3.6605467796325684 -2.5
-4.413061618804932 3.3161914348602295 -2.5
-4.665590763092041 2.9503417015075684 -2.5
-5.078442096710205 2.1637158393859863 -2.5
-5.359765529632568 1.3210546970367432 -2.5
5.343886375427246 0.4314013719558716 -2.5
5.291835784912109 0.8600097298622131 -2.5
5.085346698760986 1.6977392435073853 -2.5
4.932260513305664 2.101445198059082 -2.5
4.286020278930664 3.2207469940185547 -2.5
3.713876962661743 3.8665575981140137 -2.5
2.955580949783325 4.281899452209473 -2.4261491298675537
2.5172119140625 4.359965801239014 -2.347599983215332
1.7852343320846558 4.707284927368164 -2.347599983215332
1.4006688594818115 4.835678577423096 -2.347599983215332
-1.7479735612869263 4.609028339385986 -2.2985920906066895
-2.1582274436950684 4.548373699188232 -2.347599983215332
-2.5538573265075684 4.423398494720459 -2.38175630569458
-3.388930559158325 4.150683403015137 -2.4986839294433594
-4.286030292510986 3.2207372188568115 -2.5
-4.531293869018555 2.865419864654541 -2.5
-4.747172832489014 2.491513729095459 -2.5
-4.932265281677246 2.1014404296875 -2.5
-5.343896389007568 0.4314062297344208 -2.5
