ply
format ascii 1.0
element vertex 746
property float x
property float y
property float z
end_header
-14.283034324645996 -14.870219230651855 5.524743556976318
-14.286616325378418 -14.873950004577637 5.281895160675049
-14.290178298950195 -14.87765121459961 5.040300369262695
-14.29372787475586 -14.881361961364746 4.799892425537109
-14.304288864135742 -14.892338752746582 4.08510684967041
16.70452117919922 -12.552660942077637 4.133753776550293
-14.307778358459473 -14.895971298217773 3.8487749099731445
-14.31125259399414 -14.8995943069458 3.61330509185791
-14.31817626953125 -14.906810760498047 3.144692897796631
-14.331901550292969 -14.921088218688965 2.2150912284851074
-14.335309982299805 -14.924633026123047 1.983933687210083
-14.33871841430664 -14.92818832397461 1.7531591653823853
-23.95609474182129 -18.001811981201172 1.2043862342834473
-14.352304458618164 -14.942328453063965 0.832719087600708
-14.359091758728027 -14.9493989944458 0.3733026087284088
-26.817106246948242 -8.952865600585938 0.19581054151058197
-14.36587905883789 -14.956469535827637 -0.08618133515119553
-26.162357330322266 -8.734282493591309 -0.4202960133552551
-26.162357330322266 -8.734282493591309 -0.7260777354240417
-14.372668266296387 -14.963540077209473 -0.5461791753768921
-26.162357330322266 -8.734272003173828 -1.3382515907287598
-29.03938865661621 -7.157573223114014 -1.783542275428772
-26.162357330322266 -8.734272003173828 -1.6447956562042236
-18.46480369567871 -11.676440238952637 -1.3028053045272827
-14.382880210876465 -14.974174499511719 -1.2381550073623657
-26.84156608581543 -8.961039543151855 -2.002415895462036
-21.068817138671875 -15.8321533203125 -1.8648875951766968
17.18216323852539 -17.888500213623047 -1.755159854888916
-27.18631935119629 -9.076117515563965 -2.347599983215332
-25.378385543823242 -13.31960391998291 -2.347599983215332
-18.27880859375 -11.558813095092773 -1.771416187286377
-21.54731559753418 -19.089271545410156 -2.3578872680664062
-14.389726638793945 -14.981293678283691 -1.7014466524124146
-16.42178726196289 -23.791059494018555 -2.367827892303467
-14.468256950378418 -25.059730529785156 -2.370136260986328
-10.27664566040039 -27.097259521484375 -2.3737432956695557
-8.065404891967773 -27.844993591308594 -2.3744845390319824
-5.799155235290527 -28.4061279296875 -2.374687433242798
1.1674169301986694 -28.96942901611328 -2.3747613430023193
3.492568254470825 -28.763978958129883 -2.3733086585998535
5.794325828552246 -28.382484436035156 -2.372711420059204
10.257641792297363 -27.04717254638672 -2.369356393814087
14.443285942077637 -25.01645851135254 -2.366046190261841
16.394243240356445 -23.751312255859375 -2.363863945007324
18.23210906982422 -22.330522537231445 -2.3612494468688965
21.517093658447266 -19.062503814697266 -2.354576826095581
16.856103897094727 -12.666557312011719 -1.7270216941833496
24.224252700805664 -15.318510055541992 -2.347599983215332
25.37834930419922 -13.31960391998291 -2.347599983215332
27.186323165893555 -9.07613754272461 -2.347599983215332
27.828519821166992 -6.859116077423096 -2.347599983215332
-26.860158920288086 9.765624781721272e-06 -2.5
-26.7730655670166 -2.161323308944702 -2.5
-26.51232147216797 -4.308686256408691 -2.5
-24.61752700805664 -8.21854019165039 -2.4155826568603516
-15.839369773864746 -6.748520374298096 -1.6024761199951172
-20.164154052734375 -15.152377128601074 -2.347599983215332
-15.201838493347168 -13.467679977416992 -1.8902958631515503
-14.373847007751465 -20.8240966796875 -2.35508394241333
-9.279804229736328 -19.5567626953125 -2.014765501022339
-8.994843482971191 -23.717435836791992 -2.3609139919281006
-5.076840877532959 -24.86795425415039 -2.3623178005218506
1.0220800638198853 -25.36307144165039 -2.3625757694244385
10.853872299194336 -22.874095916748047 -2.3565192222595215
14.357436180114746 -20.80034637451172 -2.3523976802825928
15.966753005981445 -19.555727005004883 -2.349768877029419
16.839540481567383 -12.654106140136719 -1.9605367183685303
21.318012237548828 -13.480717658996582 -2.347599983215332
23.204418182373047 -9.886479377746582 -2.347599983215332
25.184789657592773 -8.40792465209961 -2.4712448120117188
26.512319564819336 -4.308657169342041 -2.5
26.773046493530273 -2.1613426208496094 -2.5
-23.97759246826172 1.4648437172581907e-05 -2.5
-23.899850845336914 -1.929384708404541 -2.5
-23.667098999023438 -3.8462939262390137 -2.5
-23.280824661254883 -5.738207817077637 -2.5
-19.936859130859375 -10.463666915893555 -2.347599983215332
-18.000173568725586 -13.5262451171875 -2.347599983215332
-12.790497779846191 -18.53022003173828 -2.347599983215332
-11.257707595825195 -19.498910903930664 -2.3475499153137207
-6.276020526885986 -21.667339324951172 -2.3519856929779053
-4.513486385345459 -22.108539581298828 -2.352670669555664
-2.720453977584839 -22.40495491027832 -2.3531901836395264
0.9087255597114563 -22.55014991760254 -2.3530805110931396
4.511948108673096 -22.10099983215332 -2.351869821548462
7.990761756896973 -21.069887161254883 -2.349513530731201
12.790483474731445 -18.53022003173828 -2.347599983215332
14.240092277526855 -17.440942764282227 -2.347599983215332
15.59731388092041 -16.2385196685791 -2.347599983215332
16.8533878326416 -14.930805206298828 -2.347599983215332
16.8266544342041 -12.644428253173828 -2.1945507526397705
19.03019905090332 -12.033979415893555 -2.347599983215332
20.489990234375 -10.753979682922363 -2.4127378463745117
22.058900833129883 -9.398432731628418 -2.5
23.28081512451172 -5.738207817077637 -2.5
-21.64891815185547 1.4648437172581907e-05 -2.5
-21.57869529724121 -1.7420018911361694 -2.5
-21.368621826171875 -3.472914934158325 -2.5
-21.019811630249023 -5.180922508239746 -2.5
-19.15167999267578 -10.051587104797363 -2.497722625732422
-15.109027862548828 -13.385443687438965 -2.3310041427612305
-13.46300983428955 -14.0164794921875 -2.24432635307312
-12.857104301452637 -15.747065544128418 -2.347599983215332
-11.548285484313965 -16.730581283569336 -2.347599983215332
-4.066362380981445 -19.9183349609375 -2.347599983215332
-2.4504199028015137 -20.180952072143555 -2.347599983215332
0.8185595273971558 -20.31269073486328 -2.347599983215332
2.4504051208496094 -20.180952072143555 -2.347599983215332
5.655922889709473 -19.526546478271484 -2.347599983215332
7.208827972412109 -19.008100509643555 -2.347599983215332
10.16458511352539 -17.605581283569336 -2.347599983215332
11.548285484313965 -16.730581283569336 -2.347599983215332
12.857099533081055 -15.747075080871582 -2.347599983215332
14.082514762878418 -14.661439895629883 -2.347599983215332
16.387563705444336 -12.314467430114746 -2.367182493209839
18.252206802368164 -11.542006492614746 -2.4938223361968994
19.169130325317383 -10.060747146606445 -2.5
19.916532516479492 -8.485649108886719 -2.5
21.578691482543945 -1.7420116662979126 -2.5
-19.727985382080078 9.765624781721272e-06 -2.5
-15.657221794128418 -11.765629768371582 -2.4819014072418213
-13.964323043823242 -12.371333122253418 -2.3641743659973145
-11.716283798217773 -14.349838256835938 -2.347599983215332
-10.523612976074219 -15.246068954467773 -2.347599983215332
-9.262685775756836 -16.04342269897461 -2.347599983215332
-7.941694259643555 -16.736753463745117 -2.347599983215332
-6.569184303283691 -17.321508407592773 -2.347599983215332
-5.154077053070068 -17.7939395904541 -2.347599983215332
-2.232983350753784 -18.390296936035156 -2.347599983215332
-0.7459521293640137 -18.51033592224121 -2.347599983215332
0.7459325790405273 -18.510345458984375 -2.347599983215332
6.569199085235596 -17.3215274810791 -2.347599983215332
7.941669940948486 -16.73676300048828 -2.347599983215332
9.262675285339355 -16.043432235717773 -2.347599983215332
10.523608207702637 -15.246078491210938 -2.347599983215332
11.716283798217773 -14.349838256835938 -2.347599983215332
14.527445793151855 -12.870200157165527 -2.4595108032226562
16.673891067504883 -10.543930053710938 -2.5
18.14932632446289 -7.732699871063232 -2.5
18.71271514892578 -6.247211933135986 -2.5
19.154720306396484 -4.721225261688232 -2.5
19.472509384155273 -3.1645946502685547 -2.5
-18.057313919067383 -1.457729458808899 -2.5
-17.88146209716797 -2.906020402908325 -2.5
-16.040973663330078 -8.418950080871582 -2.5
-15.311508178710938 -9.682416915893555 -2.5
-14.48275375366211 -10.88308048248291 -2.5
-13.559479713439941 -12.01266098022461 -2.4998927116394043
-10.83740234375 -13.273393630981445 -2.3647115230560303
-9.6637544631958 -14.000346183776855 -2.347599983215332
-8.505854606628418 -14.732553482055664 -2.347599983215332
-6.032441139221191 -15.906206130981445 -2.347599983215332
-4.732949256896973 -16.34003448486328 -2.347599983215332
-2.050537109375 -16.88766098022461 -2.347599983215332
-0.6849951148033142 -16.997905731201172 -2.347599983215332
2.050532102584839 -16.887670516967773 -2.347599983215332
3.402778148651123 -16.66789436340332 -2.347599983215332
4.732944011688232 -16.34005355834961 -2.347599983215332
6.032426834106445 -15.90621566772461 -2.347599983215332
7.292778015136719 -15.369233131408691 -2.347599983215332
9.673169136047363 -14.013998985290527 -2.349886417388916
12.53866195678711 -13.054125785827637 -2.4978535175323486
13.560063362121582 -12.013168334960938 -2.5
17.58963394165039 -4.335453987121582 -2.5
17.881450653076172 -2.906020402908325 -2.5
18.05729866027832 -1.457729458808899 -2.5
-16.743772506713867 9.765624781721272e-06 -2.5
-16.52692985534668 -2.6858935356140137 -2.5
-14.825861930847168 -7.781215667724609 -2.5
-13.385683059692383 -10.058686256408691 -2.5
-12.532880783081055 -11.103168487548828 -2.5
-10.58175277709961 -12.960268020629883 -2.4981651306152344
-8.019428253173828 -13.890043258666992 -2.3947503566741943
-6.740361213684082 -14.204995155334473 -2.347599983215332
0.6331005692481995 -15.71031665802002 -2.347599983215332
1.8951903581619263 -15.60842227935791 -2.347599983215332
3.145014524459839 -15.40529727935791 -2.347599983215332
4.374413967132568 -15.102279663085938 -2.347599983215332
6.841156959533691 -14.417455673217773 -2.3827104568481445
8.212641716003418 -14.224711418151855 -2.452449083328247
9.49868106842041 -13.761225700378418 -2.4966211318969727
10.58950138092041 -12.969789505004883 -2.5
14.151650428771973 -8.948969841003418 -2.5
15.403905868530273 -6.562993049621582 -2.5
15.882060050964355 -5.302202224731445 -2.5
16.257211685180664 -4.007045745849609 -2.5
16.526933670043945 -2.6858935356140137 -2.5
16.689456939697266 -1.347314476966858 -2.5
-15.561091423034668 1.4648437172581907e-05 -2.5
-15.108920097351074 -3.7240185737609863 -2.5
-14.760263442993164 -4.927700042724609 -2.5
-14.315885543823242 -6.099418640136719 -2.5
-13.778666496276855 -7.231586933135986 -2.5
-13.152074813842773 -8.316869735717773 -2.5
-10.779553413391113 -11.222700119018555 -2.5
-4.188818454742432 -14.461469650268555 -2.4188389778137207
-2.9763574600219727 -14.579145431518555 -2.3905558586120605
-1.7810205221176147 -14.668022155761719 -2.3738298416137695
-0.5936230421066284 -14.730317115783691 -2.3684511184692383
1.7906445264816284 -14.747289657592773 -2.3866569995880127
3.003837823867798 -14.713784217834473 -2.412630796432495
5.502285003662109 -14.508315086364746 -2.4928605556488037
6.667070388793945 -14.050580978393555 -2.4985604286193848
7.780541896820068 -13.476293563842773 -2.5
9.841543197631836 -12.053695678710938 -2.5
10.779550552368164 -11.222709655761719 -2.5
11.6476411819458 -10.318910598754883 -2.5
12.440195083618164 -9.348217964172363 -2.5
13.15206527709961 -8.316869735717773 -2.5
15.108905792236328 -3.7240185737609863 -2.5
15.35958480834961 -2.496166944503784 -2.5
15.510615348815918 -1.2521483898162842 -2.5
-14.53105640411377 9.765624781721272e-06 -2.5
-14.108808517456055 -3.4775145053863525 -2.5
-13.783239364624023 -4.601518630981445 -2.5
-12.866616249084473 -6.75292444229126 -2.5
-10.876649856567383 -9.635873794555664 -2.5
-10.066020011901855 -10.479828834533691 -2.5
-8.254584312438965 -11.958813667297363 -2.5
-5.152797698974609 -13.586771965026855 -2.5
-1.749062418937683 -14.404857635498047 -2.4964919090270996
-0.5841699242591858 -14.495854377746582 -2.4959678649902344
1.749941349029541 -14.412065505981445 -2.4977400302886963
2.9065818786621094 -14.237397193908691 -2.5
4.042778015136719 -13.957338333129883 -2.5
6.229350566864014 -13.128090858459473 -2.5
7.265527248382568 -12.58426284790039 -2.5
8.2545747756958 -11.958832740783691 -2.5
9.19009780883789 -11.255844116210938 -2.5
10.066010475158691 -10.479838371276855 -2.5
12.866605758666992 -6.752914905548096 -2.5
14.108803749084473 -3.4775145053863525 -2.5
14.483930587768555 -1.1692577600479126 -2.5
-13.581488609313965 -1.096411108970642 -2.5
-13.229741096496582 -3.2608349323272705 -2.5
-12.924452781677246 -4.314799785614014 -2.5
-11.51628589630127 -7.28246545791626 -2.5
-10.198966979980469 -9.035492897033691 -2.5
-8.617494583129883 -10.554496765136719 -2.5
-7.740268230438232 -11.213706016540527 -2.5
-4.831733226776123 -12.740229606628418 -2.5
-3.790903329849243 -13.087699890136719 -2.5
-0.548657238483429 -13.61461353302002 -2.5
0.5486425757408142 -13.6146240234375 -2.5
1.6423876285552979 -13.526323318481445 -2.5
4.831733226776123 -12.740229606628418 -2.5
6.812841415405273 -11.800180435180664 -2.5
7.740258693695068 -11.213715553283691 -2.5
8.617494583129883 -10.554516792297363 -2.5
10.892934799194336 -8.185522079467773 -2.5
11.51626968383789 -7.28246545791626 -2.5
12.064916610717773 -6.332172870635986 -2.5
13.229721069335938 -3.2608447074890137 -2.5
13.581483840942383 -1.096411108970642 -2.5
-12.823453903198242 0.0 -2.5
-12.781869888305664 -1.0318505764007568 -2.5
-12.450834274291992 -3.068852424621582 -2.5
-11.35460376739502 -5.9593505859375 -2.5
-10.25161361694336 -7.703578948974609 -2.5
-8.110136985778809 -9.933090209960938 -2.5
-7.284560203552246 -10.553481101989746 -2.5
-6.411728382110596 -11.10543441772461 -2.5
-4.547285079956055 -11.9901123046875 -2.5
-0.5163525342941284 -12.813041687011719 -2.5
3.567700147628784 -12.317152976989746 -2.5
4.547255992889404 -11.990131378173828 -2.5
7.2845458984375 -10.55349063873291 -2.5
8.11013126373291 -9.933110237121582 -2.5
10.251601219177246 -7.703598499298096 -2.5
10.838241577148438 -6.853705883026123 -2.5
11.7972993850708 -5.026362419128418 -2.5
12.450819969177246 -3.068852424621582 -2.5
12.657377243041992 -2.0570361614227295 -2.5
12.78184986114502 -1.0318554639816284 -2.5
-12.068254470825195 -0.9742431640625 -2.5
-11.950719833374023 -1.9421874284744263 -2.5
-11.13866901397705 -4.745737075805664 -2.5
-9.062602043151855 -8.02877426147461 -2.5
-8.38717269897461 -8.73196792602539 -2.5
-7.65734338760376 -9.378549575805664 -2.5
-6.877856254577637 -9.964282035827637 -2.5
-5.190400123596191 -10.938539505004883 -2.5
-3.3685302734375 -11.629487037658691 -2.5
-1.4593993425369263 -12.019232749938965 -2.5
-0.4875195324420929 -12.097700119018555 -2.5
1.459389567375183 -12.019232749938965 -2.5
2.421811580657959 -11.86282730102539 -2.5
3.3685154914855957 -11.629487037658691 -2.5
4.293393611907959 -11.320727348327637 -2.5
8.387167930603027 -8.73195743560791 -2.5
9.6792573928833 -7.273500919342041 -2.5
10.233134269714355 -6.471059322357178 -2.5
10.720659255981445 -5.626645565032959 -2.5
11.484423637390137 -3.8340673446655273 -2.5
12.0682373046875 -0.97425776720047 -2.5
-11.316054344177246 -1.8390331268310547 -2.5
-11.131379127502441 -2.743647336959839 -2.5
-10.547133445739746 -4.493715763092041 -2.5
-9.689702033996582 -6.127387523651123 -2.5
-7.941752910614014 -8.268227577209473 -2.5
-7.250683307647705 -8.880473136901855 -2.5
-6.512592792510986 -9.435102462768555 -2.5
-4.914755821228027 -10.357622146606445 -2.5
-4.065380573272705 -10.71950626373291 -2.5
-3.189624071121216 -11.011879920959473 -2.5
-1.3818895816802979 -11.380922317504883 -2.5
-0.4616406261920929 -11.455209732055664 -2.5
0.46162107586860657 -11.455219268798828 -2.5
2.2931933403015137 -11.232827186584473 -2.5
3.1896190643310547 -11.011869430541992 -2.5
4.065371036529541 -10.71950626373291 -2.5
5.732260704040527 -9.928559303283691 -2.5
7.941747665405273 -8.268227577209473 -2.5
10.151312828063965 -5.327826976776123 -2.5
10.874502182006836 -3.630444288253784 -2.5
11.3160400390625 -1.8390380144119263 -2.5
-10.883712768554688 4.882812390860636e-06 -2.5
-10.848410606384277 -0.8757665753364563 -2.5
-10.567445755004883 -2.6046338081359863 -2.5
-10.323593139648438 -3.4465184211730957 -2.5
-10.012784957885742 -4.266049861907959 -2.5
-9.198798179626465 -5.816967487335205 -2.5
-8.146567344665527 -7.217221736907959 -2.5
-6.182661056518555 -8.957104682922363 -2.5
-5.441860198974609 -9.425551414489746 -2.5
-4.665766716003418 -9.832876205444336 -2.5
-3.0280370712280273 -10.453989028930664 -2.5
-0.43825194239616394 -10.874868392944336 -2.5
1.3118847608566284 -10.804340362548828 -2.5
3.028027296066284 -10.453989028930664 -2.5
5.441860198974609 -9.42556095123291 -2.5
6.883315086364746 -8.430571556091309 -2.5
8.146547317504883 -7.217231273651123 -2.5
8.700883865356445 -6.538305282592773 -2.5
10.012748718261719 -4.266049861907959 -2.5
10.567426681518555 -2.6046435832977295 -2.5
-10.35635757446289 0.0 -2.5
-10.055421829223633 -2.478442430496216 -2.5
-9.823383331298828 -3.2795262336730957 -2.5
-9.527641296386719 -4.059340953826904 -2.5
-8.27932071685791 -6.221498966217041 -2.5
-7.174096584320068 -7.469027996063232 -2.5
-5.178183555603027 -8.968862533569336 -2.5
-2.071542978286743 -10.147055625915527 -2.5
-1.2483251094818115 -10.280835151672363 -2.5
4.439682483673096 -9.356450080871582 -2.5
5.178178787231445 -8.968862533569336 -2.5
5.883061408996582 -8.523119926452637 -2.5
6.549824237823486 -8.0220947265625 -2.5
7.174096584320068 -7.469018459320068 -2.5
7.7518310546875 -6.867534160614014 -2.5
8.753070831298828 -5.535112380981445 -2.5
9.52762222290039 -4.059340953826904 -2.5
10.055410385131836 -2.478442430496216 -2.5
10.222241401672363 -1.6612792015075684 -2.5
-9.875311851501465 4.882812390860636e-06 -2.5
-9.843280792236328 -0.7946240305900574 -2.5
-9.747421264648438 -1.5841064453125 -2.5
-9.367084503173828 -3.127192258834839 -2.5
-8.744150161743164 -4.589282035827637 -2.5
-8.346513748168945 -5.278022289276123 -2.5
-7.894741058349609 -5.932514667510986 -2.5
-7.391767501831055 -6.548540115356445 -2.5
-6.840864181518555 -7.122094631195068 -2.5
-5.609809398651123 -8.127202033996582 -2.5
-4.937655925750732 -8.552250862121582 -2.5
-1.1903369426727295 -9.803305625915527 -2.5
1.1903271675109863 -9.803296089172363 -2.5
1.9753124713897705 -9.675726890563965 -2.5
3.501826047897339 -9.233569145202637 -2.5
4.233466625213623 -8.92184066772461 -2.5
6.245581150054932 -7.649457931518555 -2.5
7.391757488250732 -6.548530101776123 -2.5
7.894731044769287 -5.932504653930664 -2.5
8.744150161743164 -4.589282035827637 -2.5
9.085062980651855 -3.87078595161438 -2.5
9.367070198059082 -3.127192258834839 -2.5
9.588339805603027 -2.3633153438568115 -2.5
9.747416496276855 -1.5841015577316284 -2.5
9.843266487121582 -0.794628918170929 -2.5
-9.434609413146973 9.765624781721272e-06 -2.5
-8.94906234741211 -2.9876317977905273 -2.5
-8.679648399353027 -3.6980419158935547 -2.5
-7.97402811050415 -5.042475700378418 -2.5
-7.542431354522705 -5.667758464813232 -2.5
-5.966879844665527 -7.308080673217773 -2.5
-4.044545650482178 -8.523695945739746 -2.5
-3.3455564975738525 -8.82149887084961 -2.5
-2.624872922897339 -9.062104225158691 -2.5
-1.8871630430221558 -9.24393081665039 -2.5
1.8871581554412842 -9.243940353393555 -2.5
2.6248583793640137 -9.062104225158691 -2.5
3.3455615043640137 -8.82149887084961 -2.5
5.966865062713623 -7.308080673217773 -2.5
6.535575866699219 -6.804252624511719 -2.5
7.0618896484375 -6.256303787231445 -2.5
7.542407035827637 -5.667758464813232 -2.5
8.949052810668945 -2.9876317977905273 -2.5
9.160429954528809 -2.2578368186950684 -2.5
9.312417030334473 -1.5134081840515137 -2.5
-9.029287338256836 0.0 -2.5
-9.0 -0.7265527248382568 -2.5
-8.912353515625 -1.4483983516693115 -2.5
-8.766913414001465 -2.1608641147613525 -2.5
-8.56459903717041 -2.8592920303344727 -2.5
-7.218398094177246 -5.424272537231445 -2.5
-6.758510589599609 -5.987524509429932 -2.5
-6.254799842834473 -6.511938095092773 -2.5
-5.710532188415527 -6.994115829467773 -2.5
-5.129223346710205 -7.430942058563232 -2.5
-3.2018308639526367 -8.442523956298828 -2.5
-1.8060888051986694 -8.846792221069336 -2.5
-1.0883593559265137 -8.963432312011719 -2.5
-0.36356931924819946 -9.021957397460938 -2.5
1.088354468345642 -8.963441848754883 -2.5
1.8060839176177979 -8.8468017578125 -2.5
3.87078595161438 -8.157514572143555 -2.5
4.514638423919678 -7.81957483291626 -2.5
5.129203796386719 -7.430952072143555 -2.5
6.254799842834473 -6.511938095092773 -2.5
6.758505821228027 -5.987524509429932 -2.5
7.631444931030273 -4.825854301452637 -2.5
7.995019435882568 -4.196108341217041 -2.5
8.306737899780273 -3.5391845703125 -2.5
8.564589500427246 -2.8592822551727295 -2.5
8.766899108886719 -2.160844564437866 -2.5
-8.627089500427246 -0.6964501738548279 -2.5
-8.543070793151855 -1.3883886337280273 -2.5
-8.40365219116211 -2.0713133811950684 -2.5
-7.962573051452637 -3.392524242401123 -2.5
-7.663764476776123 -4.022250652313232 -2.5
-6.9193115234375 -5.199506759643555 -2.5
-6.478481292724609 -5.739418983459473 -2.5
-5.99563455581665 -6.242114067077637 -2.5
-5.473910808563232 -6.704320907592773 -2.5
-4.916694164276123 -7.12304162979126 -2.5
-4.327582836151123 -7.495580673217773 -2.5
-3.069164991378784 -8.0927095413208 -2.5
-2.408017635345459 -8.313432693481445 -2.5
-1.7312548160552979 -8.480229377746582 -2.5
-1.0432665348052979 -8.592036247253418 -2.5
-0.3485107421875 -8.648138999938965 -2.5
2.408012628555298 -8.313432693481445 -2.5
3.069164991378784 -8.0927095413208 -2.5
3.71038556098938 -7.819506645202637 -2.5
4.916679382324219 -7.123061180114746 -2.5
5.473901271820068 -6.704320907592773 -2.5
6.478471755981445 -5.739428520202637 -2.5
7.315244197845459 -4.62588357925415 -2.5
7.962548732757568 -3.392534017562866 -2.5
8.209721565246582 -2.7408056259155273 -2.5
8.403642654418945 -2.0713133811950684 -2.5
8.543066024780273 -1.3883837461471558 -2.5
-8.30868148803711 4.882812390860636e-06 -2.5
-7.643813133239746 -3.256723642349243 -2.5
-7.356977462768555 -3.8612256050109863 -2.5
-7.022417068481445 -4.440707683563232 -2.5
-6.642314434051514 -4.991372108459473 -2.5
-6.219140529632568 -5.50967264175415 -2.5
-4.719868183135986 -6.837914943695068 -2.5
-3.5618650913238525 -7.506489276885986 -2.5
-2.946298837661743 -7.768744945526123 -2.5
-2.3116259574890137 -7.980629920959473 -2.5
-1.001503825187683 -8.248100280761719 -2.5
-0.3345605432987213 -8.3019380569458 -2.5
1.001499056816101 -8.248109817504883 -2.5
1.6619482040405273 -8.140766143798828 -2.5
2.3116209506988525 -7.980639457702637 -2.5
2.946293830871582 -7.768744945526123 -2.5
4.154330730438232 -7.195522308349609 -2.5
6.642299652099609 -4.991372108459473 -2.5
7.022402286529541 -4.440698146820068 -2.5
8.20108413696289 -1.332802653312683 -2.5
-7.960922718048096 -0.6426708698272705 -2.5
-7.575786113739014 -2.529165029525757 -2.5
-6.750375747680664 -4.2686767578125 -2.5
-6.38500452041626 -4.798022270202637 -2.5
-5.532665729522705 -5.760102272033691 -2.5
-3.423891544342041 -7.215678691864014 -2.5
-2.2220799922943115 -7.671469688415527 -2.5
-0.9627050757408142 -7.928578853607178 -2.5
-0.3216015696525574 -7.980336666107178 -2.5
2.2220654487609863 -7.671479225158691 -2.5
3.4238719940185547 -7.215688228607178 -2.5
3.993398427963257 -6.916781902313232 -2.5
5.051215648651123 -6.186615943908691 -2.5
5.532651424407959 -5.760112285614014 -2.5
5.978202819824219 -5.296235084533691 -2.5
7.347700119018555 -3.130561351776123 -2.5
7.883378505706787 -1.281166911125183 -2.5
-7.686972618103027 4.882812390860636e-06 -2.5
-7.587416648864746 -1.2330809831619263 -2.5
-7.463598251342773 -1.8396142721176147 -2.5
-7.071850299835205 -3.0130321979522705 -2.5
-5.75377893447876 -5.097397327423096 -2.5
-5.324946403503418 -5.543862342834473 -2.5
-4.861596584320068 -5.954350471496582 -2.5
-4.366703987121582 -6.326244831085205 -2.5
-3.8434863090515137 -6.6571044921875 -2.5
-2.725834846496582 -7.187446117401123 -2.5
-2.1386570930480957 -7.383471488952637 -2.5
-1.53759765625 -7.5316162109375 -2.5
-0.30953124165534973 -7.680727481842041 -2.5
0.3095166087150574 -7.680747032165527 -2.5
2.1386425495147705 -7.383471488952637 -2.5
2.725825071334839 -7.187426567077637 -2.5
4.861572265625 -5.954360008239746 -2.5
5.753769397735596 -5.097407341003418 -2.5
6.145277976989746 -4.617885589599609 -2.5
6.806455135345459 -3.5723094940185547 -2.5
7.291357040405273 -2.434213876724243 -2.5
7.587416648864746 -1.233071208000183 -2.5
-7.406874656677246 4.882812390860636e-06 -2.5
-7.310961723327637 -1.1881444454193115 -2.5
-7.025693416595459 -2.345522403717041 -2.5
-6.55846643447876 -3.442143440246582 -2.5
-6.260219573974609 -3.9587156772613525 -2.5
-5.544126033782959 -4.911674499511719 -2.5
-3.1752684116363525 -6.691752910614014 -2.5
-2.060727596282959 -7.114428520202637 -2.5
-1.4815624952316284 -7.257182598114014 -2.5
-0.8928027153015137 -7.352866172790527 -2.5
-0.2982470691204071 -7.400864124298096 -2.5
0.2982470691204071 -7.40087366104126 -2.5
2.0607128143310547 -7.114438533782959 -2.5
3.1752636432647705 -6.691752910614014 -2.5
3.703437328338623 -6.414535999298096 -2.5
5.544130802154541 -4.911664962768555 -2.5
6.260210037231445 -3.9587254524230957 -2.5
6.814169883728027 -2.903247117996216 -2.5
7.025683403015137 -2.345512628555298 -2.5
7.382851600646973 -0.5960009694099426 -2.5
-7.121420860290527 -0.5748974680900574 -2.5
-7.052074909210205 -1.1460741758346558 -2.5
-6.936986923217773 -1.709814429283142 -2.5
-6.5728759765625 -2.8004345893859863 -2.5
-6.326225280761719 -3.32024884223938 -2.5
-5.711689472198486 -4.292055606842041 -2.5
-5.34780740737915 -4.737739086151123 -2.5
-0.2876855432987213 -7.138803482055664 -2.5
0.2876855432987213 -7.138803482055664 -2.5
3.5722949504852295 -6.187387466430664 -2.5
4.058578968048096 -5.87987756729126 -2.5
5.347792625427246 -4.737739086151123 -2.5
6.936982154846191 -1.7098193168640137 -2.5
7.052060604095459 -1.1460790634155273 -2.5
7.121410846710205 -0.5748974680900574 -2.5
-6.809072017669678 -1.1065869331359863 -2.5
-6.108232498168945 -3.2058544158935547 -2.5
-5.514887809753418 -4.144155025482178 -2.5
-3.449213743209839 -5.974194049835205 -2.5
-2.9572997093200684 -6.232367992401123 -2.5
-2.4462108612060547 -6.450121879577637 -2.5
-1.9192626476287842 -6.626039981842041 -2.5
-0.8315087556838989 -6.848110198974609 -2.5
0.2777685523033142 -6.89281702041626 -2.5
0.8315087556838989 -6.848100662231445 -2.5
1.379848599433899 -6.758989334106445 -2.5
1.919252872467041 -6.626049518585205 -2.5
2.4462010860443115 -6.450121879577637 -2.5
2.9572949409484863 -6.232378005981445 -2.5
4.778696060180664 -4.975141525268555 -2.5
5.163525104522705 -4.574487209320068 -2.5
6.346391677856445 -2.7039403915405273 -2.5
6.543388366699219 -2.184506893157959 -2.5
6.697948932647705 -1.6508984565734863 -2.5
-6.580512523651123 -1.0694433450698853 -2.5
-6.323744773864746 -2.1111767292022705 -2.5
-6.133354187011719 -2.613168954849243 -2.5
-5.9031982421875 -3.0982372760772705 -2.5
-5.329760551452637 -4.005043983459473 -2.5
-4.990210056304932 -4.420932292938232 -2.5
-4.6182861328125 -4.808129787445068 -2.5
-2.858027219772339 -6.023159027099609 -2.5
-0.26845213770866394 -6.661430358886719 -2.5
1.3335399627685547 -6.5321044921875 -2.5
1.854824185371399 -6.403617858886719 -2.5
2.8580174446105957 -6.023169040679932 -2.5
3.3334131240844727 -5.773637771606445 -2.5
4.216406345367432 -5.164165019989014 -2.5
5.329751014709473 -4.005053520202637 -2.5
6.580497741699219 -1.069433569908142 -2.5
6.645219802856445 -0.5364599227905273 -2.5
-6.448569297790527 0.0 -2.5
-6.427660942077637 -0.5188964605331421 -2.5
-6.365053653717041 -1.0344336032867432 -2.5
-6.11669921875 -2.042055606842041 -2.5
-5.932548522949219 -2.5276219844818115 -2.5
-5.709911823272705 -2.9967918395996094 -2.5
-5.450258731842041 -3.446537971496582 -2.5
-4.826816082000732 -4.276186466217041 -2.5
-4.467080116271973 -4.650717735290527 -2.5
-4.078369140625 -4.995092868804932 -2.5
-2.764453172683716 -5.825961589813232 -2.5
-2.2867040634155273 -6.029506683349609 -2.5
-1.2898778915405273 -6.3182373046875 -2.5
0.2596533000469208 -6.443325042724609 -2.5
0.7772851586341858 -6.401547908782959 -2.5
1.79409658908844 -6.193959712982178 -2.5
3.2242724895477295 -5.584614276885986 -2.5
3.6631884574890137 -5.307065486907959 -2.5
4.078364372253418 -4.995082855224609 -2.5
4.82681131362915 -4.276186466217041 -2.5
5.155249118804932 -3.8739306926727295 -2.5
5.709917068481445 -2.9968016147613525 -2.5
6.365048885345459 -1.0344189405441284 -2.5
-6.24242639541626 0.0 -2.5
-6.222182273864746 -0.5023046731948853 -2.5
-6.161591529846191 -1.0013525485992432 -2.5
-6.061025142669678 -1.4939062595367432 -2.5
-5.921162128448486 -1.9767626523971558 -2.5
-5.742895603179932 -2.4468212127685547 -2.5
-4.990454196929932 -3.7500829696655273 -2.5
-4.672519207000732 -4.139487266540527 -2.5
-2.676079034805298 -5.639711856842041 -2.5
-2.2135984897613525 -5.836762428283691 -2.5
-1.7367626428604126 -5.995952129364014 -2.5
-1.2486425638198853 -6.116264343261719 -2.5
-0.7524462938308716 -6.196908950805664 -2.5
-0.25136229395866394 -6.237358093261719 -2.5
0.2513525187969208 -6.237358093261719 -2.5
1.7367430925369263 -5.995961666107178 -2.5
2.2135937213897705 -5.836762428283691 -2.5
2.676079034805298 -5.639711856842041 -2.5
3.121210813522339 -5.406098365783691 -2.5
3.546093702316284 -5.137407302856445 -2.5
3.9479832649230957 -4.835405349731445 -2.5
4.990448951721191 -3.7500927448272705 -2.5
6.061020374298096 -1.4939111471176147 -2.5
6.222172737121582 -0.5022948980331421 -2.5
-6.027768611907959 -0.4866064488887787 -2.5
-5.736147403717041 -1.9150097370147705 -2.5
-5.354697227478027 -2.8103466033935547 -2.5
-5.111186504364014 -3.23211407661438 -2.5
-4.834531307220459 -3.6329052448272705 -2.5
-3.824638605117798 -4.684330940246582 -2.5
-3.023691415786743 -5.237172603607178 -2.5
-2.592470645904541 -5.4635009765625 -2.5
-2.1444334983825684 -5.654399394989014 -2.5
-1.6824902296066284 -5.808608055114746 -2.5
-1.209633708000183 -5.925160884857178 -2.5
-0.728930652141571 -6.003276348114014 -2.5
-0.24351073801517487 -6.04247522354126 -2.5
0.2435009777545929 -6.04247522354126 -2.5
1.209633708000183 -5.925160884857178 -2.5
2.592456102371216 -5.4635009765625 -2.5
3.023691415786743 -5.2371826171875 -2.5
3.435292959213257 -4.976889610290527 -2.5
4.189155101776123 -4.361381530761719 -2.5
4.834526062011719 -3.6329150199890137 -2.5
5.111171722412109 -3.23211407661438 -2.5
5.736152172088623 -1.9150097370147705 -2.5
5.969052791595459 -0.9700585603713989 -2.5
6.027753829956055 -0.4866064488887787 -2.5
-5.862524509429932 9.765624781721272e-06 -2.5
-5.843510627746582 -0.47172361612319946 -2.5
-5.786601543426514 -0.9404150247573853 -2.5
-5.692162990570068 -1.402993083000183 -2.5
-5.56082010269165 -1.8564647436141968 -2.5
-5.393398284912109 -2.297914981842041 -2.5
-5.191000938415527 -2.7244482040405273 -2.5
-4.686748027801514 -3.521860361099243 -2.5
-4.388159275054932 -3.8875732421875 -2.5
-3.3302977085113525 -4.824750900268555 -2.5
-2.9312596321105957 -5.077085018157959 -2.5
-2.5132176876068115 -5.296489238739014 -2.5
-2.0788817405700684 -5.481547832489014 -2.5
-1.1726610660552979 -5.744038105010986 -2.5
-0.7066503763198853 -5.819770336151123 -2.5
-0.23605956137180328 -5.857758522033691 -2.5
0.2360546886920929 -5.857768535614014 -2.5
0.7066406011581421 -5.819770336151123 -2.5
1.6310497522354126 -5.631059646606445 -2.5
3.707719564437866 -4.541127681732178 -2.5
4.061098575592041 -4.228061199188232 -2.5
4.388149261474609 -3.887563467025757 -2.5
4.686738014221191 -3.521860361099243 -2.5
4.954926490783691 -3.133315324783325 -2.5
5.190996170043945 -2.7244482040405273 -2.5
5.560810565948486 -1.8564647436141968 -2.5
5.786596775054932 -0.9404101371765137 -2.5
-5.687031269073486 -4.882812390860636e-06 -2.5
-5.668583869934082 -0.4576123058795929 -2.5
-5.613379001617432 -0.9122655987739563 -2.5
-5.521772384643555 -1.3609960079193115 -2.5
-5.394345760345459 -1.8008984327316284 -2.5
-5.231953144073486 -2.2291064262390137 -2.5
-3.9395408630371094 -4.101499080657959 -2.5
-3.59673810005188 -4.405190467834473 -2.5
-2.843515634536743 -4.925102233886719 -2.5
-2.43798828125 -5.137934684753418 -2.5
-2.0166454315185547 -5.317455768585205 -2.5
-1.5822314023971558 -5.462485313415527 -2.5
-1.137548804283142 -5.572094440460205 -2.5
-0.685498058795929 -5.645551681518555 -2.5
0.6854882836341858 -5.645551681518555 -2.5
1.137548804283142 -5.572084903717041 -2.5
1.582216739654541 -5.462485313415527 -2.5
2.843510627746582 -4.925092697143555 -2.5
3.2305908203125 -4.68032693862915 -2.5
3.5967283248901367 -4.405200004577637 -2.5
4.256792068481445 -3.771186351776123 -2.5
5.394340515136719 -1.8008935451507568 -2.5
5.521762371063232 -1.3609960079193115 -2.5
5.613373756408691 -0.9122509360313416 -2.5
5.6685791015625 -0.4576171636581421 -2.5
-5.448671817779541 -0.8855029344558716 -2.5
-5.236073970794678 -1.748046875 -2.5
-5.078437328338623 -2.1637158393859863 -2.5
-4.665590763092041 -2.9503369331359863 -2.5
-3.8239550590515137 -3.981147289276123 -2.5
-3.491201162338257 -4.275932312011719 -2.5
-3.135805606842041 -4.543002605438232 -2.5
-2.760087728500366 -4.780590534210205 -2.5
-2.366450071334839 -4.987192153930664 -2.5
-1.9574755430221558 -5.161430358886719 -2.5
-1.535805583000183 -5.302211761474609 -2.5
-1.1041796207427979 -5.40859842300415 -2.5
-0.6653759479522705 -5.479907035827637 -2.5
-0.22228026390075684 -5.515678405761719 -2.5
0.6653808355331421 -5.479907035827637 -2.5
1.53579580783844 -5.302211761474609 -2.5
1.9574706554412842 -5.161430358886719 -2.5
2.760082960128784 -4.780600547790527 -2.5
4.131884574890137 -3.6605517864227295 -2.5
4.665571212768555 -2.9503369331359863 -2.5
-5.361274242401123 4.882812390860636e-06 -2.5
-5.343881607055664 -0.4313915967941284 -2.5
-5.085361003875732 -1.6977392435073853 -2.5
-4.932270526885986 -2.1014404296875 -2.5
-4.747162818908691 -2.4914989471435547 -2.5
-4.531289100646973 -2.86541485786438 -2.5
-4.286035060882568 -3.2207372188568115 -2.5
-3.713881731033325 -3.8665575981140137 -2.5
-3.0455517768859863 -4.4122314453125 -2.5
-2.29833984375 -4.843637466430664 -2.5
-1.491601586341858 -5.149584770202637 -2.5
-1.0723925828933716 -5.252914905548096 -2.5
-0.2158789038658142 -5.356918811798096 -2.5
0.21586912870407104 -5.356918811798096 -2.5
0.6462255716323853 -5.322182655334473 -2.5
1.0723876953125 -5.252914905548096 -2.5
2.298330068588257 -4.843637466430664 -2.5
2.6806297302246094 -4.642992973327637 -2.5
4.53127908706665 -2.865405321121216 -2.5
4.932240962982178 -2.1014404296875 -2.5
