ply
format ascii 1.0
element vertex 907
property float x
property float y
property float z
end_header
-0.47996580600738525 11.910184860229492 2.912393093109131
-1.4691600799560547 12.099579811096191 2.9780211448669434
-5.687626838684082 11.986406326293945 3.241633892059326
-6.711816310882568 11.625205039978027 3.2798149585723877
-9.167715072631836 11.228398323059082 3.5417399406433105
6.682602405548096 11.57460880279541 3.1090104579925537
4.080214977264404 10.758623123168945 2.6766045093536377
0.97047358751297 4.753701210021973 1.1285885572433472
0.4930517375469208 12.234960556030273 2.848400831222534
-1.5461328029632568 12.73355484008789 2.983829975128174
-3.6097068786621094 12.462186813354492 3.018109083175659
-6.03140115737915 12.710907936096191 3.2727935314178467
5.09902811050415 10.745976448059082 2.628276824951172
0.9704149961471558 4.753378868103027 1.072011113166809
1.5154736042022705 12.481054306030273 2.7781708240509033
-0.5303759574890137 13.161073684692383 2.9105401039123535
-1.6347020864486694 13.462968826293945 2.996737003326416
-5.232260704040527 13.79637622833252 3.2604339122772217
-6.499970436096191 13.698378562927246 3.350384473800659
-7.653515338897705 13.256269454956055 3.382366180419922
-8.7640380859375 12.69686508178711 3.4090662002563477
-9.167715072631836 11.228398323059082 3.2030742168426514
6.682582855224609 11.574599266052246 2.798314094543457
5.335224628448486 11.243730545043945 2.6057214736938477
4.457265377044678 11.75283145904541 2.6317529678344727
3.5359861850738525 12.207636833190918 2.6610167026519775
1.5918651819229126 13.1101655960083 2.765082359313965
-4.308413028717041 14.874364852905273 3.242307662963867
-5.687245845794678 14.996034622192383 3.357985734939575
-6.957114219665527 14.661796569824219 3.3978495597839355
-8.283217430114746 14.346942901611328 3.4685680866241455
-9.167715072631836 11.228398323059082 3.0350029468536377
6.682597637176514 11.57460880279541 2.6440722942352295
4.666069030761719 12.303407669067383 2.6031787395477295
1.6660985946655273 13.721562385559082 2.7345099449157715
0.5717382431030273 14.187196731567383 2.808967113494873
-0.5919433236122131 14.6887788772583 2.908276319503784
-3.2121825218200684 15.734345436096191 3.1769707202911377
6.784067153930664 11.750350952148438 2.5283138751983643
5.864052772521973 12.35824203491211 2.5489611625671387
0.9702050685882568 4.752353191375732 0.903829038143158
1.7535498142242432 14.441767692565918 2.7108752727508545
-0.6254540681838989 15.520390510559082 2.8944499492645264
-3.1696972846984863 26.10471534729004 4.9001359939575195
-5.07546854019165 24.861297607421875 4.728262901306152
-6.11810302734375 21.12215232849121 4.0977325439453125
-8.390578269958496 17.682764053344727 3.6471757888793945
6.156469821929932 12.974462509155273 2.5117273330688477
5.134340763092041 13.538164138793945 2.5323731899261475
4.08975076675415 14.11947250366211 2.5709917545318604
0.6342236399650574 15.738046646118164 2.7548046112060547
-1.0459301471710205 25.95439338684082 4.5430827140808105
-3.169692277908325 26.104705810546875 4.59922456741333
-5.07546854019165 24.861297607421875 4.437903881072998
-9.451273918151855 19.918115615844727 3.855950117111206
-9.167715072631836 11.228398323059082 2.535274028778076
6.4781494140625 13.652421951293945 2.470720052719116
5.415170669555664 14.278613090515137 2.4968101978302
4.291079044342041 14.814520835876465 2.5217416286468506
0.9700634479522705 4.751679420471191 0.7929235696792603
-1.045935034751892 25.954402923583984 4.247000217437744
-3.2531347274780273 26.79195213317871 4.41266393661499
-5.398432731628418 26.443300247192383 4.41266393661499
-6.118095397949219 21.122148513793945 3.595430850982666
-13.364677429199219 19.362041473388672 3.846611738204956
7.936738014221191 13.746845245361328 2.4150352478027344
5.69835901260376 15.025331497192383 2.444873094558716
4.509970664978027 15.570234298706055 2.4662718772888184
-1.045935034751892 25.954402923583984 3.9519670009613037
-3.4959471225738525 28.79160499572754 4.412606716156006
-6.11810302734375 21.12215232849121 3.3456761837005615
-9.908854484558105 26.12749481201172 4.251376628875732
-11.65117359161377 24.554296493530273 4.1349897384643555
-13.23720645904541 22.927440643310547 4.0278778076171875
-13.62048053741455 19.732635498046875 3.647918701171875
8.399345397949219 14.548114776611328 2.3656508922576904
6.008793830871582 15.843867301940918 2.386256694793701
4.751035213470459 16.40250015258789 2.404804229736328
0.9699218273162842 4.750996112823486 0.682851254940033
-1.045935034751892 25.954402923583984 3.657949686050415
-13.6204833984375 19.732635498046875 3.3765153884887695
8.916054725646973 15.443076133728027 2.3099615573883057
7.655077934265137 16.132753372192383 2.313159704208374
5.008974552154541 17.29301643371582 2.3322057723999023
-13.6204833984375 19.732635498046875 3.1059563159942627
-9.167715072631836 11.228398323059082 1.8777563571929932
9.50020980834961 16.454872131347656 2.247516393661499
8.13717269897461 17.148691177368164 2.2452588081359863
6.737143516540527 17.764385223388672 2.247347354888916
5.301010608673096 18.30122947692871 2.2537922859191895
0.9697851538658142 4.750331878662109 0.5734942555427551
2.958315372467041 24.36390495300293 2.903116464614868
-1.045935034751892 25.954402923583984 3.072559118270874
-6.11810302734375 21.12215805053711 2.601191759109497
-13.62048053741455 19.732635498046875 2.836177349090576
-9.167715072631836 11.228388786315918 1.7146559953689575
10.170327186584473 17.615537643432617 2.1777777671813965
8.687382698059082 18.30828094482422 2.169658660888672
5.595781326293945 19.31889533996582 2.1534032821655273
2.958317756652832 24.363895416259766 2.627685546875
-1.045935034751892 25.954402923583984 2.781080961227417
-6.118095397949219 21.122148513793945 2.3544063568115234
10.952646255493164 18.97052764892578 2.1000497341156006
9.3109712600708 19.622461318969727 2.082235097885132
5.92199182510376 20.445077896118164 2.040627956390381
0.969653308391571 4.749658107757568 0.46473968029022217
-13.62048053741455 19.732635498046875 2.2986602783203125
10.045654296875 21.1707706451416 1.9847412109375
6.327621936798096 21.845478057861328 1.9263161420822144
0.9695849418640137 4.749335765838623 0.4105532765388489
1.0449389219284058 25.92970085144043 2.1979687213897705
-3.169692277908325 26.104705810546875 2.227247476577759
-5.075463771820068 24.861278533935547 2.1491262912750244
-6.11810302734375 21.12215805053711 1.8625320196151733
-13.6204833984375 19.732635498046875 2.0307910442352295
-9.167715072631836 11.228398323059082 1.2277474403381348
8.927724838256836 23.540462493896484 1.8516515493392944
6.827739238739014 23.572134017944336 1.8049148321151733
2.95831036567688 24.3638858795166 1.805045485496521
1.0449389219284058 25.92970085144043 1.9085930585861206
-13.6204833984375 19.732635498046875 1.763426423072815
-9.167715072631836 11.228388786315918 1.0661081075668335
9.859270095825195 25.996767044067383 1.735329270362854
7.4937424659729 25.871435165405273 1.681112289428711
3.004287004470825 24.742523193359375 1.55562162399292
-1.045935034751892 25.954402923583984 1.6212319135665894
-3.169692277908325 26.104705810546875 1.6412652730941772
-5.075463771820068 24.86128807067871 1.5836971998214722
-6.11810302734375 21.12215805053711 1.37250816822052
-12.23245620727539 25.779340744018555 1.7809395790100098
-13.092326164245605 22.676551818847656 1.6342867612838745
-12.950261116027832 18.76165008544922 1.4228582382202148
0.9693798422813416 4.74832010269165 0.24859680235385895
-1.045935034751892 25.954402923583984 1.332452654838562
-3.169692277908325 26.10471534729004 1.348917841911316
-5.075466156005859 24.861284255981445 1.3016040325164795
-4.84222412109375 16.717313766479492 0.8927896022796631
-4.303715705871582 9.0698823928833 0.5149746537208557
-6.959218502044678 10.082148551940918 0.6284204125404358
-9.167715072631836 11.228398323059082 0.7435769438743591
0.9693163633346558 4.747988224029541 0.19476653635501862
1.188818335533142 29.499990463256836 1.1866198778152466
-1.045935034751892 25.954402923583984 1.0440011024475098
-3.169692277908325 26.104705810546875 1.0569015741348267
-2.5403857231140137 8.77042007446289 0.3669882118701935
-4.303720474243164 9.069872856140137 0.40349212288856506
-6.959218502044678 10.082148551940918 0.4923791289329529
-9.167715072631836 11.228398323059082 0.5826067924499512
-1.0575146675109863 8.709452629089355 0.2552798390388489
-1.7774901390075684 8.706757545471191 0.25856566429138184
-3.3692870140075684 8.884062767028809 0.27646514773368835
-5.432978630065918 9.410195350646973 0.31616607308387756
-1.057519555091858 8.709452629089355 0.15800261497497559
-2.5403807163238525 8.77042007446289 0.16444091498851776
-3.3692822456359863 8.884062767028809 0.17111511528491974
-4.303720474243164 9.069872856140137 0.18079711496829987
-5.432978630065918 9.410195350646973 0.19568724930286407
-6.959218502044678 10.082148551940918 0.22062622010707855
0.9691113233566284 4.747001647949219 0.0335552953183651
1.0834423303604126 8.922987937927246 0.06225402653217316
0.3552197217941284 8.814628601074219 0.06109924241900444
-0.35160642862319946 8.724950790405273 0.0604775995016098
-1.0575146675109863 8.709452629089355 0.06076416000723839
-1.7774901390075684 8.706757545471191 0.061546020209789276
-4.303715705871582 9.0698823928833 0.06953033059835434
-5.432978630065918 9.410195350646973 0.07525665313005447
-6.959218502044678 10.082148551940918 0.08484771847724915
-9.167715072631836 11.228388786315918 0.1003945916891098
3.6931638717651367 9.738076210021973 -0.043280791491270065
2.7122802734375 9.363876342773438 -0.04051254317164421
0.969042956829071 4.746669769287109 -0.02013244666159153
1.0834423303604126 8.922987937927246 -0.03735336288809776
0.3552197217941284 8.814628601074219 -0.03666045889258385
-1.0575244426727295 8.709463119506836 -0.03645934909582138
-6.959218502044678 10.082148551940918 -0.050909727811813354
-9.167704582214355 11.228398323059082 -0.060238949954509735
4.913056373596191 10.354052543640137 -0.17463774979114532
3.6931638717651367 9.738076210021973 -0.1587032973766327
2.712270498275757 9.363876342773438 -0.14855331182479858
0.9689745903015137 4.746347427368164 -0.07381743937730789
-0.35160642862319946 8.724950790405273 -0.1330603063106537
-2.5403857231140137 8.77042007446289 -0.139138326048851
-5.432978630065918 9.410195350646973 -0.1655767858028412
-6.959218502044678 10.082148551940918 -0.1866784691810608
6.682587623596191 11.574589729309082 -0.3518301248550415
0.9689111113548279 4.746005535125732 -0.12751281261444092
0.3552197217941284 8.814628601074219 -0.232228085398674
-1.7774901390075684 8.706757545471191 -0.2339279055595398
-2.5403807163238525 8.77042007446289 -0.24036605656147003
6.682587623596191 11.574589729309082 -0.5000895857810974
4.913066387176514 10.354052543640137 -0.4288240075111389
3.6931638717651367 9.738076210021973 -0.38969695568084717
2.712275266647339 9.363876342773438 -0.3647732436656952
1.0834423303604126 8.922987937927246 -0.3363264501094818
0.35521483421325684 8.814628601074219 -0.3300878703594208
-1.0575244426727295 8.709463119506836 -0.32827818393707275
-1.7774901390075684 8.706757545471191 -0.33250364661216736
-5.432978630065918 9.410195350646973 -0.4065748453140259
-6.959213733673096 10.082148551940918 -0.4583900272846222
-9.167715072631836 11.228398323059082 -0.5423881411552429
23.636669158935547 3.8413379192352295 -1.1618824005126953
3.6931638717651367 9.738076210021973 -0.5053229928016663
0.35521483421325684 8.814628601074219 -0.428027480840683
-0.35160642862319946 8.724950790405273 -0.42367324233055115
-1.7774901390075684 8.706757545471191 -0.43116042017936707
-2.5403807163238525 8.77042007446289 -0.44302672147750854
-6.959218502044678 10.082148551940918 -0.5943983197212219
27.269203186035156 2.201416015625 -1.6314444541931152
23.12173843383789 3.757646322250366 -1.396916151046753
6.682587623596191 11.574589729309082 -0.7970101833343506
4.913066387176514 10.354052543640137 -0.6834322810173035
2.7122802734375 9.363886833190918 -0.5813523530960083
-1.0575146675109863 8.709452629089355 -0.5231884717941284
-2.5403807163238525 8.77042007446289 -0.5445075631141663
-5.432978630065918 9.410195350646973 -0.6479730010032654
-6.959213733673096 10.082148551940918 -0.7305523753166199
27.119754791259766 2.189345598220825 -1.9252914190292358
2.712275266647339 9.363876342773438 -0.6898432970046997
-0.35160642862319946 8.724950790405273 -0.6178973317146301
-1.7774901390075684 8.706757545471191 -0.6288155913352966
-2.5403807163238525 8.77042007446289 -0.6461227536201477
-3.3692822456359863 8.884062767028809 -0.6723459959030151
-4.303715705871582 9.0698823928833 -0.7103915214538574
-6.959218502044678 10.082148551940918 -0.8668870329856873
22.871435165405273 3.716972589492798 -1.8979320526123047
24.224271774291992 15.31850528717041 -2.347599983215332
19.85442352294922 20.670663833618164 -2.347599983215332
6.682573318481445 11.574560165405273 -1.0947155952453613
4.913056373596191 10.354052543640137 -0.938714861869812
3.693168878555298 9.738076210021973 -0.8530645370483398
1.0834423303604126 8.922987937927246 -0.7362330555915833
0.3552197217941284 8.814628601074219 -0.7225775122642517
-1.0575146675109863 8.709452629089355 -0.7186158299446106
-1.7774901390075684 8.706757545471191 -0.7278642058372498
-2.5403807163238525 8.77042007446289 -0.7478981018066406
-3.3692822456359863 8.884062767028809 -0.7782513499259949
-4.303720474243164 9.069872856140137 -0.822290301322937
-6.959213733673096 10.082148551940918 -1.0034359693527222
-9.167715072631836 11.228388786315918 -1.1873100996017456
-21.453359603881836 19.00599479675293 -2.347599983215332
-22.91309356689453 17.21806526184082 -2.347599983215332
26.773056030273438 2.161367177963257 -2.5
24.71079444885254 10.528281211853027 -2.5
22.333637237548828 11.721620559692383 -2.347599983215332
17.472421646118164 18.19072151184082 -2.347599983215332
15.952040672302246 19.537675857543945 -2.347599983215332
3.693168878555298 9.738076210021973 -0.9693612456321716
2.712270498275757 9.363876342773438 -0.9073638916015625
0.9684960842132568 4.744023323059082 -0.45065656304359436
0.3552197217941284 8.814628601074219 -0.8210850358009338
-0.35160642862319946 8.724950790405273 -0.8127325177192688
-2.5403807163238525 8.77042007446289 -0.849857747554779
-3.3692822456359863 8.884062767028809 -0.8843505382537842
-6.959213733673096 10.082148551940918 -1.1402325630187988
-17.472423553466797 18.19072151184082 -2.347599983215332
-18.8795108795166 16.725780487060547 -2.347599983215332
-20.164148330688477 15.152382850646973 -2.347599983215332
-23.783491134643555 12.48250961303711 -2.5
-25.477840423583984 8.505732536315918 -2.5
-26.5123233795166 4.308652400970459 -2.5
-26.773056030273438 2.1613378524780273 -2.5
14.710043907165527 0.0 -1.5337297916412354
22.74361801147461 7.592939376831055 -2.5
22.058900833129883 9.398427963256836 -2.5
19.936859130859375 10.463671684265137 -2.347599983215332
19.030229568481445 12.034003257751465 -2.347599983215332
15.59731388092041 16.238554000854492 -2.347599983215332
14.240097045898438 17.440946578979492 -2.347599983215332
2.712270498275757 9.363876342773438 -1.0164464712142944
0.968432605266571 4.743700981140137 -0.5047982931137085
1.0834423303604126 8.922987937927246 -0.9371786117553711
0.35521483421325684 8.814628601074219 -0.9197961091995239
-1.7774901390075684 8.706757545471191 -0.9265252351760864
-3.3692822456359863 8.884062767028809 -0.9906668066978455
-4.303715705871582 9.0698823928833 -1.0467246770858765
-6.959218502044678 10.082148551940918 -1.2773122787475586
-9.167715072631836 11.228398323059082 -1.511376142501831
-15.597304344177246 16.238544464111328 -2.347599983215332
-18.000167846679688 13.526259422302246 -2.347599983215332
-20.265621185302734 12.815185546875 -2.5
-22.743608474731445 7.592909812927246 -2.5
-23.28084945678711 5.738203048706055 -2.5
-23.66709327697754 3.846259593963623 -2.5
-23.899818420410156 1.9293749332427979 -2.5
21.57869529724121 1.742031216621399 -2.5
16.347822189331055 4.029365062713623 -1.9443339109420776
20.534770965576172 6.855507850646973 -2.5
19.916532516479492 8.4856538772583 -2.5
18.000591278076172 9.44742202758789 -2.347599983215332
16.252016067504883 12.212587356567383 -2.347599983215332
11.548295974731445 16.7305850982666 -2.347599983215332
6.682573318481445 11.574560165405273 -1.5434000492095947
4.913066387176514 10.354052543640137 -1.323459267616272
3.693168878555298 9.738076210021973 -1.2027033567428589
2.712270498275757 9.363876342773438 -1.1257826089859009
0.9683691263198853 4.743359088897705 -0.5590585470199585
1.0834423303604126 8.922987937927246 -1.0379880666732788
0.35521483421325684 8.814628601074219 -1.0187344551086426
-2.5403807163238525 8.77042007446289 -1.0544332265853882
-3.3692870140075684 8.884062767028809 -1.0972284078598022
-4.303715705871582 9.0698823928833 -1.159315824508667
-6.959218502044678 10.082148551940918 -1.4147065877914429
-14.082521438598633 14.661444664001465 -2.347599983215332
-15.216606140136719 13.480741500854492 -2.347599983215332
-17.182024002075195 10.865234375 -2.347599983215332
-19.16914176940918 10.060722351074219 -2.5
-20.534759521484375 6.855488300323486 -2.5
-21.57870101928711 1.7420116662979126 -2.5
19.472515106201172 3.164599657058716 -2.5
16.34402847290039 4.028437614440918 -2.13315749168396
18.14933967590332 7.732705116271973 -2.5
14.809975624084473 11.128973960876465 -2.347599983215332
4.913066387176514 10.354052543640137 -1.4523245096206665
0.9683007597923279 4.743017673492432 -0.6134507656097412
-0.35160642862319946 8.724950790405273 -1.1065560579299927
-1.057519555091858 8.709463119506836 -1.1117992401123047
-4.303715705871582 9.0698823928833 -1.272197961807251
-12.832978248596191 13.360527038574219 -2.347599983215332
-13.866439819335938 12.284589767456055 -2.347599983215332
-15.65746021270752 9.901171684265137 -2.347599983215332
-17.468265533447266 9.168036460876465 -2.5
-18.149330139160156 7.732705116271973 -2.5
-19.154720306396484 4.721200942993164 -2.5
-19.472503662109375 3.1645898818969727 -2.5
-19.664012908935547 1.587441325187683 -2.5
15.47801685333252 0.0 -2.135952949523926
8.202998161315918 0.6622265577316284 -1.1356887817382812
17.881460189819336 2.9060254096984863 -2.5
17.589637756347656 4.33544921875 -2.5
17.183740615844727 5.736767292022705 -2.5
16.666400909423828 7.100888729095459 -2.5
15.063105583190918 7.905732154846191 -2.347599983215332
14.378119468688965 9.092167854309082 -2.347599983215332
13.599882125854492 10.219648361206055 -2.347599983215332
12.73343276977539 11.28084945678711 -2.347599983215332
11.78441333770752 12.268877029418945 -2.347599983215332
9.663749694824219 14.000350952148438 -2.347599983215332
4.913056373596191 10.354052543640137 -1.5815478563308716
2.712270498275757 9.363876342773438 -1.345322847366333
0.9682275056838989 4.742685317993164 -0.6679868698120117
1.0834423303604126 8.922987937927246 -1.2404078245162964
0.3552197217941284 8.814628601074219 -1.2173993587493896
-0.35161131620407104 8.724960327148438 -1.205014944076538
-1.7774901390075684 8.706757545471191 -1.22630774974823
-2.5403807163238525 8.77042007446289 -1.2600595951080322
-3.3692822456359863 8.884062767028809 -1.3112002611160278
-4.303715705871582 9.0698823928833 -1.3853957653045654
-5.432978630065918 9.410195350646973 -1.499491810798645
-6.959218502044678 10.082148551940918 -1.6905910968780518
-16.66639518737793 7.100878715515137 -2.5
-17.881454467773438 2.906015634536743 -2.5
-18.057313919067383 1.4577441215515137 -2.5
15.882075309753418 5.302206993103027 -2.5
15.403915405273438 6.56298828125 -2.5
13.92208480834961 7.306855201721191 -2.347599983215332
10.891742706298828 11.33950138092041 -2.347599983215332
9.943979263305664 12.179160118103027 -2.347599983215332
8.931718826293945 12.939814567565918 -2.347599983215332
3.693168878555298 9.738076210021973 -1.5550390481948853
0.9681640267372131 4.742353439331055 -0.7226829528808594
1.0834423303604126 8.922987937927246 -1.3420699834823608
0.3552197217941284 8.814628601074219 -1.3171753883361816
-3.3692822456359863 8.884062767028809 -1.4186646938323975
-4.303720474243164 9.069872856140137 -1.4989413022994995
-5.432978630065918 9.410195350646973 -1.6223880052566528
-6.959213733673096 10.082148551940918 -1.8291492462158203
-10.89174747467041 11.33951187133789 -2.347599983215332
-11.768877029418945 10.426318168640137 -2.347599983215332
-16.526927947998047 2.6858787536621094 -2.5
7.542182445526123 9.765624781721272e-06 -1.2117053270339966
7.444657802581787 0.6010058522224426 -1.199929118156433
15.359580039978027 2.4961814880371094 -2.5
15.108920097351074 3.724003791809082 -2.5
12.938715934753418 6.790761470794678 -2.347599983215332
11.681845664978027 8.778339385986328 -2.347599983215332
9.24160099029541 11.3189058303833 -2.347599983215332
8.300844192504883 12.025830268859863 -2.347599983215332
6.682573318481445 11.574580192565918 -2.147209405899048
4.913056373596191 10.354052543640137 -1.841221570968628
2.712275266647339 9.363876342773438 -1.5662106275558472
0.9680956602096558 4.742021560668945 -0.7775529026985168
1.0834423303604126 8.922987937927246 -1.444069504737854
-0.35160642862319946 8.724950790405273 -1.4028654098510742
-1.057519555091858 8.709463119506836 -1.4095133543014526
-2.5403807163238525 8.77042007446289 -1.4669479131698608
-3.3692822456359863 8.884062767028809 -1.526485562324524
-9.167715072631836 11.228398323059082 -2.328826904296875
-10.122421264648438 10.538544654846191 -2.347599983215332
-10.937606811523438 9.689872741699219 -2.347599983215332
-14.31588363647461 6.099433422088623 -2.5
-14.760268211364746 4.927685260772705 -2.5
-15.35958480834961 2.496171712875366 -2.5
7.36620569229126 9.765624781721272e-06 -1.2673203945159912
7.27208948135376 0.5870702862739563 -1.255198359489441
8.562475204467773 1.3915331363677979 -1.4924594163894653
13.368270874023438 5.69567346572876 -2.5
12.08226490020752 6.341269493103027 -2.347599983215332
11.53282642364502 7.292910099029541 -2.347599983215332
2.712275266647339 9.363876342773438 -1.6772319078445435
0.9680224657058716 4.741679668426514 -0.8326106071472168
-0.35160642862319946 8.724950790405273 -1.5023078918457031
-1.7774901390075684 8.706757545471191 -1.5288537740707397
-4.303715705871582 9.0698823928833 -1.7271908521652222
-5.432973384857178 9.410184860229492 -1.869435429573059
-10.213613510131836 9.048466682434082 -2.347599983215332
-10.908578872680664 8.197284698486328 -2.347599983215332
7.211181640625 9.765624781721272e-06 -1.3230868577957153
8.002875328063965 1.3005858659744263 -1.4876092672348022
13.229741096496582 3.2608299255371094 -2.5
12.924448013305664 4.314814567565918 -2.5
12.5353364944458 5.340810298919678 -2.5
9.577231407165527 8.484686851501465 -2.347599983215332
8.863442420959473 9.227812767028809 -2.347599983215332
7.268422603607178 10.53011703491211 -2.347599983215332
6.397519588470459 11.080849647521973 -2.347599983215332
4.913056373596191 10.354052543640137 -2.1027512550354004
3.6931638717651367 9.738076210021973 -1.9108924865722656
2.712275266647339 9.363876342773438 -1.7886784076690674
0.9679492115974426 4.741337776184082 -0.8878710865974426
0.35521483421325684 8.814638137817383 -1.6185972690582275
-0.35160642862319946 8.724950790405273 -1.6021313667297363
-1.7774999141693115 8.706757545471191 -1.630441427230835
-2.5403807163238525 8.77042007446289 -1.6753166913986206
-3.3692822456359863 8.884062767028809 -1.7433104515075684
-6.959218502044678 10.082148551940918 -2.247730016708374
-10.22890567779541 7.6865234375 -2.347599983215332
-11.04500961303711 6.984453201293945 -2.3976941108703613
-12.535331726074219 5.3408203125 -2.5
-12.924452781677246 4.314804553985596 -2.5
-13.229731559753418 3.2608397006988525 -2.5
-13.449228286743164 2.185722589492798 -2.5
12.450819969177246 3.06884765625 -2.5
11.797308921813965 5.0263671875 -2.5
9.62667465209961 7.233974456787109 -2.347599983215332
9.013359069824219 7.985156059265137 -2.347599983215332
6.020864009857178 10.428437232971191 -2.347599983215332
4.913066387176514 10.354052543640137 -2.234300136566162
3.6931638717651367 9.738076210021973 -2.0304362773895264
-0.35160642862319946 8.724950790405273 -1.7023593187332153
-3.3692822456359863 8.884062767028809 -1.8523706197738647
-4.303715705871582 9.0698823928833 -1.9571887254714966
-6.840493202209473 9.910136222839355 -2.347599983215332
-7.615742206573486 9.327588081359863 -2.347599983215332
-8.341606140136719 8.684521675109863 -2.347599983215332
-9.013373374938965 7.985116958618164 -2.347599983215332
-11.35460376739502 5.959335803985596 -2.5
-11.797304153442383 5.0263671875 -2.5
-12.163515090942383 4.060771465301514 -2.5
-12.657392501831055 2.057021379470825 -2.5
7.21740198135376 1.172939419746399 -1.509822964668274
11.484418869018555 3.834062337875366 -2.5
11.138667106628418 4.745732307434082 -2.5
9.089218139648438 6.830097675323486 -2.347599983215332
7.875888347625732 8.199658393859863 -2.347599983215332
2.712270498275757 9.363876342773438 -2.012960195541382
0.9678173661231995 4.740664005279541 -0.9990571141242981
0.3552197217941284 8.814628601074219 -1.821553111076355
-0.35160642862319946 8.724950790405273 -1.8030223846435547
-2.5403807163238525 8.77042007446289 -1.8853838443756104
-3.3692822456359863 8.884062767028809 -1.9619042873382568
-4.303715705871582 9.0698823928833 -2.072920083999634
-6.458583831787109 9.356855392456055 -2.347599983215332
-7.19054651260376 8.806836128234863 -2.347599983215332
-7.875888347625732 8.199647903442383 -2.347599983215332
-8.510150909423828 7.53933572769165 -2.347599983215332
-9.089203834533691 6.830097675323486 -2.347599983215332
-11.484418869018555 3.834052562713623 -2.5
-11.950727462768555 1.94216787815094 -2.5
-12.068251609802246 0.9742480516433716 -2.5
6.762963771820068 9.765624781721272e-06 -1.4747594594955444
6.692636489868164 0.540283203125 -1.4641714096069336
6.887538909912109 1.1193358898162842 -1.521628975868225
10.547114372253418 4.493710994720459 -2.5
9.099013328552246 5.753867149353027 -2.347599983215332
8.05819320678711 7.138955116271973 -2.347599983215332
6.115585803985596 8.859941482543945 -2.347599983215332
0.9677441120147705 4.740312576293945 -1.055013656616211
-0.35160642862319946 8.724950790405273 -1.9041467905044556
-3.3692822456359863 8.884062767028809 -2.0719387531280518
-5.382826805114746 9.323320388793945 -2.347599983215332
-8.606508255004883 6.467363357543945 -2.347599983215332
-11.131386756896973 2.7436327934265137 -2.5
-11.427338600158691 0.92249995470047 -2.5
10.5674409866333 2.6046385765075684 -2.5
10.323588371276855 3.446523427963257 -2.5
9.619813919067383 5.04885721206665 -2.4955286979675293
8.638036727905273 5.462363243103027 -2.347599983215332
8.170488357543945 6.139716625213623 -2.347599983215332
7.649960994720459 6.777265548706055 -2.347599983215332
6.463749885559082 7.916650295257568 -2.347599983215332
5.805756568908691 8.411084175109863 -2.347599983215332
3.6241455078125 9.556074142456055 -2.347599983215332
2.712270498275757 9.363876342773438 -2.239306688308716
0.9676757454872131 4.739970684051514 -1.1112338304519653
1.0834423303604126 8.922987937927246 -2.0646743774414062
0.3552197217941284 8.814628601074219 -2.026376247406006
-0.35160642862319946 8.724950790405273 -2.005760908126831
-1.0575146675109863 8.709452629089355 -2.0152664184570312
-1.7774901390075684 8.706757545471191 -2.0412039756774902
-3.3692822456359863 8.884062767028809 -2.182508707046509
-5.805766582489014 8.411093711853027 -2.347599983215332
-6.46373987197876 7.916640281677246 -2.347599983215332
-7.079809188842773 7.370859146118164 -2.347599983215332
-7.649955749511719 6.777275085449219 -2.347599983215332
-9.191835403442383 5.812558650970459 -2.49810791015625
-9.637045860290527 5.057900428771973 -2.5
-10.323598861694336 3.4465038776397705 -2.5
-10.567450523376465 2.6046385765075684 -2.5
-10.742773056030273 1.7458593845367432 -2.5
6.467475414276123 0.0 -1.5612341165542603
6.511967658996582 1.0583007335662842 -1.5925979614257812
10.055419921875 2.478447198867798 -2.5
9.823378562927246 3.279531240463257 -2.5
9.160571098327637 4.807841777801514 -2.497401475906372
7.279286861419678 6.448886394500732 -2.347599983215332
6.736767292022705 7.013720512390137 -2.347599983215332
4.862514495849609 8.422138214111328 -2.347599983215332
4.169047832489014 8.786093711853027 -2.347599983215332
3.448554515838623 9.093066215515137 -2.347599983215332
0.35521483421325684 8.814638137817383 -2.129559278488159
-0.35161131620407104 8.724960327148438 -2.107895851135254
-1.7774901390075684 8.706757545471191 -2.145142078399658
-3.3692822456359863 8.884062767028809 -2.293642520904541
-4.169043064117432 8.786084175109863 -2.347599983215332
-4.862514495849609 8.422128677368164 -2.347599983215332
-5.524453163146973 8.003535270690918 -2.347599983215332
-7.774604320526123 5.842236042022705 -2.347599983215332
-9.823378562927246 3.279531240463257 -2.5
-10.222246170043945 1.6612695455551147 -2.5
-10.322768211364746 0.8333300352096558 -2.5
6.373954772949219 0.0 -1.613608956336975
6.346757888793945 1.0314452648162842 -1.627803921699524
7.413476467132568 5.570868968963623 -2.347599983215332
6.423852443695068 6.687919616699219 -2.347599983215332
4.636650085449219 8.03090763092041 -2.347599983215332
3.2883641719818115 8.670693397521973 -2.347599983215332
2.5799951553344727 8.907177925109863 -2.347599983215332
1.0834423303604126 8.922978401184082 -2.275505304336548
-1.0575146675109863 8.709452629089355 -2.2210521697998047
-1.7774901390075684 8.706757545471191 -2.249638080596924
-3.2883594036102295 8.670702934265137 -2.347599983215332
-5.267841815948486 7.631786823272705 -2.347599983215332
-6.423847675323486 6.687919616699219 -2.347599983215332
-8.346503257751465 5.278007507324219 -2.5
-9.58834457397461 2.3633008003234863 -2.5
-9.843280792236328 0.794628918170929 -2.5
6.33104944229126 0.0 -1.6776131391525269
6.247934341430664 0.50439453125 -1.6609777212142944
8.94906234741211 2.9876365661621094 -2.5
7.53311014175415 4.763642311096191 -2.361762523651123
7.08263635635376 5.322255611419678 -2.347599983215332
6.137172698974609 6.389452934265137 -2.347599983215332
5.603134632110596 6.86257791519165 -2.347599983215332
4.429736137390137 7.672519207000732 -2.347599983215332
3.797988176345825 8.004081726074219 -2.347599983215332
3.141611337661743 8.2837495803833 -2.347599983215332
0.967456042766571 4.738905906677246 -1.2816295623779297
0.35521483421325684 8.814628601074219 -2.337615966796875
-0.35160642862319946 8.724950790405273 -2.3138351440429688
-1.7721190452575684 8.680429458618164 -2.347599983215332
-2.464853525161743 8.50966739654541 -2.347599983215332
-4.429736137390137 7.672529220581055 -2.347599983215332
-5.032758712768555 7.291201114654541 -2.347599983215332
-5.603129863739014 6.862597465515137 -2.347599983215332
-6.137172698974609 6.389462947845459 -2.347599983215332
-7.392358303070068 5.554990291595459 -2.4502575397491455
-8.353930473327637 4.384482383728027 -2.5
-9.312431335449219 1.5134179592132568 -2.5
-9.404008865356445 0.7591601610183716 -2.5
6.26378870010376 1.017978549003601 -1.7570525407791138
8.306753158569336 3.5391697883605957 -2.5
7.491508483886719 4.73733377456665 -2.454153537750244
6.77834939956665 5.093623161315918 -2.347599983215332
6.346518516540527 5.622519493103027 -2.347599983215332
5.873505592346191 6.114980220794678 -2.347599983215332
5.362416744232178 6.56774377822876 -2.347599983215332
4.239423751831055 7.342900276184082 -2.347599983215332
0.9673925638198853 4.738564491271973 -1.3390625715255737
1.0220214128494263 8.417031288146973 -2.347599983215332
0.34141600131988525 8.4719820022583 -2.347599983215332
-0.34141111373901367 8.4719820022583 -2.347599983215332
-1.022011637687683 8.417031288146973 -2.347599983215332
-2.358964681625366 8.1441011428833 -2.347599983215332
-3.63482403755188 7.660214900970459 -2.347599983215332
-4.239423751831055 7.342909812927246 -2.347599983215332
-4.816542625427246 6.977949142456055 -2.347599983215332
-5.873515605926514 6.114960670471191 -2.347599983215332
-8.766908645629883 2.160830020904541 -2.5
-8.912363052368164 1.4483983516693115 -2.5
6.294936180114746 -9.765624781721272e-06 -1.8182604312896729
6.20531702041626 0.5009570121765137 -1.7982070446014404
6.244579792022705 1.0148437023162842 -1.827380657196045
8.40365219116211 2.0713086128234863 -2.5
7.962563514709473 3.3925390243530273 -2.5
7.663764476776123 4.022236347198486 -2.5
7.296879768371582 4.614277362823486 -2.4937217235565186
6.083544731140137 5.389550685882568 -2.347599983215332
5.630136489868164 5.861591815948486 -2.347599983215332
5.140224456787109 6.295634746551514 -2.347599983215332
4.063759803771973 7.038661956787109 -2.347599983215332
3.4842185974121094 7.342812538146973 -2.347599983215332
0.9673144221305847 4.738222599029541 -1.3968396186828613
0.979663074016571 8.06827163696289 -2.347599983215332
-0.9796679615974426 8.068281173706055 -2.347599983215332
-1.625707983970642 7.963281154632568 -2.347599983215332
-2.261225461959839 7.806640625 -2.347599983215332
-2.8820605278015137 7.599365234375 -2.347599983215332
-3.4842138290405273 7.342812538146973 -2.347599983215332
-5.140229225158691 6.295615196228027 -2.347599983215332
-6.083544731140137 5.389560222625732 -2.347599983215332
-6.907431602478027 5.190605163574219 -2.495710849761963
-7.663764476776123 4.02224588394165 -2.5
-8.403656959533691 2.0713086128234863 -2.5
6.225366115570068 1.01171875 -1.8977258205413818
8.067245483398438 1.9883984327316284 -2.5
7.881088733673096 2.6310741901397705 -2.5
7.643813133239746 3.256728410720825 -2.5
7.010800838470459 4.433359146118164 -2.495866537094116
6.251650333404541 4.697802543640137 -2.3529632091522217
5.840014457702637 5.173808574676514 -2.347599983215332
5.404765605926514 5.626953125 -2.347599983215332
4.432153224945068 6.421064376831055 -2.347599983215332
3.344736337661743 7.048896312713623 -2.347599983215332
2.1706981658935547 7.494130611419678 -2.347599983215332
0.9672460556030273 4.737851619720459 -1.454978346824646
0.31416991353034973 7.795849323272705 -2.347599983215332
-0.94044429063797 7.745292663574219 -2.347599983215332
-2.170703172683716 7.494130611419678 -2.347599983215332
-2.7666893005371094 7.295166015625 -2.347599983215332
-3.344741106033325 7.048886775970459 -2.347599983215332
-3.9010937213897705 6.756884574890137 -2.347599983215332
-5.404770374298096 5.626943111419678 -2.347599983215332
-6.636215686798096 4.986796855926514 -2.4977052211761475
-7.022417068481445 4.440712928771973 -2.5
-7.356972694396973 3.8612303733825684 -2.5
-7.643808364868164 3.256718635559082 -2.5
-7.881088733673096 2.6310741901397705 -2.5
-8.067240715026855 1.988378882408142 -2.5
-8.20108413696289 1.3327832221984863 -2.5
-8.281733512878418 0.6685546636581421 -2.5
6.279868125915527 0.0 -1.9656990766525269
6.191474437713623 0.499824196100235 -1.9443331956863403
7.754741191864014 1.9113671779632568 -2.5
7.347704887390137 3.130546808242798 -2.5
5.995766639709473 4.505527019500732 -2.347599983215332
5.195385456085205 5.408974647521973 -2.347599983215332
4.260458946228027 6.172333717346191 -2.347599983215332
3.215165853500366 6.775820255279541 -2.347599983215332
2.6595213413238525 7.01256799697876 -2.347599983215332
2.086611270904541 7.203808307647705 -2.347599983215332
0.9671679735183716 4.737490177154541 -1.5134981870651245
0.9040234088897705 7.445263385772705 -2.347599983215332
0.3019970655441284 7.493847370147705 -2.347599983215332
-0.30199217796325684 7.493857383728027 -2.347599983215332
-1.5001757144927979 7.348369121551514 -2.347599983215332
-2.086606502532959 7.203827857971191 -2.347599983215332
-2.6595115661621094 7.01256799697876 -2.347599983215332
-3.215161085128784 6.775810241699219 -2.347599983215332
-3.7499754428863525 6.495126724243164 -2.347599983215332
-4.260458946228027 6.172314167022705 -2.347599983215332
-6.384018421173096 4.797275066375732 -2.4996180534362793
-7.071972370147705 3.711660146713257 -2.5
-7.575786113739014 2.5291600227355957 -2.5
-7.754731178283691 1.9113574028015137 -2.5
-7.883393287658691 1.281152367591858 -2.5
-7.960907936096191 0.6426562070846558 -2.5
6.283481121063232 0.0 -2.043550729751587
6.189760684967041 0.49970701336860657 -2.019619941711426
6.21093225479126 1.009374976158142 -2.0464565753936768
7.463598251342773 1.839599609375 -2.5
6.806469440460205 3.5723142623901367 -2.5
5.959462642669678 4.478251934051514 -2.4244046211242676
5.403027057647705 4.78665018081665 -2.347599983215332
4.100502967834473 5.940595626831055 -2.347599983215332
3.6091794967651367 6.251288890838623 -2.347599983215332
3.0944628715515137 6.521445274353027 -2.347599983215332
2.5596728324890137 6.749287128448486 -2.347599983215332
2.0082714557647705 6.933369159698486 -2.347599983215332
0.967089831829071 4.737128734588623 -1.5724157094955444
0.8700780868530273 7.165732383728027 -2.347599983215332
0.2906591594219208 7.212509632110596 -2.347599983215332
-0.8700731992721558 7.165732383728027 -2.347599983215332
-1.4438574314117432 7.072490215301514 -2.347599983215332
-2.0082664489746094 6.933369159698486 -2.347599983215332
-2.5596630573272705 6.74929666519165 -2.347599983215332
-3.0944578647613525 6.521435260772705 -2.347599983215332
-4.565219402313232 5.591396331787109 -2.347599983215332
-5.730414867401123 5.076708793640137 -2.4898500442504883
-7.291371822357178 2.434208869934082 -2.5
-7.463598251342773 1.839599609375 -2.5
-7.662035942077637 0.6185449361801147 -2.5
6.29491662979126 0.0 -2.1246867179870605
6.200747013092041 0.5005859136581421 -2.099712610244751
7.19164514541626 1.7725781202316284 -2.5
6.558461666107178 3.442148447036743 -2.5
5.904194355010986 4.436708927154541 -2.4927453994750977
5.206152439117432 4.612255573272705 -2.347599983215332
2.9817090034484863 6.283818244934082 -2.347599983215332
2.4664013385772705 6.503368854522705 -2.347599983215332
1.9351024627685547 6.680742263793945 -2.347599983215332
0.9669530987739563 4.736425876617432 -1.6316348314285278
0.83837890625 6.904638290405273 -2.347599983215332
0.28006836771965027 6.949716567993164 -2.347599983215332
-0.8383740186691284 6.904638290405273 -2.347599983215332
-1.3912451267242432 6.814785003662109 -2.347599983215332
-2.4664013385772705 6.503359317779541 -2.347599983215332
-3.477675676345825 6.023515701293945 -2.347599983215332
-4.398881912231445 5.387636661529541 -2.347599983215332
-4.81814432144165 5.016220569610596 -2.347599983215332
-5.531747817993164 4.900702953338623 -2.494418144226074
-6.260219573974609 3.9587206840515137 -2.5
-6.814174652099609 2.903261661529541 -2.5
-7.19164514541626 1.7725781202316284 -2.5
-7.310956954956055 1.1881444454193115 -2.5
-7.382856369018555 0.5960156321525574 -2.5
6.306484222412109 0.0 -2.2067325115203857
6.211889743804932 0.5014746189117432 -2.180706024169922
6.214316368103027 1.009921908378601 -2.203012228012085
6.936982154846191 1.7098242044448853 -2.5
6.572880744934082 2.800429582595825 -2.5
6.038539886474609 3.8185253143310547 -2.5
5.021796703338623 4.448935508728027 -2.347599983215332
4.647524356842041 4.838593482971191 -2.347599983215332
3.8111815452575684 5.521435260772705 -2.347599983215332
3.3545262813568115 5.810204982757568 -2.347599983215332
2.8761279582977295 6.061298847198486 -2.347599983215332
0.9513378739356995 4.659951210021973 -1.6642237901687622
0.8086864948272705 6.660136699676514 -2.347599983215332
-0.2701513469219208 6.70361328125 -2.347599983215332
-1.8665673732757568 6.444169998168945 -2.347599983215332
-2.8761229515075684 6.061298847198486 -2.347599983215332
-3.3545262813568115 5.810204982757568 -2.347599983215332
-3.8111815452575684 5.521445274353027 -2.347599983215332
-5.711684226989746 4.292060375213623 -2.5
-6.038535118103027 3.818535089492798 -2.5
-6.326220512390137 3.320253849029541 -2.5
-6.936982154846191 1.709804654121399 -2.5
-7.052060604095459 1.1460741758346558 -2.5
-7.121420860290527 0.5749120712280273 -2.5
6.898417949676514 0.0 -2.5
6.697958946228027 1.6508886814117432 -2.5
6.543393611907959 2.184511661529541 -2.5
5.83047342300415 3.6869726181030273 -2.5
5.50796365737915 4.138955116271973 -2.496859550476074
4.922319412231445 4.360790729522705 -2.383209705352783
4.096904277801514 5.017792701721191 -2.347599983215332
3.2389402389526367 5.610019207000732 -2.347599983215332
1.8022607564926147 6.222118854522705 -2.347599983215332
0.9468163847923279 4.637802600860596 -1.7154165506362915
0.7808203101158142 6.430654048919678 -2.347599983215332
0.26084470748901367 6.472617149353027 -2.347599983215332
-1.8022558689117432 6.222128868103027 -2.347599983215332
-2.2970945835113525 6.056933403015137 -2.347599983215332
-3.6798582077026367 5.331201076507568 -2.347599983215332
-4.096909046173096 5.017792701721191 -2.347599983215332
-4.636952877044678 4.827578067779541 -2.425845146179199
-5.160048484802246 4.571406364440918 -2.4983112812042236
-6.108237266540527 3.2058496475219727 -2.5
-6.543403148651123 2.184501886367798 -2.5
-6.697954177856445 1.6508984565734863 -2.5
6.666845321655273 9.765624781721272e-06 -2.5
6.580512523651123 1.069433569908142 -2.5
6.473114967346191 1.5954785346984863 -2.5
6.323744773864746 2.1111717224121094 -2.5
5.9031982421875 3.0982322692871094 -2.5
5.634750843048096 3.5632030963897705 -2.5
4.904335975646973 4.344863414764404 -2.4569830894470215
2.6838085651397705 5.655986309051514 -2.347599983215332
2.219985246658325 5.853603363037109 -2.347599983215332
0.9456298351287842 4.631972789764404 -1.772767424583435
0.7546093463897705 6.214785099029541 -2.347599983215332
-0.7546142339706421 6.214794635772705 -2.347599983215332
-1.252236247062683 6.133915901184082 -2.347599983215332
-2.219970703125 5.853593826293945 -2.347599983215332
-2.6837987899780273 5.655995845794678 -2.347599983215332
-3.1302146911621094 5.421689510345459 -2.347599983215332
-3.9593846797943115 4.849355220794678 -2.347599983215332
-6.133354187011719 2.613173723220825 -2.5
-6.473114967346191 1.59548819065094 -2.5
-6.645224571228027 0.5364453196525574 -2.5
5.709926605224609 2.9967870712280273 -2.5
5.450263500213623 3.446533203125 -2.5
3.8297507762908936 4.690585613250732 -2.347599983215332
2.5959324836730957 5.470800876617432 -2.347599983215332
1.6847362518310547 5.816386699676514 -2.347599983215332
0.2438330054283142 6.050537109375 -2.347599983215332
-1.211245059967041 5.933085918426514 -2.347599983215332
-1.684731364250183 5.816376686096191 -2.347599983215332
-3.439897298812866 4.983534812927246 -2.347599983215332
-3.8315281867980957 4.692782878875732 -2.348698854446411
-4.826816082000732 4.276181697845459 -2.5
-5.450268268585205 3.446523427963257 -2.5
-5.932543754577637 2.5276172161102295 -2.5
-6.427656173706055 0.5188964605331421 -2.5
6.242416858673096 0.0 -2.5
5.921156883239746 1.9767675399780273 -2.5
5.742905139923096 2.4468164443969727 -2.5
5.527382850646973 2.900995969772339 -2.5
5.27603006362915 3.336357355117798 -2.5
4.990458965301514 3.7500877380371094 -2.5
4.663779258728027 4.131738185882568 -2.4953229427337646
4.112289905548096 4.281347751617432 -2.3774454593658447
2.512944221496582 5.295917987823486 -2.347599983215332
2.0786523818969727 5.480966567993164 -2.347599983215332
0.23603515326976776 5.857138633728027 -2.347599983215332
-0.23603026568889618 5.857128620147705 -2.347599983215332
-0.7065722346305847 5.819140434265137 -2.347599983215332
-1.172524333000183 5.743408203125 -2.347599983215332
-1.6308789253234863 5.630439281463623 -2.347599983215332
-2.0786473751068115 5.48095703125 -2.347599983215332
-2.512944221496582 5.295907974243164 -2.347599983215332
-3.814164876937866 4.671484470367432 -2.415249824523926
-5.276034832000732 3.3363475799560547 -2.5
-5.527392387390137 2.900995969772339 -2.5
-5.742900371551514 2.4468164443969727 -2.5
-6.06103515625 1.4939062595367432 -2.5
-6.161586761474609 1.0013476610183716 -2.5
-6.222177505493164 0.5022948980331421 -2.5
6.027763366699219 0.4866113066673279 -2.5
5.969072341918945 0.9700683355331421 -2.5
5.871650218963623 1.4472362995147705 -2.5
5.111181735992432 3.232119083404541 -2.5
4.099160194396973 4.267675876617432 -2.446286916732788
3.5977587699890137 4.406435489654541 -2.3516969680786133
3.225893497467041 4.673505783081055 -2.347599983215332
2.4344334602355957 5.130439281463623 -2.347599983215332
0.9420117139816284 4.614277362823486 -1.946897268295288
0.22865721583366394 5.674120903015137 -2.347599983215332
-0.22865721583366394 5.674120903015137 -2.347599983215332
-0.6844921708106995 5.63732385635376 -2.347599983215332
-1.5799120664596558 5.454511642456055 -2.347599983215332
-2.0137059688568115 5.309697151184082 -2.347599983215332
-2.839370012283325 4.917929649353027 -2.347599983215332
-5.111181735992432 3.232109308242798 -2.5
-5.563466548919678 2.370371103286743 -2.5
-5.736156940460205 1.9150195121765137 -2.5
5.862524509429932 0.0 -2.5
5.843505859375 0.4717382788658142 -2.5
5.69216775894165 1.4029881954193115 -2.5
5.393398284912109 2.297910213470459 -2.5
4.954941272735596 3.1333301067352295 -2.5
4.386411190032959 3.8860156536102295 -2.4990031719207764
3.4817090034484863 4.264297008514404 -2.347599983215332
3.1272850036621094 4.530634880065918 -2.347599983215332
2.3600194454193115 4.973613262176514 -2.347599983215332
1.5316210985183716 5.287783145904541 -2.347599983215332
0.9407910108566284 4.608291149139404 -2.005683422088623
-1.1011669635772705 5.393896579742432 -2.347599983215332
-1.5316210985183716 5.287783145904541 -2.347599983215332
-1.9521484375 5.147402286529541 -2.347599983215332
-3.147148370742798 4.559413909912109 -2.3625166416168213
-3.6989500522613525 4.530380725860596 -2.4940803050994873
-4.061118125915527 4.228066444396973 -2.5
-4.388168811798096 3.887568235397339 -2.5
-4.954946041107178 3.133310556411743 -2.5
-5.786601543426514 0.9404101371765137 -2.5
-5.843505859375 0.47172850370407104 -2.5
5.687031269073486 0.0 -2.5
5.668583869934082 0.4576171636581421 -2.5
5.613379001617432 0.9122655987739563 -2.5
5.394350528717041 1.8008886575698853 -2.5
5.231947898864746 2.229120969772339 -2.5
4.806621074676514 3.0395312309265137 -2.5
4.546454906463623 3.416435480117798 -2.5
4.256801605224609 3.7712011337280273 -2.5
3.455190420150757 4.231826305389404 -2.4016127586364746
1.893715739250183 4.993310451507568 -2.347599983215332
1.4857763051986694 5.129492282867432 -2.347599983215332
0.9395654201507568 4.602284908294678 -2.0648834705352783
0.6437060236930847 5.301396369934082 -2.347599983215332
-0.21503417193889618 5.336005687713623 -2.347599983215332
-0.6437060236930847 5.301405906677246 -2.347599983215332
-1.068203091621399 5.232411861419678 -2.347599983215332
-1.4857763051986694 5.129501819610596 -2.347599983215332
-1.89370596408844 4.993300437927246 -2.347599983215332
-2.670166015625 4.624873161315918 -2.347599983215332
-3.1377880573272705 4.545849323272705 -2.428170680999756
-3.5908544063568115 4.397988319396973 -2.495912790298462
-4.546445369720459 3.4164257049560547 -2.5
-5.035600662231445 2.642880916595459 -2.5
-5.521767616271973 1.360986351966858 -2.5
-5.6685791015625 0.4576074182987213 -2.5
5.520161151885986 9.765624781721272e-06 -2.5
5.448676586151123 0.885498046875 -2.5
5.078437328338623 2.1637206077575684 -2.5
4.887866020202637 2.5653417110443115 -2.5
3.4447412490844727 4.219033241271973 -2.466726779937744
2.5918309688568115 4.489169597625732 -2.347599983215332
1.4421825408935547 4.978993892669678 -2.347599983215332
0.9384765625 4.59695291519165 -2.124833583831787
0.6248242259025574 5.145859241485596 -2.347599983215332
-0.20872069895267487 5.179443359375 -2.347599983215332
-1.442177653312683 4.978993892669678 -2.347599983215332
-1.8381396532058716 4.846796989440918 -2.347599983215332
-2.2221875190734863 4.683164119720459 -2.347599983215332
-2.592646360397339 4.490605354309082 -2.348353862762451
-3.1263232231140137 4.529238224029541 -2.492429494857788
-3.487993001937866 4.272011756896973 -2.4977078437805176
-4.413056373596191 3.3162012100219727 -2.5
-4.665580749511719 2.950331926345825 -2.5
-4.887851238250732 2.5653319358825684 -2.5
-5.236073970794678 1.7480566501617432 -2.5
-5.448671817779541 0.8854882717132568 -2.5
-5.502255916595459 0.4441796839237213 -2.5
5.361269474029541 0.0 -2.5
5.343886375427246 0.4314062297344208 -2.5
5.291845798492432 0.8600097298622131 -2.5
