ply
format ascii 1.0
element vertex 790
property float x
property float y
property float z
end_header
0.8520800471305847 -21.14468765258789 5.670292854309082
-0.9621386528015137 -23.874969482421875 6.119503021240234
2.692070245742798 -22.17131805419922 5.719929218292236
-0.99378901720047 -24.66020393371582 6.030151844024658
0.8830175399780273 -21.91226577758789 5.3581953048706055
2.5466113090515137 -20.973369598388672 5.162087440490723
0.8760107159614563 -21.73819351196289 5.060835838317871
2.5671191215515137 -21.142314910888672 4.9542365074157715
4.605165958404541 -22.557655334472656 5.355586528778076
4.669501781463623 -22.872812271118164 5.158406734466553
7.169042587280273 -24.75044822692871 5.693865776062012
-0.9500097632408142 -23.573965072631836 4.9397687911987305
0.8963964581489563 -22.244422912597656 4.661168098449707
2.6324901580810547 -21.680683135986328 4.57269811630249
4.517539024353027 -22.128437042236328 4.728665828704834
-0.9926660060882568 -24.632606506347656 4.877083778381348
0.9042773246765137 -22.439687728881836 4.442902565002441
4.559853553771973 -22.335702896118164 4.509868144989014
7.480449199676514 -25.825565338134766 5.319145202636719
-25.903079986572266 -6.38455057144165 4.971289157867432
0.9093261361122131 -22.565351486206055 4.20828914642334
4.632480144500732 -22.691434860229492 4.31558084487915
6.657236099243164 -22.983495712280273 4.458833694458008
0.9174511432647705 -22.766796112060547 3.9851207733154297
4.411416053771973 -21.60857391357422 3.857272148132324
6.442285060882568 -22.241395950317383 4.049893856048584
4.565937519073486 -22.365447998046875 3.732182025909424
6.754033088684082 -23.317665100097656 3.969151496887207
0.9802441000938416 -24.324813842773438 3.703847646713257
2.776308536529541 -22.865156173706055 3.504314422607422
6.859453201293945 -23.681610107421875 3.751085042953491
2.828173875808716 -23.292255401611328 3.304185628890991
7.236162185668945 -24.982168197631836 3.6626861095428467
0.9558007717132568 -23.71857452392578 3.074982166290283
2.6726465225219727 -22.011327743530273 2.8722729682922363
4.569247722625732 -22.38167953491211 2.9591081142425537
2.698857307434082 -22.22718620300293 2.648509979248047
1.0913183689117432 -27.081268310546875 2.9018144607543945
0.9784667491912842 -24.280858993530273 1.7872265577316284
3.1035351753234863 -25.560068130493164 1.893666386604309
3.16119122505188 -26.034862518310547 1.6368731260299683
3.160234212875366 -26.02701187133789 1.344901442527771
3.1541991233825684 -25.977313995361328 0.761411726474762
-4.296811580657959 -21.04718780517578 0.38686156272888184
-2.4875683784484863 -20.48697280883789 0.371664434671402
-2.4864842891693115 -20.47807502746582 0.14287139475345612
-0.7974706888198853 -19.78890609741211 -0.08230270445346832
-2.8168601989746094 -23.19864273071289 -1.1338497400283813
-0.9083007574081421 -22.538095474243164 -1.0944207906723022
10.871444702148438 -18.829940795898438 -1.0549534559249878
12.820439338684082 -18.57366180419922 -1.0950180292129517
14.491649627685547 -17.74909210205078 -1.1117593050003052
18.53253936767578 -16.41841697692871 -1.201305627822876
9.101069450378418 -1.4790624380111694 -0.4473716616630554
-4.874721527099609 -23.877920150756836 -1.4532949924468994
-2.4868602752685547 -20.481182098388672 -1.2303317785263062
-0.9083007574081421 -22.538105010986328 -1.345113754272461
4.280009746551514 -20.965078353881836 -1.2760039567947388
5.922509670257568 -20.447011947631836 -1.269443154335022
7.559589862823486 -19.93310546875 -1.2712901830673218
10.871435165405273 -18.829931259155273 -1.296603798866272
13.2255859375 -19.16055679321289 -1.3883724212646484
14.533095359802246 -17.79987335205078 -1.3703274726867676
16.845458984375 -17.537967681884766 -1.4501454830169678
21.413671493530273 -16.091318130493164 -1.5973223447799683
8.553236961364746 -2.8554980754852295 -0.5377320647239685
8.508798599243164 -2.097226619720459 -0.5225939750671387
8.7523775100708 -1.422402262687683 -0.5287811160087585
-4.874726295471191 -23.87790870666504 -1.724502682685852
-2.4845898151397705 -20.4625186920166 -1.4586033821105957
-0.9083007574081421 -22.538105010986328 -1.5961371660232544
2.623652219772339 -21.608104705810547 -1.540263295173645
4.389081954956055 -21.499130249023438 -1.55270254611969
6.04495096206665 -20.86945343017578 -1.5374666452407837
7.601269245147705 -20.042987823486328 -1.5168529748916626
10.871435165405273 -18.829931259155273 -1.5385748147964478
12.924745559692383 -18.724706649780273 -1.609993815422058
21.13092803955078 -15.87890625 -1.87039053440094
7.921274185180664 -1.95242178440094 -0.577301025390625
-24.22427749633789 -15.318495750427246 -2.347599983215332
-22.93543815612793 -17.234853744506836 -2.349888563156128
-21.495023727416992 -19.042909622192383 -2.3521628379821777
-19.913270950317383 -20.731903076171875 -2.3545587062835693
-18.19792366027832 -22.28841781616211 -2.3568179607391357
-13.011679649353027 -18.850664138793945 -1.876131534576416
-8.03847599029541 -27.751981735229492 -2.366551399230957
-2.4845898151397705 -20.4625186920166 -1.6883580684661865
0.9013378620147705 -22.366846084594727 -1.8335140943527222
4.333437442779541 -21.226797103881836 -1.7745102643966675
5.967460632324219 -20.60222625732422 -1.7568563222885132
9.383769035339355 -19.775869369506836 -1.7929091453552246
16.559364318847656 -17.24019432067871 -1.95799720287323
21.14022445678711 -15.885869026184082 -2.165961980819702
23.80988311767578 -15.056503295898438 -2.307443380355835
8.514960289001465 -1.3838183879852295 -0.7065961956977844
10.529423713684082 -0.8500195145606995 -0.865252673625946
-26.5123291015625 -4.308671951293945 -2.5
-26.07964324951172 -6.428066253662109 -2.5
-24.49666976928711 -8.178183555603027 -2.4037234783172607
-23.204418182373047 -9.886465072631836 -2.347599983215332
-8.97713851928711 -23.670732498168945 -2.3562655448913574
-2.4845995903015137 -20.462499618530273 -1.9185290336608887
9.445478439331055 -19.90591812133789 -2.0507333278656006
14.533095359802246 -17.79987335205078 -2.138794183731079
18.532529830932617 -16.41841697692871 -2.304460048675537
7.007285118103027 -2.9855175018310547 -0.7089294195175171
7.016381740570068 -2.342421770095825 -0.6884796023368835
8.402334213256836 -1.365517497062683 -0.7923048138618469
-23.899843215942383 -1.9293749332427979 -2.5
-23.280818939208984 -5.738222599029541 -2.5
-22.74359893798828 -7.592919826507568 -2.5
-22.008657455444336 -9.3770112991333 -2.4943089485168457
-19.030214309692383 -12.033974647521973 -2.347599983215332
-18.000194549560547 -13.526249885559082 -2.347599983215332
-7.151982307434082 -6.336093425750732 -0.9962377548217773
-14.240087509155273 -17.440946578979492 -2.347599983215332
-11.257948875427246 -19.49933624267578 -2.347599983215332
-4.510825157165527 -22.095458984375 -2.351278066635132
-2.7188475131988525 -22.3917179107666 -2.3518013954162598
0.9084374904632568 -22.542919158935547 -2.352324962615967
2.623652219772339 -21.608104705810547 -2.2694973945617676
5.961230278015137 -20.580713272094727 -2.234032392501831
7.601269245147705 -20.042987823486328 -2.2350027561187744
10.871444702148438 -18.829940795898438 -2.2670094966888428
14.24007797241211 -17.440946578979492 -2.347599983215332
15.597294807434082 -16.238525390625 -2.347599983215332
19.030223846435547 -12.0339937210083 -2.347599983215332
6.58007287979126 -3.453495979309082 -0.7748165726661682
6.614096641540527 -2.818007707595825 -0.7495960593223572
6.954409122467041 -1.7141211032867432 -0.7467959523200989
8.337920188903809 -1.3550487756729126 -0.8807516098022461
10.341103553771973 -0.8348242044448853 -1.0817145109176636
-21.578691482543945 -1.7420018911361694 -2.5
-19.916532516479492 -8.485644340515137 -2.5
-17.92599105834961 -11.335721969604492 -2.449249267578125
-6.836352348327637 -6.056464672088623 -1.054703950881958
-6.70421838760376 -6.979824066162109 -1.1176137924194336
-12.85708999633789 -15.747079849243164 -2.347599983215332
-11.548300743103027 -16.7305850982666 -2.347599983215332
-10.164594650268555 -17.605575561523438 -2.347599983215332
-8.714975357055664 -18.36638641357422 -2.347599983215332
-7.208823204040527 -19.00810432434082 -2.347599983215332
-5.655937194824219 -19.526533126831055 -2.347599983215332
-2.4504148960113525 -20.18095588684082 -2.347599983215332
2.4504003524780273 -20.180965423583984 -2.347599983215332
4.066357135772705 -19.91834831237793 -2.347599983215332
5.655927658081055 -19.52652359008789 -2.347599983215332
7.208827972412109 -19.00810432434082 -2.347599983215332
10.164579391479492 -17.605566024780273 -2.347599983215332
11.548280715942383 -16.7305850982666 -2.347599983215332
12.85708999633789 -15.747079849243164 -2.347599983215332
15.216606140136719 -13.480741500854492 -2.347599983215332
16.25200653076172 -12.212607383728027 -2.347599983215332
6.249287128448486 -3.9518163204193115 -0.8538478016853333
6.244223594665527 -3.277216672897339 -0.8143588304519653
6.917392253875732 -1.7049901485443115 -0.822723388671875
-19.664012908935547 -1.5874511003494263 -2.5
-19.472503662109375 -3.1645898818969727 -2.5
-19.15473175048828 -4.721210956573486 -2.5
-18.712709426879883 -6.247216701507568 -2.5
-18.14933967590332 -7.732705116271973 -2.5
-16.673900604248047 -10.543925285339355 -2.5
-11.716283798217773 -14.349853515625 -2.347599983215332
-9.262690544128418 -16.04345703125 -2.347599983215332
-6.569184303283691 -17.321533203125 -2.347599983215332
-3.705556631088257 -18.150976181030273 -2.347599983215332
-2.232978582382202 -18.390302658081055 -2.347599983215332
2.232978582382202 -18.390283584594727 -2.347599983215332
3.7055418491363525 -18.150985717773438 -2.347599983215332
5.154077053070068 -17.7939453125 -2.347599983215332
6.569179534912109 -17.321514129638672 -2.347599983215332
7.941689491271973 -16.736757278442383 -2.347599983215332
9.262685775756836 -16.043426513671875 -2.347599983215332
12.832958221435547 -13.360546112060547 -2.347599983215332
14.207148551940918 -12.586454391479492 -2.4052846431732178
6.249287128448486 -3.9518163204193115 -0.9369866847991943
6.003945350646973 -2.004404306411743 -0.802122175693512
6.896586894989014 -1.6998631954193115 -0.9001160860061646
8.276885032653809 -1.345117211341858 -1.062637209892273
10.218559265136719 -0.8249218463897705 -1.299144983291626
-18.116064071655273 1.9531249563442543e-05 -2.5
-17.881454467773438 -2.9060254096984863 -2.5
-17.183740615844727 -5.736767292022705 -2.5
-16.66639518737793 -7.100898265838623 -2.5
-16.040971755981445 -8.4189453125 -2.5
-8.318290710449219 -5.260175704956055 -1.3581761121749878
-9.6637544631958 -14.000341415405273 -2.347599983215332
-7.292802333831787 -15.36922836303711 -2.347599983215332
3.40276837348938 -16.667909622192383 -2.347599983215332
4.732949256896973 -16.340038299560547 -2.347599983215332
9.663744926452637 -14.000350952148438 -2.347599983215332
13.560063362121582 -12.01317310333252 -2.5
14.482744216918945 -10.883075714111328 -2.5
6.047592639923096 -3.174023389816284 -0.942523181438446
5.873437404632568 -2.50244140625 -0.881030261516571
-16.7437686920166 1.9531249563442543e-05 -2.5
-16.526933670043945 -2.6858787536621094 -2.5
-15.882055282592773 -5.302206993103027 -2.5
-15.40392017364502 -6.562978267669678 -2.5
-6.561327934265137 -5.812812328338623 -1.308821678161621
-5.986708641052246 -7.332382678985596 -1.4133580923080444
-6.770072937011719 -14.267597198486328 -2.357944965362549
-5.575478553771973 -14.701327323913574 -2.347599983215332
-4.374438285827637 -15.102265357971191 -2.347599983215332
-3.14501953125 -15.405292510986328 -2.347599983215332
-1.8952099084854126 -15.608437538146973 -2.347599983215332
-0.633105456829071 -15.710302352905273 -2.347599983215332
0.6330956816673279 -15.71029281616211 -2.347599983215332
3.145014524459839 -15.405292510986328 -2.347599983215332
5.57546854019165 -14.701308250427246 -2.347599983215332
6.761494159698486 -14.249550819396973 -2.35496187210083
11.598798751831055 -12.075654029846191 -2.5
12.532880783081055 -11.10317325592041 -2.5
13.385673522949219 -10.058691024780273 -2.5
6.249287128448486 -3.9518163204193115 -1.1039848327636719
6.047592639923096 -3.174023389816284 -1.0197710990905762
5.873437404632568 -2.50244140625 -0.9532383680343628
6.869067192077637 -1.6930761337280273 -1.0563098192214966
8.259321212768555 -1.3422753810882568 -1.2493737936019897
10.211835861206055 -0.8243945240974426 -1.5296834707260132
-15.561083793640137 0.0 -2.5
-15.510634422302246 -1.252138614654541 -2.5
-14.760268211364746 -4.927695274353027 -2.5
-13.77865219116211 -7.231601238250732 -2.5
-8.371611595153809 -5.293896198272705 -1.591309666633606
-7.363588809967041 -5.533378601074219 -1.4797974824905396
-6.500405311584473 -5.758857250213623 -1.395220398902893
-5.827929496765137 -6.067519187927246 -1.3516180515289307
-8.839712142944336 -12.806513786315918 -2.5
-7.78054666519165 -13.476288795471191 -2.5
-5.464296817779541 -14.408164024353027 -2.4756507873535156
-4.211274147033691 -14.538984298706055 -2.4318034648895264
-2.9874510765075684 -14.633476257324219 -2.399465560913086
4.208232402801514 -14.528525352478027 -2.4300529956817627
7.78054666519165 -13.476288795471191 -2.5
8.839706420898438 -12.806523323059082 -2.5
9.84151840209961 -12.05370044708252 -2.5
10.779541015625 -11.222704887390137 -2.5
11.6476411819458 -10.318915367126465 -2.5
12.440195083618164 -9.348212242126465 -2.5
6.249287128448486 -3.9518163204193115 -1.1878888607025146
6.047592639923096 -3.174023389816284 -1.0972753763198853
5.850678443908691 -1.9532421827316284 -0.9909521341323853
6.865043640136719 -1.692080020904541 -1.1359269618988037
8.257333755493164 -1.3419336080551147 -1.3440040349960327
10.208466529846191 -0.8241015672683716 -1.6453990936279297
-14.483940124511719 -1.1692577600479126 -2.5
-14.342880249023438 -2.330927610397339 -2.5
-12.866616249084473 -6.752910137176514 -2.5
-8.33816909790039 -5.272753715515137 -1.6973026990890503
-5.7127685546875 -5.947607517242432 -1.4188257455825806
-5.391938209533691 -6.603925704956055 -1.4667811393737793
-8.254590034484863 -11.95882797241211 -2.5
-5.152782917022705 -13.586767196655273 -2.5
-4.042797565460205 -13.957343101501465 -2.5
-0.5841454863548279 -14.495253562927246 -2.495863914489746
4.042792797088623 -13.957343101501465 -2.5
5.152778148651123 -13.586767196655273 -2.5
8.254579544067383 -11.958818435668945 -2.5
9.19009780883789 -11.255829811096191 -2.5
10.06600570678711 -10.479833602905273 -2.5
6.249287128448486 -3.9518163204193115 -1.2720930576324463
6.047592639923096 -3.174023389816284 -1.1750556230545044
5.873437404632568 -2.50244140625 -1.0983918905258179
8.255341529846191 -1.3416210412979126 -1.4389264583587646
10.205801010131836 -0.8238964676856995 -1.761572241783142
-13.229736328125 -3.2608397006988525 -2.5
-12.064936637878418 -6.332167625427246 -2.5
-5.636494159698486 -5.868212699890137 -1.4929002523422241
-4.831733226776123 -12.740234375 -2.5
-3.790903329849243 -13.087695121765137 -2.5
-2.7254834175109863 -13.350312232971191 -2.5
-1.6423925161361694 -13.526317596435547 -2.5
-0.548657238483429 -13.614628791809082 -2.5
2.7254834175109863 -13.350312232971191 -2.5
5.841220378875732 -12.3101167678833 -2.5
6.812836647033691 -11.800185203552246 -2.5
7.740258693695068 -11.21371078491211 -2.5
9.438827514648438 -9.826874732971191 -2.5
10.198959350585938 -9.035497665405273 -2.5
10.8929443359375 -8.185526847839355 -2.5
6.249287128448486 -3.9518163204193115 -1.3566197156906128
5.873437404632568 -2.50244140625 -1.1713765859603882
5.850678443908691 -1.9532324075698853 -1.131708025932312
7.349204063415527 -1.8114256858825684 -1.3887661695480347
8.249003410339355 -1.3406054973602295 -1.5333607196807861
-12.823442459106445 9.765624781721272e-06 -2.5
-12.781869888305664 -1.0318554639816284 -2.5
-12.450819969177246 -3.06884765625 -2.5
-11.797314643859863 -5.026347637176514 -2.5
-11.354594230651855 -5.95934534072876 -2.5
-8.271703720092773 -5.230702877044678 -1.9079879522323608
-7.263310432434082 -5.458027362823486 -1.7712609767913818
-6.380346775054932 -5.652490139007568 -1.6618080139160156
-5.579751014709473 -5.809130668640137 -1.5703237056732178
-5.293266296386719 -6.483085632324219 -1.6316847801208496
-6.411723613739014 -11.105429649353027 -2.5
-5.497328758239746 -11.58535099029541 -2.5
-3.5677146911621094 -12.317148208618164 -2.5
1.5456883907318115 -12.729941368103027 -2.5
2.565014600753784 -12.56429672241211 -2.5
4.547255992889404 -11.99013614654541 -2.5
5.497314453125 -11.58536148071289 -2.5
7.2845458984375 -10.553495407104492 -2.5
8.110121726989746 -9.933115005493164 -2.5
8.883110046386719 -9.248320579528809 -2.5
6.249287128448486 -3.9518163204193115 -1.4414887428283691
6.047592639923096 -3.174023389816284 -1.3315296173095703
5.873437404632568 -2.50244140625 -1.2446569204330444
7.427875995635986 -1.8308203220367432 -1.4914427995681763
8.241400718688965 -1.33935546875 -1.6277858018875122
10.205790519714355 -0.8239062428474426 -1.9961475133895874
-12.107514381408691 9.765624781721272e-06 -2.5
-11.950727462768555 -1.9421874284744263 -2.5
-11.484423637390137 -3.834062337875366 -2.5
-11.138667106628418 -4.745722770690918 -2.5
-10.72066879272461 -5.626640319824219 -2.5
-8.259634017944336 -5.223066329956055 -2.0178616046905518
-6.357846736907959 -5.632568359375 -1.7538692951202393
-5.563764572143555 -5.792500019073486 -1.6584148406982422
-6.053759574890137 -10.485419273376465 -2.5
-1.4593993425369263 -12.019218444824219 -2.5
0.48750975728034973 -12.097684860229492 -2.5
2.421806573867798 -11.862832069396973 -2.5
3.3685154914855957 -11.62948226928711 -2.5
4.293383598327637 -11.320732116699219 -2.5
6.053754806518555 -10.4854097366333 -2.5
6.877851486206055 -9.964286804199219 -2.5
8.387158393859863 -8.731963157653809 -2.5
5.850678443908691 -1.9532421827316284 -1.2736132144927979
6.814223289489746 -1.6795605421066284 -1.4491337537765503
-11.427338600158691 -0.92249995470047 -2.5
-11.13138198852539 -2.7436327934265137 -2.5
-10.87451171875 -3.630449056625366 -2.5
-10.151323318481445 -5.327831745147705 -2.5
-8.264975547790527 -5.226454734802246 -2.1324124336242676
-6.335405349731445 -5.612685203552246 -1.8456993103027344
-5.547773361206055 -5.775839805603027 -1.7463946342468262
-5.210669040679932 -6.381904125213623 -1.7966150045394897
-6.512592792510986 -9.4351167678833 -2.5
-2.2931981086730957 -11.232831954956055 -2.5
-1.3818895816802979 -11.380927085876465 -2.5
-0.4616357386112213 -11.455214500427246 -2.5
0.46162596344947815 -11.455214500427246 -2.5
1.3818895816802979 -11.380937576293945 -2.5
2.2931981086730957 -11.232831954956055 -2.5
4.065371036529541 -10.719511032104492 -2.5
4.914745807647705 -10.357617378234863 -2.5
7.941742897033691 -8.268241882324219 -2.5
6.249287128448486 -3.9518163204193115 -1.6123539209365845
5.850678443908691 -1.9532421827316284 -1.3450454473495483
8.237958908081055 -1.338808536529541 -1.8199719190597534
10.424467086791992 -0.841552734375 -2.2805986404418945
-10.567445755004883 -2.6046581268310547 -2.5
-8.315644264221191 -5.258486270904541 -2.259979009628296
-7.230185508728027 -5.433144569396973 -2.0774247646331787
-4.665776252746582 -9.832890510559082 -2.5
-2.1770215034484863 -10.663740158081055 -2.5
1.3118798732757568 -10.80435562133789 -2.5
4.665761470794678 -9.832880973815918 -2.5
5.441860198974609 -9.425565719604492 -2.5
6.18264627456665 -8.95711898803711 -2.5
8.14657211303711 -7.217246055603027 -2.5
8.70089340209961 -6.538310527801514 -2.5
5.873437404632568 -2.50244140625 -1.466485857963562
6.730390548706055 -1.6588866710662842 -1.5922472476959229
8.233437538146973 -1.3380663394927979 -1.916043996810913
10.848407745361328 -0.875781238079071 -2.5
-10.35635757446289 0.0 -2.5
-10.055424690246582 -2.4784374237060547 -2.5
-9.527636528015137 -4.05935525894165 -2.5
-6.295112133026123 -5.576982498168945 -2.030198097229004
-5.549428462982178 -5.777568340301514 -1.9338411092758179
-5.88308572769165 -8.523124694824219 -2.5
-2.8813230991363525 -9.947470664978027 -2.5
-2.071542978286743 -10.14706039428711 -2.5
-1.2483203411102295 -10.28084945678711 -2.5
-0.4170165956020355 -10.3479585647583 -2.5
4.439692497253418 -9.356454849243164 -2.5
5.178183555603027 -8.968867301940918 -2.5
7.174091815948486 -7.469033241271973 -2.5
6.249287128448486 -3.9518163204193115 -1.78488028049469
5.873437404632568 -2.50244140625 -1.5411592721939087
5.850678443908691 -1.9532421827316284 -1.4889684915542603
10.222246170043945 -1.6612889766693115 -2.5
10.32277774810791 -0.8333398103713989 -2.5
-9.843276023864746 -0.7946191430091858 -2.5
-9.747416496276855 -1.5841015577316284 -2.5
-9.58834457397461 -2.3633105754852295 -2.5
-8.744150161743164 -4.589286804199219 -2.5
-7.894736289978027 -5.932519435882568 -2.5
-6.29543924331665 -5.577275276184082 -2.1292052268981934
-5.556811332702637 -5.785254001617432 -2.0307400226593018
-5.609814167022705 -8.127206802368164 -2.5
-4.93765115737915 -8.552265167236328 -2.5
-4.233476638793945 -8.921835899353027 -2.5
-3.5018310546875 -9.23355484008789 -2.5
-2.747490167617798 -9.485390663146973 -2.5
-1.9753222465515137 -9.675732612609863 -2.5
-0.3976464867591858 -9.867284774780273 -2.5
0.39763182401657104 -9.867284774780273 -2.5
1.190332055091858 -9.803300857543945 -2.5
1.9753124713897705 -9.675722122192383 -2.5
2.7474803924560547 -9.4854097366333 -2.5
3.5018310546875 -9.233564376831055 -2.5
4.233471393585205 -8.921854972839355 -2.5
4.937655925750732 -8.552265167236328 -2.5
5.609809398651123 -8.127216339111328 -2.5
6.840854167938232 -7.12209939956665 -2.5
7.391767501831055 -6.548544883728027 -2.5
6.047592639923096 -3.174023389816284 -1.7290407419204712
5.850678443908691 -1.9532324075698853 -1.5614999532699585
9.843276023864746 -0.794628918170929 -2.5
-8.679633140563965 -3.6980273723602295 -2.5
-7.542431354522705 -5.66775369644165 -2.5
-6.294980525970459 -5.576865196228027 -2.228501796722412
-5.580532073974609 -5.809941291809082 -2.134673833847046
-4.044550895690918 -8.523691177368164 -2.5
1.1372119188308716 -9.36581039428711 -2.5
1.8871532678604126 -9.243935585021973 -2.5
2.624868154525757 -9.062108993530273 -2.5
3.3455517292022705 -8.821503639221191 -2.5
4.044545650482178 -8.523700714111328 -2.5
4.717299461364746 -8.170605659484863 -2.5
5.359462738037109 -7.764531135559082 -2.5
6.535571098327637 -6.804267406463623 -2.5
7.061894416809082 -6.256289005279541 -2.5
7.542417049407959 -5.667773246765137 -2.5
7.974023342132568 -5.042470455169678 -2.5
5.850678443908691 -1.9532421827316284 -1.6344397068023682
6.752172470092773 -1.6642577648162842 -1.8427517414093018
9.312421798706055 -1.5134179592132568 -2.5
9.403905868530273 -0.7588183283805847 -2.5
-9.029276847839355 0.0 -2.5
-8.999995231628418 -0.7265429496765137 -2.5
-8.912343978881836 -1.4483983516693115 -2.5
-8.7669038772583 -2.160839796066284 -2.5
-8.56459903717041 -2.8592870235443115 -2.5
-8.306753158569336 -3.5391600131988525 -2.5
-7.995028972625732 -4.196113109588623 -2.5
-7.631454944610596 -4.825839519500732 -2.5
-7.218398094177246 -5.424277305603027 -2.5
-6.293740272521973 -5.575761795043945 -2.3280768394470215
-6.254804611206055 -6.511933326721191 -2.5
-5.710522174835205 -6.994121074676514 -2.5
-4.514643669128418 -7.819570064544678 -2.5
-3.870795726776123 -8.157500267028809 -2.5
-3.201835870742798 -8.442519187927246 -2.5
-1.8060888051986694 -8.846796989440918 -2.5
-1.0883642435073853 -8.9634370803833 -2.5
-0.36357420682907104 -9.021952629089355 -2.5
1.088354468345642 -8.963446617126465 -2.5
3.8707761764526367 -8.157509803771973 -2.5
4.514633655548096 -7.819589614868164 -2.5
5.710517406463623 -6.994121074676514 -2.5
6.758505821228027 -5.987509727478027 -2.5
6.906332969665527 -3.6247167587280273 -2.1595704555511475
8.912343978881836 -1.4483983516693115 -2.5
-8.655160903930664 9.765624781721272e-06 -2.5
-8.543075561523438 -1.3883984088897705 -2.5
-8.403647422790527 -2.0713086128234863 -2.5
-8.209726333618164 -2.7408103942871094 -2.5
-7.962568283081055 -3.392529249191284 -2.5
-7.663759708404541 -4.022236347198486 -2.5
-7.315253734588623 -4.625878810882568 -2.5
-5.995639324188232 -6.242118835449219 -2.5
-5.473910808563232 -6.704306602478027 -2.5
-4.916694164276123 -7.123046875 -2.5
-3.710405111312866 -7.819501876831055 -2.5
-1.7312548160552979 -8.480234146118164 -2.5
-1.0432714223861694 -8.592050552368164 -2.5
0.34850096702575684 -8.648144721984863 -2.5
1.7312499284744263 -8.480234146118164 -2.5
3.710400342941284 -7.819491863250732 -2.5
4.327573299407959 -7.495585918426514 -2.5
5.47390604019165 -6.704326152801514 -2.5
5.99563455581665 -6.242128849029541 -2.5
7.315248966217041 -4.625898361206055 -2.5
6.757045745849609 -1.6654784679412842 -2.01015305519104
8.543070793151855 -1.3883886337280273 -2.5
8.627089500427246 -0.6964452862739563 -2.5
-8.067240715026855 -1.9883984327316284 -2.5
-7.022411823272705 -4.440722465515137 -2.5
-4.154345512390137 -7.195517539978027 -2.5
-2.946303606033325 -7.768749713897705 -2.5
-2.3116209506988525 -7.980634689331055 -2.5
-1.001503825187683 -8.248085975646973 -2.5
0.33455565571784973 -8.301933288574219 -2.5
1.0014941692352295 -8.2481050491333 -2.5
2.3116209506988525 -7.980644226074219 -2.5
2.946298837661743 -7.768749713897705 -2.5
4.154335975646973 -7.195546627044678 -2.5
5.254780292510986 -6.435956954956055 -2.5
6.642304420471191 -4.991366863250732 -2.5
7.022417068481445 -4.440712928771973 -2.5
6.751376628875732 -1.6640625 -2.092216730117798
8.201079368591309 -1.332802653312683 -2.5
8.281733512878418 -0.6685644388198853 -2.5
-7.986821174621582 0.0 -2.5
-7.754726409912109 -1.9113671779632568 -2.5
-7.071977615356445 -3.711660146713257 -2.5
-5.532665729522705 -5.760097503662109 -2.5
-3.993398427963257 -6.91677713394165 -2.5
-2.2220799922943115 -7.671483993530273 -2.5
-0.9627050757408142 -7.928574085235596 -2.5
0.3215917944908142 -7.98034143447876 -2.5
0.962695300579071 -7.92858362197876 -2.5
2.2220654487609863 -7.671474456787109 -2.5
2.8321533203125 -7.467792987823486 -2.5
3.42388653755188 -7.215703010559082 -2.5
3.993408203125 -6.916796684265137 -2.5
4.537026405334473 -6.573007583618164 -2.5
5.051220417022705 -6.186630725860596 -2.5
5.532646179199219 -5.760097503662109 -2.5
5.978217601776123 -5.296240329742432 -2.5
7.071967601776123 -3.711660146713257 -2.5
7.960912704467773 -0.6426659822463989 -2.5
-7.686967372894287 0.0 -2.5
-7.587416648864746 -1.2330760955810547 -2.5
-7.463588714599609 -1.8396093845367432 -2.5
-7.071850299835205 -3.0130369663238525 -2.5
-4.861586570739746 -5.954355239868164 -2.5
-4.366694450378418 -6.326230525970459 -2.5
-3.29534649848938 -6.944785118103027 -2.5
-2.1386473178863525 -7.383466720581055 -2.5
-0.926562488079071 -7.630937099456787 -2.5
0.9265576004981995 -7.630918025970459 -2.5
2.725834846496582 -7.187441349029541 -2.5
4.366694450378418 -6.326250076293945 -2.5
5.324941158294678 -5.543867111206055 -2.5
5.75377893447876 -5.097412109375 -2.5
6.145283222198486 -4.617890357971191 -2.5
6.496938228607178 -4.10842752456665 -2.5
7.071845531463623 -3.0130369663238525 -2.5
7.291362285614014 -2.434218645095825 -2.5
-7.406879901885986 -9.765624781721272e-06 -2.5
-7.382861137390137 -0.5960058569908142 -2.5
-7.19164514541626 -1.7725781202316284 -2.5
-7.025688171386719 -2.345507860183716 -2.5
-6.814169883728027 -2.9032421112060547 -2.5
-6.260214805603027 -3.9587206840515137 -2.5
-5.130927562713623 -5.341855525970459 -2.5
-4.684438228607178 -5.737402439117432 -2.5
-3.1752781867980957 -6.691747665405273 -2.5
-0.8927929401397705 -7.352860927581787 -2.5
0.2982421815395355 -7.400868892669678 -2.5
0.8927929401397705 -7.352860927581787 -2.5
2.060717821121216 -7.114443302154541 -2.5
2.626513719558716 -6.925546646118164 -2.5
3.1752684116363525 -6.691738128662109 -2.5
5.130912780761719 -5.341855525970459 -2.5
5.544126033782959 -4.911669731140137 -2.5
6.260214805603027 -3.958730459213257 -2.5
6.558456897735596 -3.442138671875 -2.5
6.729760646820068 -1.6587401628494263 -2.3394384384155273
7.310952186584473 -1.1881444454193115 -2.5
7.382856369018555 -0.595996081829071 -2.5
-7.121425628662109 -0.5748925805091858 -2.5
-7.052074909210205 -1.1460644006729126 -2.5
-6.776899337768555 -2.262460947036743 -2.5
-6.5728759765625 -2.8004491329193115 -2.5
-6.326215744018555 -3.320244073867798 -2.5
-6.038535118103027 -3.818544864654541 -2.5
-5.71169900894165 -4.292050838470459 -2.5
-5.347802639007568 -4.737753868103027 -2.5
-4.949233055114746 -5.152695178985596 -2.5
-3.5722997188568115 -6.187402248382568 -2.5
-3.0628368854522705 -6.454765319824219 -2.5
-1.429101586341858 -7.000195026397705 -2.5
-0.8611865043640137 -7.092499732971191 -2.5
-0.28768065571784973 -7.13878870010376 -2.5
0.28768065571784973 -7.13878870010376 -2.5
0.8611767292022705 -7.092499732971191 -2.5
1.4290966987609863 -7.000205039978027 -2.5
1.9877392053604126 -6.862499713897705 -2.5
2.533500909805298 -6.680312156677246 -2.5
3.0628271102905273 -6.454775333404541 -2.5
3.5722949504852295 -6.187402248382568 -2.5
4.058588981628418 -5.8798828125 -2.5
5.347797870635986 -4.737753868103027 -2.5
5.711684226989746 -4.292060375213623 -2.5
6.776904106140137 -2.2624804973602295 -2.5
7.052070140838623 -1.1460644006729126 -2.5
7.121420860290527 -0.574902355670929 -2.5
-6.80908203125 -1.106591820716858 -2.5
-6.697954177856445 -1.6508984565734863 -2.5
-6.543393611907959 -2.184501886367798 -2.5
-6.108237266540527 -3.2058398723602295 -2.5
-5.830468654632568 -3.686962842941284 -2.5
-5.514877796173096 -4.144160270690918 -2.5
-4.778696060180664 -4.975146293640137 -2.5
-3.9187498092651367 -5.67727518081665 -2.5
-3.4492039680480957 -5.974199295043945 -2.5
-2.4462108612060547 -6.450136661529541 -2.5
-1.9192626476287842 -6.626073837280273 -2.5
-1.379858374595642 -6.759003639221191 -2.5
-0.8315136432647705 -6.848124980926514 -2.5
-0.2777734398841858 -6.892802715301514 -2.5
0.2777685523033142 -6.892812252044678 -2.5
0.8315038681030273 -6.848105430603027 -2.5
1.919252872467041 -6.626054763793945 -2.5
2.4462060928344727 -6.450126647949219 -2.5
2.957289934158325 -6.232372760772705 -2.5
3.449208974838257 -5.974208831787109 -2.5
3.9187450408935547 -5.677285194396973 -2.5
5.163530349731445 -4.574501991271973 -2.5
5.830458641052246 -3.6869726181030273 -2.5
6.108237266540527 -3.2058398723602295 -2.5
6.543393611907959 -2.184521436691284 -2.5
6.697948932647705 -1.65090811252594 -2.5
6.80908203125 -1.1065820455551147 -2.5
-6.666850566864014 0.0 -2.5
-6.580507755279541 -1.0694433450698853 -2.5
-6.473110198974609 -1.59548819065094 -2.5
-6.323744773864746 -2.111161947250366 -2.5
-5.9031982421875 -3.0982420444488525 -2.5
-5.329765319824219 -4.005058288574219 -2.5
-4.990204811096191 -4.420917987823486 -2.5
-4.6182861328125 -4.80813455581665 -2.5
-2.8580322265625 -6.023163795471191 -2.5
-2.3640966415405273 -6.233593463897705 -2.5
-1.8548388481140137 -6.403632640838623 -2.5
-1.3335448503494263 -6.53209924697876 -2.5
-0.26845213770866394 -6.661425590515137 -2.5
0.26844725012779236 -6.661425590515137 -2.5
0.8035937547683716 -6.618232250213623 -2.5
1.333535075187683 -6.532109260559082 -2.5
1.854824185371399 -6.403632640838623 -2.5
3.7871971130371094 -5.486708641052246 -2.5
5.329751014709473 -4.005058288574219 -2.5
5.634746074676514 -3.5631933212280273 -2.5
5.9031982421875 -3.0982420444488525 -2.5
6.323740005493164 -2.1111717224121094 -2.5
6.473114967346191 -1.5954785346984863 -2.5
-6.448564529418945 0.0 -2.5
-6.427651405334473 -0.5188866853713989 -2.5
-6.11669921875 -2.0420312881469727 -2.5
-5.155258655548096 -3.8739256858825684 -2.5
-4.467084884643555 -4.650722503662109 -2.5
-3.663203001022339 -5.307070255279541 -2.5
-2.7644481658935547 -5.82595682144165 -2.5
-2.286689519882202 -6.029511451721191 -2.5
-1.7941112518310547 -6.193954944610596 -2.5
-0.25965818762779236 -6.443349361419678 -2.5
0.7772851586341858 -6.401542663574219 -2.5
1.79409658908844 -6.19396448135376 -2.5
2.7644433975219727 -5.825966835021973 -2.5
3.2242822647094727 -5.584619045257568 -2.5
4.078354358673096 -4.995097637176514 -2.5
4.826826095581055 -4.276191234588623 -2.5
5.155253887176514 -3.8739354610443115 -2.5
5.709921836853027 -2.9968066215515137 -2.5
6.261181354522705 -1.543251872062683 -2.5
6.427646160125732 -0.5188866853713989 -2.5
-6.242431640625 1.9531249563442543e-05 -2.5
-6.161581993103027 -1.0013476610183716 -2.5
-5.921162128448486 -1.9767577648162842 -2.5
-5.742895603179932 -2.4468164443969727 -2.5
-5.527382850646973 -2.900995969772339 -2.5
-5.276034832000732 -3.336367130279541 -2.5
-4.672519207000732 -4.139492034912109 -2.5
-3.5461082458496094 -5.137402057647705 -2.5
-3.1212158203125 -5.406103610992432 -2.5
-2.676088809967041 -5.639707088470459 -2.5
-1.7367626428604126 -5.995956897735596 -2.5
-1.2486474514007568 -6.116269588470459 -2.5
-0.75244140625 -6.196913719177246 -2.5
0.2513525187969208 -6.237363338470459 -2.5
2.2135937213897705 -5.836767673492432 -2.5
3.1212158203125 -5.406103610992432 -2.5
3.5461034774780273 -5.137412071228027 -2.5
4.324272155761719 -4.502060413360596 -2.5
4.672519207000732 -4.139492034912109 -2.5
4.990454196929932 -3.7500975131988525 -2.5
5.27603006362915 -3.336357355117798 -2.5
5.527387619018555 -2.900995969772339 -2.5
5.742895603179932 -2.446826219558716 -2.5
6.061025142669678 -1.49392569065094 -2.5
-6.047382831573486 0.0 -2.5
-5.563461780548096 -2.370371103286743 -2.5
-5.354687213897705 -2.810351610183716 -2.5
-5.111181735992432 -3.232119083404541 -2.5
-4.189165115356445 -4.361376762390137 -2.5
-3.824638605117798 -4.684326171875 -2.5
-1.209633708000183 -5.92516565322876 -2.5
-0.728930652141571 -6.003281116485596 -2.5
0.2434960901737213 -6.042470455169678 -2.5
0.7289257645606995 -6.003281116485596 -2.5
1.6824804544448853 -5.808613300323486 -2.5
3.023691415786743 -5.237177848815918 -2.5
3.435297727584839 -4.976894378662109 -2.5
4.189159870147705 -4.361367225646973 -2.5
4.526523113250732 -4.010156154632568 -2.5
4.834531307220459 -3.6329100131988525 -2.5
5.111181735992432 -3.232119083404541 -2.5
5.354687213897705 -2.81036114692688 -2.5
5.563466548919678 -2.370371103286743 -2.5
5.736156940460205 -1.9150292873382568 -2.5
5.871650218963623 -1.4472362995147705 -2.5
-5.692172527313232 -1.4029979705810547 -2.5
-5.560810565948486 -1.85647451877594 -2.5
-5.191000938415527 -2.724443197250366 -2.5
-4.388154029846191 -3.8875584602355957 -2.5
-4.061113357543945 -4.228066444396973 -2.5
-3.707719564437866 -4.541132926940918 -2.5
-3.3302879333496094 -4.824755668640137 -2.5
-2.5132176876068115 -5.296494007110596 -2.5
-2.0788769721984863 -5.481543064117432 -2.5
-0.7066503763198853 -5.819765567779541 -2.5
-0.23605956137180328 -5.857763767242432 -2.5
0.2360546886920929 -5.857763767242432 -2.5
1.6310546398162842 -5.631054401397705 -2.5
2.9312596321105957 -5.077089786529541 -2.5
3.3302879333496094 -4.824746131896973 -2.5
3.707719564437866 -4.541142463684082 -2.5
4.388159275054932 -3.8875584602355957 -2.5
4.686743259429932 -3.521865129470825 -2.5
5.393393516540527 -2.297900438308716 -2.5
5.560810565948486 -1.85647451877594 -2.5
5.692158222198486 -1.4029979705810547 -2.5
-5.668588638305664 -0.4576171636581421 -2.5
-5.613388538360596 -0.9122655987739563 -2.5
-5.521772384643555 -1.3609960079193115 -2.5
-5.231943130493164 -2.2291111946105957 -2.5
-4.546445369720459 -3.4164257049560547 -2.5
-4.256801605224609 -3.7712011337280273 -2.5
-3.5967283248901367 -4.405195236206055 -2.5
-3.230600595474243 -4.680331707000732 -2.5
-2.43798828125 -5.137939453125 -2.5
-1.1375585794448853 -5.572089672088623 -2.5
-0.22899413108825684 -5.682412147521973 -2.5
0.22898437082767487 -5.682421684265137 -2.5
0.685498058795929 -5.645556449890137 -2.5
1.137548804283142 -5.572099685668945 -2.5
2.437983274459839 -5.137948989868164 -2.5
3.230600595474243 -4.680331707000732 -2.5
3.9395360946655273 -4.101493835449219 -2.5
4.546445369720459 -3.416445255279541 -2.5
5.035605430603027 -2.642890453338623 -2.5
5.231943130493164 -2.229130744934082 -2.5
5.394350528717041 -1.8008984327316284 -2.5
5.521762371063232 -1.3609960079193115 -2.5
5.613379001617432 -0.9122558236122131 -2.5
-5.520165920257568 0.0 -2.5
-5.502265453338623 -0.44419920444488525 -2.5
-3.8239500522613525 -3.9811718463897705 -2.5
-3.4911961555480957 -4.275937557220459 -2.5
-2.366459846496582 -4.987187385559082 -2.5
-1.9574755430221558 -5.161435604095459 -2.5
-1.535805583000183 -5.302216529846191 -2.5
-1.1041747331619263 -5.408603191375732 -2.5
-0.6653857231140137 -5.479902267456055 -2.5
0.22227050364017487 -5.515683650970459 -2.5
1.5358006954193115 -5.302206993103027 -2.5
1.9574706554412842 -5.161445140838623 -2.5
2.760077953338623 -4.780595779418945 -2.5
3.135810375213623 -4.54299783706665 -2.5
3.4911961555480957 -4.275937557220459 -2.5
3.8239452838897705 -3.981152296066284 -2.5
4.131899356842041 -3.6605467796325684 -2.5
4.413051605224609 -3.3161914348602295 -2.5
4.665580749511719 -2.950331926345825 -2.5
5.078432559967041 -2.163710832595825 -2.5
5.502255916595459 -0.44419920444488525 -2.5
-5.343891620635986 -0.431396484375 -2.5
-5.085361003875732 -1.6977343559265137 -2.5
-4.932255744934082 -2.101435422897339 -2.5
-4.747162818908691 -2.491503953933716 -2.5
-4.531293869018555 -2.865410089492798 -2.5
-3.713881731033325 -3.8665623664855957 -2.5
-3.3907127380371094 -4.152880668640137 -2.5
-3.045546770095825 -4.412236213684082 -2.5
-1.9011328220367432 -5.012870788574219 -2.5
-1.4915966987609863 -5.149599552154541 -2.5
-1.0723828077316284 -5.252910137176514 -2.5
-0.6462304592132568 -5.322187423706055 -2.5
-0.2158789038658142 -5.356914043426514 -2.5
0.6462206840515137 -5.322167873382568 -2.5
1.0723876953125 -5.252910137176514 -2.5
1.4915918111801147 -5.149589538574219 -2.5
1.9011279344558716 -5.012870788574219 -2.5
2.6806347370147705 -4.642988204956055 -2.5
3.045546770095825 -4.412226676940918 -2.5
3.3907127380371094 -4.152871131896973 -2.5
4.012963771820068 -3.55517578125 -2.5
4.286025524139404 -3.2207517623901367 -2.5
4.747172832489014 -2.491503953933716 -2.5
4.932260513305664 -2.101445198059082 -2.5
5.085361003875732 -1.6977441310882568 -2.5
5.291840553283691 -0.85999995470047 -2.5
