ply
format ascii 1.0
element vertex 697
property float x
property float y
property float z
end_header
25.40300178527832 -8.4807710647583 4.3787431716918945
-24.603290557861328 -8.21377944946289 -0.3952491581439972
-24.598344802856445 -8.212119102478027 -0.9703410267829895
-24.59589385986328 -8.211308479309082 -1.2581241130828857
-24.774005889892578 -1.9999804496765137 -1.4821624755859375
-24.593435287475586 -8.210478782653809 -1.546159029006958
-21.820026397705078 -16.396738052368164 -1.6276384592056274
10.086918830871582 -14.613417625427246 -1.0588873624801636
-24.64565086364746 -1.9896191358566284 -1.749652624130249
-24.46988868713379 -8.169238090515137 -1.8254841566085815
-21.18060302734375 -15.916239738464355 -1.87478768825531
10.109540939331055 -14.646201133728027 -1.259313702583313
-29.222309112548828 -4.749082088470459 -2.4249472618103027
-27.828481674194336 -6.859130859375 -2.347599983215332
-24.420629501342773 -8.152802467346191 -2.1087758541107178
-20.867374420166016 -10.95205020904541 -1.930314302444458
-19.14229393005371 -12.104863166809082 -1.8550983667373657
-21.415836334228516 -16.093008041381836 -2.1942007541656494
-21.551366806030273 -19.092851638793945 -2.3583285808563232
-19.97528839111328 -20.796443939208984 -2.3618879318237305
-16.421083450317383 -23.790048599243164 -2.3677284717559814
-14.465327262878418 -25.054677963256836 -2.369659900665283
-10.272448539733887 -27.08622932434082 -2.3727777004241943
-8.060942649841309 -27.82965850830078 -2.373176097869873
-3.493339776992798 -28.770097732543945 -2.3738155364990234
-1.167202115058899 -28.963701248168945 -2.374288320541382
1.1667529344558716 -28.95279312133789 -2.3733978271484375
3.491948127746582 -28.75883674621582 -2.372880458831787
8.05642032623291 -27.813886642456055 -2.371833324432373
12.401728630065918 -26.13607406616211 -2.3695380687713623
10.109540939331055 -14.646201133728027 -1.4576776027679443
18.195741653442383 -22.285722732543945 -2.3565306663513184
19.89864158630371 -20.716699600219727 -2.352830648422241
22.925180435180664 -17.227157592773438 -2.348839521408081
24.224267959594727 -15.318514823913574 -2.347599983215332
26.36783218383789 -11.23427677154541 -2.347599983215332
-26.5123291015625 -4.308671951293945 -2.5
-26.016448974609375 -6.412509441375732 -2.4939422607421875
-23.204416275024414 -9.886503219604492 -2.347599983215332
-19.142297744750977 -12.104872703552246 -2.1080031394958496
-20.16414451599121 -15.152392387390137 -2.347599983215332
-18.87950897216797 -16.725780487060547 -2.347599983215332
-15.986644744873047 -19.580068588256836 -2.3526949882507324
-12.663857460021973 -21.9344425201416 -2.3573684692382812
-8.99322509765625 -23.713172912597656 -2.3604884147644043
-5.076425552368164 -24.865936279296875 -2.362126111984253
-3.058974504470825 -25.19283103942871 -2.362037420272827
-1.0220165252685547 -25.360614776611328 -2.362346649169922
1.0220214128494263 -25.360918045043945 -2.362375497817993
3.0579638481140137 -25.18453025817871 -2.361257314682007
4.172792911529541 -20.439716339111328 -1.941658616065979
7.053754806518555 -24.352401733398438 -2.3597590923309326
12.650766372680664 -21.911806106567383 -2.3549351692199707
17.472396850585938 -18.190711975097656 -2.347599983215332
18.879491806030273 -16.725799560546875 -2.347599983215332
21.318012237548828 -13.480712890625 -2.347599983215332
22.333646774291992 -11.721601486206055 -2.347599983215332
23.204418182373047 -9.886474609375 -2.347599983215332
26.77305030822754 -2.1613574028015137 -2.5
-23.89984130859375 -1.9294140338897705 -2.5
-23.66709327697754 -3.846269369125366 -2.5
-23.28085708618164 -5.738242149353027 -2.5
-19.936832427978516 -10.463671684265137 -2.347599983215332
-18.000165939331055 -13.52626895904541 -2.347599983215332
-16.8533878326416 -14.93080997467041 -2.347599983215332
-14.240087509155273 -17.440937042236328 -2.347599983215332
-12.79049015045166 -18.530223846435547 -2.347599983215332
-11.258842468261719 -19.500879287719727 -2.347783088684082
-6.275666236877441 -21.6661319732666 -2.351855754852295
0.9087011218070984 -22.5491886138916 -2.3529787063598633
4.213608264923096 -20.63960838317871 -2.1963565349578857
6.272446155548096 -21.65496063232422 -2.350642681121826
7.99014139175415 -21.06825065612793 -2.3493311405181885
9.652685165405273 -20.34261703491211 -2.347667932510376
11.257948875427246 -19.49935531616211 -2.347599983215332
14.240097045898438 -17.440956115722656 -2.347599983215332
15.597294807434082 -16.238534927368164 -2.347599983215332
18.000146865844727 -13.526249885559082 -2.347599983215332
19.03020477294922 -12.033984184265137 -2.347599983215332
22.743593215942383 -7.592919826507568 -2.5
23.280839920043945 -5.738212585449219 -2.5
23.899818420410156 -1.9294042587280273 -2.5
-21.368555068969727 -3.472734212875366 -2.5
-21.019819259643555 -5.180927753448486 -2.5
-19.12939453125 -10.03988265991211 -2.4948155879974365
-16.25200080871582 -12.212607383728027 -2.347599983215332
-11.548291206359863 -16.7305850982666 -2.347599983215332
-10.164589881896973 -17.6055850982666 -2.347599983215332
-8.714961051940918 -18.366405487060547 -2.347599983215332
-7.208827972412109 -19.008113861083984 -2.347599983215332
-5.655932426452637 -19.526552200317383 -2.347599983215332
-2.4504246711730957 -20.180946350097656 -2.347599983215332
2.4504148960113525 -20.18095588684082 -2.347599983215332
5.655937194824219 -19.52654266357422 -2.347599983215332
7.208832740783691 -19.008113861083984 -2.347599983215332
8.714970588684082 -18.366405487060547 -2.347599983215332
12.857094764709473 -15.7470703125 -2.347599983215332
15.216586112976074 -13.480751991271973 -2.347599983215332
16.49771499633789 -12.397235870361328 -2.3830931186676025
18.26692771911621 -11.551308631896973 -2.4958343505859375
19.916532516479492 -8.485644340515137 -2.5
21.578685760498047 -1.742031216621399 -2.5
-19.72798728942871 -9.765624781721272e-06 -2.5
-19.664020538330078 -1.5874608755111694 -2.5
-18.149335861206055 -7.732724666595459 -2.5
-17.468273162841797 -9.16805648803711 -2.5
-12.832983016967773 -13.360527038574219 -2.347599983215332
-11.716283798217773 -14.349833488464355 -2.347599983215332
-10.523608207702637 -15.24608325958252 -2.347599983215332
-9.262687683105469 -16.043437957763672 -2.347599983215332
-7.941689491271973 -16.73674774169922 -2.347599983215332
-6.569186687469482 -17.321514129638672 -2.347599983215332
-0.7459423542022705 -18.510351181030273 -2.347599983215332
0.7459325790405273 -18.51034164428711 -2.347599983215332
6.569184303283691 -17.321514129638672 -2.347599983215332
7.941689491271973 -16.73674774169922 -2.347599983215332
9.262680053710938 -16.043426513671875 -2.347599983215332
10.060526847839355 -14.5751953125 -2.244297504425049
16.67389678955078 -10.543935775756836 -2.5
19.154720306396484 -4.72122049331665 -2.5
19.472515106201172 -3.164599657058716 -2.5
19.664003372192383 -1.5874608755111694 -2.5
-17.881452560424805 -2.906015634536743 -2.5
-17.58964729309082 -4.335468769073486 -2.5
-17.183752059936523 -5.736757755279541 -2.5
-16.66639518737793 -7.100898265838623 -2.5
-15.311511039733887 -9.682412147521973 -2.5
-13.551786422729492 -12.005839347839355 -2.4984750747680664
-12.27706527709961 -12.781757354736328 -2.44573974609375
-10.787067413330078 -13.211748123168945 -2.3537282943725586
-9.6637544631958 -14.000361442565918 -2.347599983215332
-8.505854606628418 -14.73256778717041 -2.347599983215332
-6.032429218292236 -15.906210899353027 -2.347599983215332
-4.732949256896973 -16.340057373046875 -2.347599983215332
-2.050537109375 -16.887676239013672 -2.347599983215332
4.732949256896973 -16.340038299560547 -2.347599983215332
11.23741626739502 -13.763349533081055 -2.451995372772217
13.56004810333252 -12.013163566589355 -2.5
17.18372917175293 -5.736767292022705 -2.5
17.881450653076172 -2.9060254096984863 -2.5
18.057310104370117 -1.4577441215515137 -2.5
-16.74376106262207 0.0 -2.5
-16.257219314575195 -4.007060527801514 -2.5
-15.403908729553223 -6.56301736831665 -2.5
-14.825868606567383 -7.781220436096191 -2.5
-14.151659965515137 -8.948974609375 -2.5
-13.385668754577637 -10.058691024780273 -2.5
-12.53288745880127 -11.10317325592041 -2.5
-11.598820686340332 -12.075634956359863 -2.5
-9.346972465515137 -13.54141616821289 -2.4567439556121826
-5.57546854019165 -14.701308250427246 -2.347599983215332
-0.6331005692481995 -15.710302352905273 -2.347599983215332
0.6331005692481995 -15.710311889648438 -2.347599983215332
1.8952001333236694 -15.608427047729492 -2.347599983215332
4.374428749084473 -15.10228443145752 -2.347599983215332
6.8653564453125 -14.468437194824219 -2.3911354541778564
8.243627548217773 -14.2783784866333 -2.461699962615967
11.598798751831055 -12.075634956359863 -2.5
13.385668754577637 -10.05868148803711 -2.5
14.15164566040039 -8.948965072631836 -2.5
15.403910636901855 -6.56298828125 -2.5
16.257205963134766 -4.007050514221191 -2.5
16.526927947998047 -2.6858885288238525 -2.5
16.68946647644043 -1.3473241329193115 -2.5
-15.561088562011719 -9.765624781721272e-06 -2.5
-15.510637283325195 -1.2521679401397705 -2.5
-15.10891056060791 -3.7240331172943115 -2.5
-14.760265350341797 -4.927704811096191 -2.5
-13.778666496276855 -7.231601238250732 -2.5
-12.440199851989746 -9.348222732543945 -2.5
-10.779553413391113 -11.222695350646973 -2.5
-8.839709281921387 -12.806523323059082 -2.5
-7.777270317077637 -13.47061538696289 -2.498945713043213
-6.652851581573486 -14.0205659866333 -2.493222236633301
-2.973637580871582 -14.56590747833252 -2.388382911682129
-0.5933593511581421 -14.7239351272583 -2.367424488067627
1.7930859327316284 -14.767353057861328 -2.389904499053955
4.249726295471191 -14.671767234802246 -2.454010486602783
5.503764629364014 -14.512226104736328 -2.4935312271118164
6.669203758239746 -14.055058479309082 -2.4993557929992676
7.780541896820068 -13.47630786895752 -2.5
8.839701652526855 -12.806523323059082 -2.5
10.779525756835938 -11.222704887390137 -2.5
13.15206527709961 -8.316874504089355 -2.5
15.108901023864746 -3.724003791809082 -2.5
15.359575271606445 -2.496171712875366 -2.5
15.510629653930664 -1.2521483898162842 -2.5
-14.531054496765137 -9.765624781721272e-06 -2.5
-12.281508445739746 -7.766347408294678 -2.5
-11.616740226745605 -8.729423522949219 -2.5
-10.066024780273438 -10.47982406616211 -2.5
-7.265527248382568 -12.584267616271973 -2.5
-6.229367733001709 -13.12808609008789 -2.5
-5.152780532836914 -13.586787223815918 -2.5
-2.9041357040405273 -14.225439071655273 -2.497899055480957
-1.7490038871765137 -14.404315948486328 -2.4963953495025635
0.5842822194099426 -14.49862289428711 -2.4964439868927
1.7501561641693115 -14.413818359375 -2.498044967651367
2.906572103500366 -14.237401962280273 -2.5
5.152768611907959 -13.586776733398438 -2.5
7.265517234802246 -12.584257125854492 -2.5
8.254579544067383 -11.958818435668945 -2.5
9.19009780883789 -11.255829811096191 -2.5
10.06600570678711 -10.479843139648438 -2.5
11.616743087768555 -8.729433059692383 -2.5
12.281494140625 -7.766347408294678 -2.5
13.368270874023438 -5.695693016052246 -2.5
13.783242225646973 -4.601513385772705 -2.5
14.10879898071289 -3.4775097370147705 -2.5
14.483925819396973 -1.1692675352096558 -2.5
-13.625688552856445 0.0 -2.5
-13.581496238708496 -1.0964257717132568 -2.5
-13.449230194091797 -2.1857128143310547 -2.5
-13.229741096496582 -3.2608494758605957 -2.5
-12.064936637878418 -6.332167625427246 -2.5
-10.8929443359375 -8.185517311096191 -2.5
-8.617499351501465 -10.554511070251465 -2.5
-4.831733226776123 -12.740234375 -2.5
-3.790903329849243 -13.0877046585083 -2.5
-2.7254931926727295 -13.350312232971191 -2.5
0.548657238483429 -13.614619255065918 -2.5
2.725473642349243 -13.350312232971191 -2.5
3.790903329849243 -13.0877046585083 -2.5
4.831733226776123 -12.740234375 -2.5
6.812822341918945 -11.800166130065918 -2.5
7.74026346206665 -11.213701248168945 -2.5
10.8929443359375 -8.185526847839355 -2.5
12.535331726074219 -5.3408203125 -2.5
13.581483840942383 -1.0964159965515137 -2.5
-12.7818603515625 -1.0318750143051147 -2.5
-12.450827598571777 -3.0688672065734863 -2.5
-12.1635103225708 -4.060771465301514 -2.5
-11.797314643859863 -5.0263671875 -2.5
-9.598490715026855 -8.50350570678711 -2.5
-8.883124351501465 -9.248300552368164 -2.5
-5.497323989868164 -11.58535099029541 -2.5
-4.547250747680664 -11.99013614654541 -2.5
-3.567700147628784 -12.317157745361328 -2.5
-2.565009593963623 -12.564306259155273 -2.5
-1.5457030534744263 -12.729950904846191 -2.5
-0.5163525342941284 -12.8130464553833 -2.5
1.5456981658935547 -12.72996997833252 -2.5
2.565019369125366 -12.56429672241211 -2.5
3.5677146911621094 -12.317167282104492 -2.5
4.547260761260986 -11.99014663696289 -2.5
5.497309684753418 -11.58535099029541 -2.5
8.110126495361328 -9.93310546875 -2.5
8.883100509643555 -9.248300552368164 -2.5
10.251605987548828 -7.703574180603027 -2.5
10.838247299194336 -6.853701114654541 -2.5
12.657387733459473 -2.0570311546325684 -2.5
-12.068254470825195 -0.97425776720047 -2.5
-11.950729370117188 -1.9421972036361694 -2.5
-11.755688667297363 -2.897538900375366 -2.5
-10.720678329467773 -5.626640319824219 -2.5
-10.23315143585205 -6.471054553985596 -2.5
-9.6792573928833 -7.273496150970459 -2.5
-8.387175559997559 -8.731972694396973 -2.5
-7.657341003417969 -9.378535270690918 -2.5
-6.877856254577637 -9.964296340942383 -2.5
-5.190407752990723 -10.9385347366333 -2.5
-3.3685154914855957 -11.629491806030273 -2.5
2.421806573867798 -11.862832069396973 -2.5
4.293383598327637 -11.320732116699219 -2.5
5.190395355224609 -10.9385347366333 -2.5
6.877856254577637 -9.964286804199219 -2.5
8.387167930603027 -8.731982231140137 -2.5
9.6792573928833 -7.273496150970459 -2.5
10.233144760131836 -6.471054553985596 -2.5
10.720659255981445 -5.626640319824219 -2.5
11.484414100646973 -3.834062337875366 -2.5
11.95071792602539 -1.9421972036361694 -2.5
12.068242073059082 -0.97425776720047 -2.5
-11.427335739135742 -0.9225195050239563 -2.5
-11.13137149810791 -2.743642568588257 -2.5
-10.874518394470215 -3.630439281463623 -2.5
-10.54711627960205 -4.493710994720459 -2.5
-9.689699172973633 -6.127402305603027 -2.5
-8.581315994262695 -7.602372646331787 -2.5
-7.941760063171387 -8.268241882324219 -2.5
-7.250678539276123 -8.88045883178711 -2.5
-5.732265472412109 -9.928564071655273 -2.5
-3.18963360786438 -11.011884689331055 -2.5
-2.2931883335113525 -11.232841491699219 -2.5
-0.46162596344947815 -11.45523452758789 -2.5
4.065366268157959 -10.719521522521973 -2.5
5.732250690460205 -9.92855453491211 -2.5
7.941742897033691 -8.268232345581055 -2.5
9.689687728881836 -6.127392292022705 -2.5
10.151308059692383 -5.327812194824219 -2.5
10.547109603881836 -4.493710994720459 -2.5
10.874516487121582 -3.630439281463623 -2.5
-10.567439079284668 -2.6046483516693115 -2.5
-10.012787818908691 -4.266064167022705 -2.5
-9.63705062866211 -5.057909965515137 -2.5
-9.198793411254883 -5.816972732543945 -2.5
-8.70089054107666 -6.538310527801514 -2.5
-8.14657211303711 -7.217236042022705 -2.5
-6.883344650268555 -8.43057632446289 -2.5
-6.182641506195068 -8.957109451293945 -2.5
-3.028032064437866 -10.453993797302246 -2.5
-2.177011728286743 -10.663759231567383 -2.5
-1.3118896484375 -10.80435562133789 -2.5
-0.4382373094558716 -10.874882698059082 -2.5
0.4382421672344208 -10.874882698059082 -2.5
3.8594090938568115 -10.176445007324219 -2.5
6.182636737823486 -8.957109451293945 -2.5
7.539394378662109 -7.849365234375 -2.5
8.146557807922363 -7.217236042022705 -2.5
8.70089340209961 -6.538310527801514 -2.5
9.198793411254883 -5.816962718963623 -2.5
9.637036323547363 -5.057909965515137 -2.5
10.012778282165527 -4.266054630279541 -2.5
10.567431449890137 -2.6046385765075684 -2.5
10.74276351928711 -1.74587881565094 -2.5
-10.322775840759277 -0.8333495855331421 -2.5
-10.222241401672363 -1.6612889766693115 -2.5
-10.055421829223633 -2.478456974029541 -2.5
-9.823381423950195 -3.279531240463257 -2.5
-8.753087997436523 -5.535126686096191 -2.5
-6.549838542938232 -8.022089958190918 -2.5
-5.88308572769165 -8.523115158081055 -2.5
-5.178183555603027 -8.968876838684082 -2.5
-4.439697265625 -9.356464385986328 -2.5
-3.6724119186401367 -9.683359146118164 -2.5
-2.8813133239746094 -9.947470664978027 -2.5
-1.248315453529358 -10.28084945678711 -2.5
-0.4170165956020355 -10.347968101501465 -2.5
2.8813133239746094 -9.947470664978027 -2.5
3.6723973751068115 -9.683368682861328 -2.5
5.178168773651123 -8.968876838684082 -2.5
5.883076190948486 -8.52310562133789 -2.5
7.7518310546875 -6.867538928985596 -2.5
9.527631759643555 -4.059335708618164 -2.5
9.823373794555664 -3.279531240463257 -2.5
-9.085073471069336 -3.870790958404541 -2.5
-8.744142532348633 -4.589286804199219 -2.5
-8.346515655517578 -5.278007507324219 -2.5
-5.609814167022705 -8.127206802368164 -2.5
-4.937653541564941 -8.552265167236328 -2.5
-1.1903369426727295 -9.80331039428711 -2.5
-0.3976464867591858 -9.867294311523438 -2.5
0.3976415991783142 -9.867294311523438 -2.5
1.190346598625183 -9.80331039428711 -2.5
1.9753026962280273 -9.675722122192383 -2.5
2.747485399246216 -9.4854097366333 -2.5
4.233457088470459 -8.921845436096191 -2.5
4.937631607055664 -8.552255630493164 -2.5
7.894736289978027 -5.932509422302246 -2.5
8.346503257751465 -5.278027057647705 -2.5
9.085067749023438 -3.870790958404541 -2.5
9.588335037231445 -2.3633105754852295 -2.5
-9.434601783752441 0.0 -2.5
-9.160449028015137 -2.2578516006469727 -2.5
-8.353925704956055 -4.384472370147705 -2.5
-7.974032878875732 -5.042470455169678 -2.5
-5.966875076293945 -7.308095455169678 -2.5
-4.717309474945068 -8.170605659484863 -2.5
-1.8871630430221558 -9.243935585021973 -2.5
-1.1372168064117432 -9.365819931030273 -2.5
0.3798877000808716 -9.426953315734863 -2.5
1.8871532678604126 -9.243935585021973 -2.5
2.624868154525757 -9.062108993530273 -2.5
3.3455517292022705 -8.821503639221191 -2.5
4.044526100158691 -8.523700714111328 -2.5
5.966865062713623 -7.308085918426514 -2.5
7.974018573760986 -5.042470455169678 -2.5
8.35391616821289 -4.384482383728027 -2.5
8.679633140563965 -3.69805645942688 -2.5
9.160449028015137 -2.257861375808716 -2.5
9.312421798706055 -1.5134179592132568 -2.5
-9.029281616210938 0.0 -2.5
-8.56460189819336 -2.8592772483825684 -2.5
-7.995028972625732 -4.196123123168945 -2.5
-5.710524559020996 -6.994121074676514 -2.5
-3.87078857421875 -8.157500267028809 -2.5
-3.2018308639526367 -8.442519187927246 -2.5
-2.512099504470825 -8.672792434692383 -2.5
1.088354468345642 -8.963446617126465 -2.5
1.8061034679412842 -8.846796989440918 -2.5
3.2018163204193115 -8.442519187927246 -2.5
3.870781183242798 -8.157509803771973 -2.5
5.129194259643555 -7.430947303771973 -2.5
6.758501052856445 -5.987519264221191 -2.5
7.218388557434082 -5.424277305603027 -2.5
7.631450176239014 -4.825849533081055 -2.5
8.306737899780273 -3.539179563522339 -2.5
8.564594268798828 -2.8592870235443115 -2.5
8.999995231628418 -0.7265625 -2.5
-8.627089500427246 -0.6964550614356995 -2.5
-8.543070793151855 -1.3883788585662842 -2.5
-8.403642654418945 -2.0713183879852295 -2.5
-8.209735870361328 -2.740800619125366 -2.5
-7.962560653686523 -3.3925390243530273 -2.5
-7.315253734588623 -4.625878810882568 -2.5
-2.408012628555298 -8.313427925109863 -2.5
-1.7312548160552979 -8.480234146118164 -2.5
0.34849607944488525 -8.648124694824219 -2.5
2.408012628555298 -8.313437461853027 -2.5
3.710395336151123 -7.819511413574219 -2.5
5.473910808563232 -6.704316139221191 -2.5
6.478461742401123 -5.739443302154541 -2.5
7.663749694824219 -4.022255897521973 -2.5
8.209721565246582 -2.7408201694488525 -2.5
8.403647422790527 -2.0713281631469727 -2.5
8.627084732055664 -0.6964648365974426 -2.5
-8.30867862701416 0.0 -2.5
-8.28173828125 -0.6685742139816284 -2.5
-8.201088905334473 -1.332802653312683 -2.5
-8.067240715026855 -1.9883984327316284 -2.5
-7.881091117858887 -2.6310839653015137 -2.5
-7.643810749053955 -3.256728410720825 -2.5
-5.755632400512695 -5.992236137390137 -2.5
-4.719870567321777 -6.837910175323486 -2.5
-2.3116161823272705 -7.980644226074219 -2.5
-1.6619482040405273 -8.14077091217041 -2.5
-0.3345654308795929 -8.301933288574219 -2.5
0.33455565571784973 -8.301942825317383 -2.5
1.6619433164596558 -8.140761375427246 -2.5
2.3116111755371094 -7.980624675750732 -2.5
4.154321193695068 -7.195527076721191 -2.5
5.75560998916626 -5.992236137390137 -2.5
6.219125747680664 -5.509677410125732 -2.5
6.64232873916626 -4.991366863250732 -2.5
7.643808364868164 -3.256718635559082 -2.5
7.881078720092773 -2.6310839653015137 -2.5
8.201068878173828 -1.3328124284744263 -2.5
-7.960922718048096 -0.6426757574081421 -2.5
-7.575788497924805 -2.529169797897339 -2.5
-7.071974754333496 -3.711660146713257 -2.5
-6.750375747680664 -4.268681526184082 -2.5
-5.051225662231445 -6.186630725860596 -2.5
-4.537031173706055 -6.573017597198486 -2.5
-2.2220654487609863 -7.671483993530273 -2.5
-0.32160642743110657 -7.980331897735596 -2.5
0.962695300579071 -7.92858362197876 -2.5
1.5975488424301147 -7.825400352478027 -2.5
3.4238767623901367 -7.21569299697876 -2.5
5.051220417022705 -6.186621189117432 -2.5
5.532646179199219 -5.760107517242432 -2.5
5.978208065032959 -5.296240329742432 -2.5
6.384985446929932 -4.798027038574219 -2.5
7.071958065032959 -3.711660146713257 -2.5
7.575786113739014 -2.529169797897339 -2.5
7.754731178283691 -1.911376953125 -2.5
7.960907936096191 -0.6426757574081421 -2.5
-7.463593482971191 -1.8396093845367432 -2.5
-6.806474685668945 -3.5723142623901367 -2.5
-6.145290374755859 -4.617890357971191 -2.5
-5.324953556060791 -5.543867111206055 -2.5
-3.29534649848938 -6.944785118103027 -2.5
-2.725834846496582 -7.187431335449219 -2.5
-0.9265673756599426 -7.630918025970459 -2.5
0.9265576004981995 -7.630927562713623 -2.5
1.537573218345642 -7.531620979309082 -2.5
2.1386473178863525 -7.383466720581055 -2.5
4.861586570739746 -5.954355239868164 -2.5
5.324936389923096 -5.543857097625732 -2.5
5.753769397735596 -5.097402095794678 -2.5
6.145277976989746 -4.617890357971191 -2.5
6.496938228607178 -4.108417987823486 -2.5
6.806469440460205 -3.5723142623901367 -2.5
7.071845531463623 -3.0130369663238525 -2.5
-7.310959339141846 -1.1881444454193115 -2.5
-6.814174652099609 -2.903251886367798 -2.5
-6.55846643447876 -3.442148447036743 -2.5
-5.921371936798096 -4.449628829956055 -2.5
-4.684457778930664 -5.737402439117432 -2.5
-3.703437328338623 -6.414540767669678 -2.5
-3.1752734184265137 -6.691747665405273 -2.5
-2.626513719558716 -6.925546646118164 -2.5
-2.060732364654541 -7.114443302154541 -2.5
0.2982421815395355 -7.40087890625 -2.5
1.4815527200698853 -7.257187366485596 -2.5
2.6265039443969727 -6.925546646118164 -2.5
3.1752636432647705 -6.691747665405273 -2.5
4.207578182220459 -6.095742225646973 -2.5
6.260210037231445 -3.9587206840515137 -2.5
7.025688171386719 -2.345527410507202 -2.5
7.191640377044678 -1.7725878953933716 -2.5
7.310946941375732 -1.1881444454193115 -2.5
7.382846355438232 -0.5960156321525574 -2.5
-7.144594669342041 0.0 -2.5
-7.052065372467041 -1.1460741758346558 -2.5
-6.776908874511719 -2.262460947036743 -2.5
-6.572880744934082 -2.8004491329193115 -2.5
-6.326222896575928 -3.320263624191284 -2.5
-6.038539886474609 -3.818535089492798 -2.5
-5.711694240570068 -4.292060375213623 -2.5
-5.347809791564941 -4.737734317779541 -2.5
-4.949233055114746 -5.152685642242432 -2.5
-1.9877538681030273 -6.862519264221191 -2.5
-1.429101586341858 -7.000195026397705 -2.5
-0.2876904308795929 -7.138798713684082 -2.5
0.28767576813697815 -7.13878870010376 -2.5
0.8611767292022705 -7.092509746551514 -2.5
1.4290869235992432 -7.000205039978027 -2.5
1.9877489805221558 -6.862509727478027 -2.5
2.533500909805298 -6.680302619934082 -2.5
3.062817335128784 -6.454775333404541 -2.5
3.572280168533325 -6.187402248382568 -2.5
4.058578968048096 -5.8798828125 -2.5
4.518549919128418 -5.534228324890137 -2.5
4.94921875 -5.152695178985596 -2.5
5.347792625427246 -4.737743854522705 -2.5
5.711684226989746 -4.292060375213623 -2.5
6.038530349731445 -3.818535089492798 -2.5
6.57287073135376 -2.8004393577575684 -2.5
7.052055358886719 -1.146083950996399 -2.5
-6.898422718048096 -9.765624781721272e-06 -2.5
-6.876039981842041 -0.5550878643989563 -2.5
-6.80907678604126 -1.1065820455551147 -2.5
-5.830468654632568 -3.686962842941284 -2.5
-5.514884948730469 -4.144179821014404 -2.5
-4.778696060180664 -4.975156307220459 -2.5
-3.449208974838257 -5.974189281463623 -2.5
-0.2777783274650574 -6.892822265625 -2.5
1.3798534870147705 -6.759013652801514 -2.5
1.919252872467041 -6.626044750213623 -2.5
3.4491991996765137 -5.974199295043945 -2.5
4.362861156463623 -5.343544960021973 -2.5
4.7786865234375 -4.975156307220459 -2.5
5.163525104522705 -4.574511528015137 -2.5
5.830463886260986 -3.686962842941284 -2.5
6.108227252960205 -3.2058496475219727 -2.5
6.543393611907959 -2.184501886367798 -2.5
6.697948932647705 -1.65090811252594 -2.5
6.809067249298096 -1.1065820455551147 -2.5
-6.666840553283691 0.0 -2.5
-6.580512523651123 -1.0694433450698853 -2.5
-6.473122596740723 -1.59548819065094 -2.5
-6.323744773864746 -2.1111717224121094 -2.5
-5.90319299697876 -3.0982420444488525 -2.5
-5.634750843048096 -3.5632030963897705 -2.5
-4.9902024269104 -4.42092752456665 -2.5
-3.3334226608276367 -5.773652076721191 -2.5
-2.364091634750366 -6.233613014221191 -2.5
-1.3335497379302979 -6.53209924697876 -2.5
-0.8036083579063416 -6.618222713470459 -2.5
-0.2684570252895355 -6.661435604095459 -2.5
0.26844725012779236 -6.661435604095459 -2.5
0.8035839796066284 -6.618242263793945 -2.5
2.8580174446105957 -6.023163795471191 -2.5
3.3334033489227295 -5.773652076721191 -2.5
3.7871923446655273 -5.486708641052246 -2.5
4.2164306640625 -5.164160251617432 -2.5
4.618271350860596 -4.808144569396973 -2.5
5.329751014709473 -4.005048751831055 -2.5
5.634746074676514 -3.5632030963897705 -2.5
5.903188228607178 -3.0982322692871094 -2.5
6.580502986907959 -1.0694433450698853 -2.5
-6.448566913604736 0.0 -2.5
-6.261181354522705 -1.54324209690094 -2.5
-5.932548522949219 -2.5276269912719727 -2.5
-4.826826095581055 -4.276191234588623 -2.5
-3.663198232650757 -5.307070255279541 -2.5
-2.286699056625366 -6.029501914978027 -2.5
-1.794106364250183 -6.19396448135376 -2.5
-0.7772997617721558 -6.401542663574219 -2.5
-0.2596728503704071 -6.443329811096191 -2.5
0.2596533000469208 -6.443339824676514 -2.5
0.7772900462150574 -6.401552677154541 -2.5
1.2898632287979126 -6.318242073059082 -2.5
1.79409658908844 -6.19396448135376 -2.5
2.286684513092041 -6.029511451721191 -2.5
3.2242674827575684 -5.584628582000732 -2.5
3.6631932258605957 -5.307070255279541 -2.5
4.078359127044678 -4.995087623596191 -2.5
5.155249118804932 -3.8739256858825684 -2.5
5.709917068481445 -2.9968066215515137 -2.5
6.116689205169678 -2.042041063308716 -2.5
6.261171817779541 -1.5432324409484863 -2.5
-6.24242639541626 0.0 -2.5
-6.222177505493164 -0.5023144483566284 -2.5
-6.161591529846191 -1.0013476610183716 -2.5
-5.527390003204346 -2.900995969772339 -2.5
-5.276040077209473 -3.336367130279541 -2.5
-4.990451335906982 -3.7500975131988525 -2.5
-4.672519207000732 -4.139492034912109 -2.5
-4.324282169342041 -4.502050876617432 -2.5
-3.1212158203125 -5.406093597412109 -2.5
-2.2135937213897705 -5.836767673492432 -2.5
-1.7367528676986694 -5.995956897735596 -2.5
-0.7524462938308716 -6.196904182434082 -2.5
0.2513427734375 -6.237353324890137 -2.5
0.7524267435073853 -6.196913719177246 -2.5
1.2486376762390137 -6.116269588470459 -2.5
1.7367479801177979 -5.995956897735596 -2.5
2.2135887145996094 -5.836767673492432 -2.5
2.676074266433716 -5.639716625213623 -2.5
3.546088695526123 -5.137402057647705 -2.5
3.9479784965515137 -4.835410118103027 -2.5
4.324272155761719 -4.502060413360596 -2.5
4.672504901885986 -4.139502048492432 -2.5
5.27603006362915 -3.336367130279541 -2.5
5.742890357971191 -2.446826219558716 -2.5
5.921147346496582 -1.9767773151397705 -2.5
6.161581993103027 -1.001367211341858 -2.5
-6.047382831573486 0.0 -2.5
-5.969067096710205 -0.9700781106948853 -2.5
-5.871650218963623 -1.4472460746765137 -2.5
-5.736162185668945 -1.9149999618530273 -2.5
-5.354689598083496 -2.810351610183716 -2.5
-4.526528358459473 -4.010146617889404 -2.5
-4.189172267913818 -4.361386775970459 -2.5
-3.435297727584839 -4.976894378662109 -2.5
-2.592475414276123 -5.463505744934082 -2.5
-2.1444385051727295 -5.654384613037109 -2.5
0.24349120259284973 -6.042460918426514 -2.5
1.2096142768859863 -5.92516565322876 -2.5
2.592460870742798 -5.463496208190918 -2.5
3.023681640625 -5.237187385559082 -2.5
3.4352879524230957 -4.976884841918945 -2.5
3.8246238231658936 -4.684326171875 -2.5
4.189150333404541 -4.361386775970459 -2.5
5.111176490783691 -3.232119083404541 -2.5
5.871635437011719 -1.4472265243530273 -2.5
5.969052791595459 -0.9700683355331421 -2.5
-5.862524509429932 0.0 -2.5
-5.843517780303955 -0.4717382788658142 -2.5
-5.786601543426514 -0.9404199123382568 -2.5
-5.560815334320068 -1.85647451877594 -2.5
-5.3934006690979 -2.297919988632202 -2.5
-5.1910080909729 -2.724443197250366 -2.5
-4.954941272735596 -3.1333203315734863 -2.5
-4.388154029846191 -3.887568235397339 -2.5
-2.9312596321105957 -5.077099323272705 -2.5
-1.1726561784744263 -5.744042873382568 -2.5
-0.7066552639007568 -5.819775104522705 -2.5
0.23605956137180328 -5.857773303985596 -2.5
1.1726512908935547 -5.744042873382568 -2.5
2.078871965408325 -5.481552600860596 -2.5
2.9312548637390137 -5.077099323272705 -2.5
3.3302879333496094 -4.824765682220459 -2.5
3.707719564437866 -4.541152477264404 -2.5
4.061108112335205 -4.228066444396973 -2.5
4.388159275054932 -3.887578010559082 -2.5
4.686743259429932 -3.5218749046325684 -2.5
5.190990924835205 -2.724443197250366 -2.5
5.692152976989746 -1.4029881954193115 -2.5
-5.613383769989014 -0.9122655987739563 -2.5
-5.521765232086182 -1.3609960079193115 -2.5
-4.806613445281982 -3.0395214557647705 -2.5
-4.256801605224609 -3.7712011337280273 -2.5
-3.9395408630371094 -4.101493835449219 -2.5
-3.596733331680298 -4.405204772949219 -2.5
-3.230600595474243 -4.680331707000732 -2.5
-2.843515634536743 -4.925117015838623 -2.5
-0.6855077743530273 -5.645546913146973 -2.5
-0.22900390625 -5.682412147521973 -2.5
0.6854833960533142 -5.645546913146973 -2.5
2.0166356563568115 -5.317461013793945 -2.5
2.4379734992980957 -5.137939453125 -2.5
4.546435356140137 -3.416435480117798 -2.5
5.394340515136719 -1.8008984327316284 -2.5
5.521752834320068 -1.3610057830810547 -2.5
5.613373756408691 -0.9122558236122131 -2.5
-5.359750747680664 -1.3210742473602295 -2.5
-4.887856483459473 -2.5653417110443115 -2.5
-4.665590763092041 -2.9503417015075684 -2.5
-3.8239550590515137 -3.981152296066284 -2.5
-3.491205930709839 -4.275947093963623 -2.5
-2.760077953338623 -4.780605316162109 -2.5
-2.366450071334839 -4.987196922302246 -2.5
-1.535805583000183 -5.302216529846191 -2.5
-0.6653954982757568 -5.479902267456055 -2.5
1.9574706554412842 -5.161445140838623 -2.5
2.760073184967041 -4.780595779418945 -2.5
3.8239452838897705 -3.9811718463897705 -2.5
4.413032054901123 -3.3162012100219727 -2.5
4.887851238250732 -2.5653514862060547 -2.5
5.078422546386719 -2.1637206077575684 -2.5
5.359736442565918 -1.3210546970367432 -2.5
5.502260684967041 -0.44419920444488525 -2.5
-5.343883991241455 -0.4314062297344208 -2.5
-5.291840553283691 -0.8600097298622131 -2.5
-5.205485820770264 -1.283046841621399 -2.5
-5.08535623550415 -1.6977343559265137 -2.5
-4.932253360748291 -2.101445198059082 -2.5
-4.747172832489014 -2.491503953933716 -2.5
-3.713881731033325 -3.8665623664855957 -2.5
-2.6806347370147705 -4.642997741699219 -2.5
-2.29833984375 -4.843652248382568 -2.5
-1.9011279344558716 -5.012880802154541 -2.5
-1.491601586341858 -5.149609088897705 -2.5
-1.0723876953125 -5.2529296875 -2.5
-0.2158789038658142 -5.356923580169678 -2.5
0.6462255716323853 -5.322187423706055 -2.5
1.0723876953125 -5.2529296875 -2.5
2.2983202934265137 -4.843632698059082 -2.5
3.390702962875366 -4.15286111831665 -2.5
3.7138671875 -3.8665623664855957 -2.5
4.53127908706665 -2.865419864654541 -2.5
4.9322509765625 -2.101445198059082 -2.5
5.08535623550415 -1.6977441310882568 -2.5
5.20547342300415 -1.2830370664596558 -2.5
5.291840553283691 -0.85999995470047 -2.5
