ply
format ascii 1.0
element vertex 812
property float x
property float y
property float z
end_header
-10.86056137084961 18.81103515625 5.820149898529053
-12.515478134155273 18.13176727294922 5.903384208679199
-13.53981876373291 16.58329963684082 5.736437797546387
-18.258974075317383 11.546249389648438 5.788588523864746
-22.480297088623047 11.798544883728027 6.8027873039245605
24.96182632446289 13.100966453552246 7.219887733459473
24.236268997192383 15.326112747192383 7.344003200531006
-10.985547065734863 23.151552200317383 6.5629119873046875
-11.618666648864746 20.124120712280273 5.951235294342041
-12.515478134155273 18.13176727294922 5.642477989196777
-13.78927230834961 16.888797760009766 5.583919525146484
-19.693641662597656 12.453495979309082 5.967497825622559
25.177352905273438 13.214081764221191 6.947403907775879
-12.747729301452637 18.468242645263672 5.482939720153809
-14.408915519714355 17.647733688354492 5.566568851470947
-16.095434188842773 16.757139205932617 5.677034378051758
-17.760801315307617 15.73470687866211 5.797535419464111
-20.80517578125 13.15640640258789 6.014453411102295
-22.480268478393555 11.798535346984863 6.203165054321289
24.644569396972656 12.934453010559082 6.4744181632995605
-11.618666648864746 20.124120712280273 5.405458927154541
-13.325145721435547 19.30476951599121 5.456567764282227
-15.073798179626465 18.462060928344727 5.5442914962768555
-18.72005844116211 16.584531784057617 5.817753791809082
-23.450408935546875 12.307695388793945 6.160690784454346
25.25261688232422 13.253593444824219 6.3018693923950195
-10.985551834106445 23.151552200317383 5.662461280822754
-13.928041458129883 20.178197860717773 5.417773723602295
-15.810277938842773 19.364091873168945 5.523903846740723
-19.83138656616211 17.569072723388672 5.854430198669434
24.635244369506836 15.578378677368164 6.102731704711914
-10.985551834106445 23.151552200317383 5.3653388023376465
-12.6592378616333 21.926464080810547 5.301019191741943
-14.60204029083252 21.154687881469727 5.381913185119629
-18.775312423706055 19.547182083129883 5.674768924713135
-21.13734245300293 18.726055145263672 5.912538528442383
-13.269248008728027 22.983007431030273 5.250175476074219
24.09261703491211 15.235243797302246 5.311787128448486
-11.818861961364746 24.907699584960938 5.137362003326416
-13.911845207214355 24.096010208129883 5.184719562530518
-16.018022537231445 23.206064224243164 5.254379749298096
-12.428481101989746 26.19247055053711 5.0706000328063965
-14.34716796875 24.84998893737793 5.018603801727295
-16.771162033081055 24.297210693359375 5.163600444793701
26.729637145996094 11.38841724395752 4.7504377365112305
24.06516456604004 12.63037109375 4.443655967712402
24.517675399780273 15.50405216217041 4.742894649505615
-14.693387985229492 15.29745101928711 3.468005895614624
-17.568857192993164 13.20213794708252 3.5931408405303955
-19.542943954467773 12.3582124710083 3.7805399894714355
-13.53981876373291 16.58329963684082 3.257175922393799
-14.69338321685791 15.29745101928711 3.227102041244507
-16.001102447509766 14.175722122192383 3.2523906230926514
26.282461166381836 11.197890281677246 4.0231194496154785
24.88572120666504 13.06102466583252 3.957839250564575
-11.618666648864746 20.124114990234375 3.272359609603882
-13.53982925415039 16.583280563354492 3.0148441791534424
-14.693387985229492 15.297430992126465 2.987004280090332
-16.0010986328125 14.175731658935547 3.010415554046631
-19.542938232421875 12.358202934265137 3.256190776824951
-22.480302810668945 11.798554420471191 3.57527756690979
25.718456268310547 10.957587242126465 3.6213340759277344
-11.618666648864746 20.12410545349121 3.010145902633667
-12.515478134155273 18.131757736206055 2.8539764881134033
-13.539823532104492 16.583280563354492 2.773266553878784
26.986541748046875 11.497870445251465 3.469834566116333
25.9658203125 13.627909660339355 3.4687633514404297
-10.985541343688965 23.151533126831055 3.0311999320983887
-13.53982925415039 16.583290100097656 2.5323827266693115
-17.568857192993164 13.20213794708252 2.59953236579895
-19.54293441772461 12.358202934265137 2.7351090908050537
-22.48029327392578 11.798544883728027 3.0031280517578125
26.566219329833984 11.318788528442383 3.0917210578918457
-11.618661880493164 20.12411117553711 2.487907886505127
-12.515478134155273 18.13176155090332 2.3588333129882812
27.283260345458984 11.624296188354492 2.843144416809082
-11.618666648864746 20.124101638793945 2.227750301361084
-18.008373260498047 15.954023361206055 2.306519031524658
-23.757972717285156 15.023642539978027 2.694857120513916
-11.618661880493164 20.124101638793945 1.9681453704833984
-15.255463600158691 18.6845645904541 2.0430266857147217
-17.052265167236328 17.7532901763916 2.0849363803863525
-12.455048561096191 21.57276725769043 1.8320549726486206
-14.575610160827637 21.116376876831055 1.8870849609375
-11.506840705871582 24.250150680541992 1.6752959489822388
-16.007953643798828 23.19148826599121 1.7588109970092773
-12.741005897521973 26.851131439208984 1.5245672464370728
-17.568857192993164 13.20213794708252 -0.5785142183303833
-19.542938232421875 12.358202934265137 -0.6086866855621338
-16.0010986328125 14.175731658935547 -0.7998788356781006
-17.568851470947266 13.202128410339355 -0.8222968578338623
-22.48027229309082 11.798544883728027 -0.9499635100364685
-11.194437980651855 23.591787338256836 -1.2669848203659058
-12.515459060668945 18.13174819946289 -1.0689654350280762
-16.0010986328125 14.175731658935547 -1.037209391593933
-19.542938232421875 12.358202934265137 -1.121890902519226
-22.480281829833984 11.798535346984863 -1.2318261861801147
-12.515459060668945 18.13174819946289 -1.3138253688812256
-14.69338321685791 15.297441482543945 -1.264883041381836
-19.542943954467773 12.358202934265137 -1.3788743019104004
-22.480302810668945 11.798535346984863 -1.5139925479888916
16.733495712280273 2.719472646713257 -1.199630856513977
-12.515459060668945 18.13174819946289 -1.559009313583374
-14.693387985229492 15.297430992126465 -1.5009337663650513
-16.0010986328125 14.175731658935547 -1.5126959085464478
-17.568857192993164 13.202118873596191 -1.5550919771194458
-19.542938232421875 12.358202934265137 -1.6361968517303467
16.266551971435547 2.6435742378234863 -1.3498409986495972
17.16899299621582 4.231787204742432 -1.4483685493469238
27.95818328857422 9.333807945251465 -2.41424822807312
16.281513214111328 23.58783721923828 -2.347599983215332
7.97412109375 27.529808044433594 -2.347599983215332
5.733022212982178 28.0821475982666 -2.347599983215332
3.454706907272339 28.452342987060547 -2.347599983215332
-1.1541112661361694 28.638124465942383 -2.347599983215332
-3.454765558242798 28.452362060546875 -2.347599983215332
-10.904135704040527 18.886503219604492 -1.7862763404846191
-16.0010929107666 14.175731658935547 -1.7509719133377075
-17.568857192993164 13.202128410339355 -1.8000460863113403
-22.480281829833984 11.798544883728027 -2.079514741897583
-26.367841720581055 11.234267234802246 -2.347599983215332
-27.18636703491211 9.076123237609863 -2.347599983215332
-23.718212127685547 1.914736270904541 -1.949037790298462
26.860145568847656 0.0 -2.5
15.8550386428833 2.576718807220459 -1.4950627088546753
25.47783088684082 8.50576114654541 -2.5
24.71078109741211 10.528271675109863 -2.5
20.1050968170166 17.81159210205078 -2.5
18.606679916381836 19.371606826782227 -2.5
7.017426490783691 24.226919174194336 -2.347599983215332
1.0156298875808716 25.20231819152832 -2.347599983215332
-1.0156054496765137 25.20232391357422 -2.347599983215332
-7.017426490783691 24.2269229888916 -2.347599983215332
-10.812783241271973 22.787532806396484 -2.347599983215332
-10.90414047241211 18.88652229309082 -2.029796600341797
-13.539823532104492 16.583290100097656 -1.9926058053970337
-16.0010986328125 14.175731658935547 -1.9896785020828247
-17.568857192993164 13.202118873596191 -2.045442819595337
-22.333662033081055 11.72158145904541 -2.347599983215332
-23.20443344116211 9.886465072631836 -2.347599983215332
-23.924711227416992 7.987226486206055 -2.347599983215332
-26.512332916259766 4.308681488037109 -2.5
-23.692909240722656 1.912685513496399 -2.21238374710083
23.89981460571289 1.9293944835662842 -2.5
20.265615463256836 12.815204620361328 -2.5
19.168691635131836 14.404335975646973 -2.5
14.24007797241211 17.440946578979492 -2.347599983215332
12.790478706359863 18.53022003173828 -2.347599983215332
9.6524019241333 20.342025756835938 -2.347599983215332
7.984277248382568 21.052759170532227 -2.347599983215332
6.264306545257568 21.626922607421875 -2.347599983215332
0.9065966606140137 22.49762725830078 -2.347599983215332
-2.7140233516693115 22.35171890258789 -2.347599983215332
-4.5037841796875 22.060897827148438 -2.347599983215332
-7.984242916107178 21.052759170532227 -2.347599983215332
-12.515459060668945 18.13174819946289 -2.2971184253692627
-14.693387985229492 15.297441482543945 -2.2115466594696045
-16.0010929107666 14.175731658935547 -2.2288780212402344
-21.357181549072266 7.130068302154541 -2.347599983215332
-21.861663818359375 5.388408184051514 -2.347599983215332
-23.66709327697754 3.8462889194488525 -2.5
-23.899824142456055 1.929384708404541 -2.5
21.64888572692871 9.765624781721272e-06 -2.5
15.722665786743164 2.555185556411743 -1.8394644260406494
16.921855926513672 4.170868873596191 -2.012608528137207
19.916532516479492 8.485634803771973 -2.5
19.169130325317383 10.060751914978027 -2.5
14.08250904083252 14.661444664001465 -2.347599983215332
12.857069969177246 15.747079849243164 -2.347599983215332
11.548291206359863 16.7305850982666 -2.347599983215332
10.164579391479492 17.605581283569336 -2.347599983215332
8.714956283569336 18.36641502380371 -2.347599983215332
4.066376686096191 19.918344497680664 -2.347599983215332
0.8185546398162842 20.312694549560547 -2.347599983215332
-2.450449228286743 20.18096160888672 -2.347599983215332
-5.655947208404541 19.52653694152832 -2.347599983215332
-7.20885705947876 19.00810432434082 -2.347599983215332
-8.71498966217041 18.366395950317383 -2.347599983215332
-12.85708999633789 15.747098922729492 -2.347599983215332
-16.252012252807617 12.212587356567383 -2.347599983215332
-18.0006046295166 9.447431564331055 -2.347599983215332
-19.282978057861328 6.437597274780273 -2.347599983215332
-19.738475799560547 4.865087985992432 -2.347599983215332
-21.57870101928711 1.7420116662979126 -2.5
19.664003372192383 1.587441325187683 -2.5
16.950674057006836 4.177978515625 -2.2123372554779053
18.712705612182617 6.247216701507568 -2.5
14.80996036529541 11.1289644241333 -2.347599983215332
10.523603439331055 15.24609375 -2.347599983215332
6.569194316864014 17.321533203125 -2.347599983215332
5.154096603393555 17.793949127197266 -2.347599983215332
3.70556640625 18.150991439819336 -2.347599983215332
2.232973575592041 18.390296936035156 -2.347599983215332
0.7459276914596558 18.510345458984375 -2.347599983215332
-3.705576181411743 18.150976181030273 -2.347599983215332
-5.154106140136719 17.7939453125 -2.347599983215332
-10.523627281188965 15.246073722839355 -2.347599983215332
-12.832983016967773 13.360556602478027 -2.347599983215332
-17.04296875 7.261318206787109 -2.347599983215332
-17.571990966796875 5.866386413574219 -2.347599983215332
-18.21435546875 4.489433288574219 -2.3772661685943604
-19.472509384155273 3.164599657058716 -2.5
-19.664012908935547 1.587441325187683 -2.5
18.116044998168945 9.765624781721272e-06 -2.5
18.057294845581055 1.4577441215515137 -2.5
17.881444931030273 2.9060351848602295 -2.5
17.183740615844727 5.736767292022705 -2.5
16.666385650634766 7.100878715515137 -2.5
13.599872589111328 10.219648361206055 -2.347599983215332
11.784403800964355 12.26888656616211 -2.347599983215332
8.505615234375 14.732558250427246 -2.347599983215332
7.292675495147705 15.369218826293945 -2.347599983215332
6.032426834106445 15.906220436096191 -2.347599983215332
3.4027585983276367 16.667909622192383 -2.347599983215332
2.0505125522613525 16.887676239013672 -2.347599983215332
-0.684985339641571 16.997909545898438 -2.347599983215332
-4.732934474945068 16.340057373046875 -2.347599983215332
-9.663618087768555 14.000350952148438 -2.347599983215332
-11.784419059753418 12.268896102905273 -2.347599983215332
-14.378144264221191 9.092460632324219 -2.347599983215332
-15.063124656677246 7.905722618103027 -2.347599983215332
-17.8814640045166 2.906015634536743 -2.5
-18.057310104370117 1.4577343463897705 -2.5
16.52692413330078 2.6858787536621094 -2.5
16.257205963134766 4.007050514221191 -2.5
15.882060050964355 5.302216529846191 -2.5
12.358866691589355 6.48644495010376 -2.0840065479278564
12.569658279418945 9.445527076721191 -2.347599983215332
11.768877029418945 10.4263277053833 -2.347599983215332
9.943964958190918 12.179169654846191 -2.347599983215332
5.575502872467041 14.70131778717041 -2.347599983215332
4.374291896820068 15.102274894714355 -2.347599983215332
1.8952099084854126 15.608427047729492 -2.347599983215332
0.6331250071525574 15.710311889648438 -2.347599983215332
-0.6331250071525574 15.710311889648438 -2.347599983215332
-3.145034074783325 15.405312538146973 -2.347599983215332
-5.575459003448486 14.701327323913574 -2.347599983215332
-6.740293025970459 14.205018997192383 -2.347599983215332
-9.943979263305664 12.179160118103027 -2.347599983215332
-13.28896427154541 8.403417587280273 -2.347599983215332
-14.913896560668945 4.978984355926514 -2.347599983215332
-16.68946647644043 1.347314476966858 -2.5
15.561083793640137 9.765624781721272e-06 -2.5
15.510624885559082 1.252138614654541 -2.5
15.108915328979492 3.724013566970825 -2.5
12.350312232971191 7.809882640838623 -2.347599983215332
11.681855201721191 8.778329849243164 -2.347599983215332
10.937597274780273 9.689882278442383 -2.347599983215332
9.241591453552246 11.3189058303833 -2.347599983215332
8.3008394241333 12.025830268859863 -2.347599983215332
7.306240081787109 12.65478515625 -2.347599983215332
6.264247894287109 13.20164966583252 -2.347599983215332
5.181650161743164 13.662909507751465 -2.347599983215332
2.9229443073272705 14.317187309265137 -2.347599983215332
1.7613866329193115 14.505956649780273 -2.347599983215332
0.5884472727775574 14.600634574890137 -2.347599983215332
-0.5884472727775574 14.600634574890137 -2.347599983215332
-1.761474609375 14.505956649780273 -2.347599983215332
-2.922807455062866 14.317187309265137 -2.347599983215332
-4.065478324890137 14.035566329956055 -2.347599983215332
-5.181660175323486 13.662919998168945 -2.347599983215332
-7.306249618530273 12.654794692993164 -2.347599983215332
-8.300848960876465 12.025849342346191 -2.347599983215332
-9.241596221923828 11.318925857543945 -2.347599983215332
-10.122367858886719 10.538564682006836 -2.347599983215332
-10.937606811523438 9.689872741699219 -2.347599983215332
-11.681855201721191 8.778339385986328 -2.347599983215332
-13.443198204040527 5.727597713470459 -2.347599983215332
-15.510639190673828 1.252138614654541 -2.5
14.531044960021973 9.765624781721272e-06 -2.5
13.783222198486328 4.601513385772705 -2.5
13.346640586853027 5.686484336853027 -2.4959559440612793
12.082255363464355 6.341269493103027 -2.347599983215332
10.908583641052246 8.197265625 -2.347599983215332
6.822607040405273 11.81712818145752 -2.347599983215332
5.849599361419678 12.32779312133789 -2.347599983215332
2.7294042110443115 13.36947250366211 -2.347599983215332
1.6447558403015137 13.545761108398438 -2.347599983215332
-0.5494482517242432 13.63417911529541 -2.347599983215332
-2.7294139862060547 13.369482040405273 -2.347599983215332
-3.7963573932647705 13.1065034866333 -2.347599983215332
-5.849623680114746 12.327812194824219 -2.347599983215332
-8.629867553710938 10.569697380065918 -2.347599983215332
-10.213623046875 9.048466682434082 -2.347599983215332
-11.532832145690918 7.292929649353027 -2.347599983215332
-12.082275390625 6.341239929199219 -2.347599983215332
-12.94301700592041 4.321015357971191 -2.347599983215332
13.625663757324219 9.765624781721272e-06 -2.5
13.581474304199219 1.0964159965515137 -2.5
13.44921875 2.1857128143310547 -2.5
13.22972583770752 3.2608397006988525 -2.5
10.22891616821289 7.6865234375 -2.347599983215332
8.863447189331055 9.227812767028809 -2.347599983215332
8.092158317565918 9.911123275756836 -2.347599983215332
7.268407821655273 10.53011703491211 -2.347599983215332
5.48513650894165 11.559687614440918 -2.347599983215332
4.537177562713623 11.963574409484863 -2.347599983215332
3.559804677963257 12.289892196655273 -2.347599983215332
1.542275309562683 12.701766967773438 -2.347599983215332
0.5152050852775574 12.784687042236328 -2.347599983215332
-4.537197113037109 11.963583946228027 -2.347599983215332
-6.397533893585205 11.080849647521973 -2.347599983215332
-8.863451957702637 9.227831840515137 -2.347599983215332
-10.814252853393555 6.838525295257568 -2.347599983215332
-11.3294677734375 5.946152210235596 -2.347599983215332
-11.771191596984863 5.015234470367432 -2.347599983215332
-13.581503868103027 1.0964062213897705 -2.5
12.823436737060547 0.0 -2.5
12.781855583190918 1.0318652391433716 -2.5
12.65738296508789 2.057021379470825 -2.5
12.163496017456055 4.060771465301514 -2.5
10.177538871765137 6.435898303985596 -2.347599983215332
8.341591835021973 8.684531211853027 -2.347599983215332
6.020859241485596 10.428437232971191 -2.347599983215332
3.350214719772339 11.56630802154541 -2.347599983215332
2.4086570739746094 11.798378944396973 -2.347599983215332
-0.48488280177116394 12.031962394714355 -2.347599983215332
-2.4086718559265137 11.798378944396973 -2.347599983215332
-4.270058631896973 11.259218215942383 -2.347599983215332
-9.62667465209961 7.233974456787109 -2.347599983215332
-10.1775484085083 6.43590784072876 -2.347599983215332
-12.14247989654541 4.053750038146973 -2.4956769943237305
-12.450824737548828 3.068857431411743 -2.5
-12.781865119934082 1.0318750143051147 -2.5
11.950712203979492 1.9421972036361694 -2.5
11.484414100646973 3.834062337875366 -2.5
10.067138671875 5.283652305603027 -2.347599983215332
9.609335899353027 6.076581954956055 -2.347599983215332
9.089208602905273 6.83010721206665 -2.347599983215332
8.510136604309082 7.539345741271973 -2.347599983215332
7.875878810882568 8.199677467346191 -2.347599983215332
6.458564281463623 9.356874465942383 -2.347599983215332
5.684716701507568 9.846230506896973 -2.347599983215332
4.873984336853027 10.271728515625 -2.347599983215332
4.031650066375732 10.630615234375 -2.347599983215332
3.1631834506988525 10.92055606842041 -2.347599983215332
2.2741894721984863 11.139687538146973 -2.347599983215332
0.4577929675579071 11.360224723815918 -2.347599983215332
-0.4578173756599426 11.360214233398438 -2.347599983215332
-3.1631932258605957 10.920546531677246 -2.347599983215332
-4.031660079956055 10.630624771118164 -2.347599983215332
-4.874003887176514 10.271738052368164 -2.347599983215332
-5.684731483459473 9.846230506896973 -2.347599983215332
-6.458588600158691 9.356874465942383 -2.347599983215332
-8.510146141052246 7.53933572769165 -2.347599983215332
-9.089223861694336 6.830117225646973 -2.347599983215332
-9.609345436096191 6.076581954956055 -2.347599983215332
-10.459657669067383 4.456445217132568 -2.347599983215332
-11.481928825378418 3.8332324028015137 -2.4994561672210693
-12.06826114654541 0.9742382764816284 -2.5
11.46450138092041 0.0 -2.5
11.316044807434082 1.8390331268310547 -2.5
10.874502182006836 3.630449056625366 -2.5
9.532499313354492 5.003027439117432 -2.347599983215332
9.099003791809082 5.753876686096191 -2.347599983215332
8.058183670043945 7.13894510269165 -2.347599983215332
6.808681488037109 8.339120864868164 -2.347599983215332
6.115576267242432 8.859960556030273 -2.347599983215332
5.3828125 9.323309898376465 -2.347599983215332
3.8175389766693115 10.066054344177246 -2.347599983215332
2.995185375213623 10.340585708618164 -2.347599983215332
1.2976512908935547 10.68715763092041 -2.347599983215332
-1.2976659536361694 10.68715763092041 -2.347599983215332
-2.9952049255371094 10.340595245361328 -2.347599983215332
-3.8175487518310547 10.066054344177246 -2.347599983215332
-5.382832050323486 9.32332992553711 -2.347599983215332
-7.457626819610596 7.764218807220459 -2.347599983215332
-8.058202743530273 7.138935565948486 -2.347599983215332
-10.874521255493164 3.6304588317871094 -2.5
-11.13138198852539 2.743710994720459 -2.5
-11.316044807434082 1.839052677154541 -2.5
10.88369083404541 9.765624781721272e-06 -2.5
10.567431449890137 2.6046385765075684 -2.5
10.323583602905273 3.446523427963257 -2.5
9.993085861206055 4.257646560668945 -2.4950835704803467
8.170488357543945 6.139716625213623 -2.347599983215332
7.079804420471191 7.370869159698486 -2.347599983215332
6.46373987197876 7.916650295257568 -2.347599983215332
5.110107421875 8.85098648071289 -2.347599983215332
4.381318092346191 9.233476638793945 -2.347599983215332
3.624140501022339 9.556083679199219 -2.347599983215332
1.2319042682647705 10.145722389221191 -2.347599983215332
0.4115234315395355 10.211953163146973 -2.347599983215332
-0.4115332067012787 10.211962699890137 -2.347599983215332
-2.044316291809082 10.013690948486328 -2.347599983215332
-3.6241455078125 9.556093215942383 -2.347599983215332
-4.381337642669678 9.233476638793945 -2.347599983215332
-5.805761814117432 8.411093711853027 -2.347599983215332
-6.46373987197876 7.916650295257568 -2.347599983215332
-8.638046264648438 5.462363243103027 -2.347599983215332
-9.049579620361328 4.749579906463623 -2.347599983215332
-10.323598861694336 3.446523427963257 -2.5
-10.567456245422363 2.6046483516693115 -2.5
-10.742768287658691 1.745888590812683 -2.5
10.35634708404541 9.765624781721272e-06 -2.5
10.322763442993164 0.8333398103713989 -2.5
10.055410385131836 2.4784374237060547 -2.5
9.823378562927246 3.2795214653015137 -2.5
9.515644073486328 4.054247856140137 -2.496856689453125
8.219482421875 5.197695255279541 -2.347599983215332
7.774609088897705 5.842236042022705 -2.347599983215332
7.279286861419678 6.448896408081055 -2.347599983215332
6.150546550750732 7.533066272735596 -2.347599983215332
4.862509727478027 8.422128677368164 -2.347599983215332
4.169043064117432 8.786093711853027 -2.347599983215332
2.7056639194488525 9.341073989868164 -2.347599983215332
0.3915771543979645 9.717147827148438 -2.347599983215332
-0.39159178733825684 9.717158317565918 -2.347599983215332
-1.1722460985183716 9.654130935668945 -2.347599983215332
-1.9452587366104126 9.528505325317383 -2.347599983215332
-4.169052600860596 8.786084175109863 -2.347599983215332
-5.524453163146973 8.003554344177246 -2.347599983215332
-7.279301643371582 6.448905944824219 -2.347599983215332
-8.611093521118164 4.519453048706055 -2.347599983215332
-9.511113166809082 4.052324295043945 -2.4956634044647217
-9.82338809967041 3.279531240463257 -2.5
-10.322772979736328 0.8333495855331421 -2.5
9.875292778015137 0.0 -2.5
9.843271255493164 0.7946386337280273 -2.5
9.747421264648438 1.5841113328933716 -2.5
9.367079734802246 3.127197265625 -2.5
9.08169937133789 3.8693652153015137 -2.499073028564453
7.413466453552246 5.570878982543945 -2.347599983215332
6.941162109375 6.149345397949219 -2.347599983215332
6.423837661743164 6.687939167022705 -2.347599983215332
4.636650085449219 8.030927658081055 -2.347599983215332
1.117763638496399 9.205693244934082 -2.347599983215332
0.37339842319488525 9.265790939331055 -2.347599983215332
-0.3734081983566284 9.265790939331055 -2.347599983215332
-1.1177831888198853 9.205693244934082 -2.347599983215332
-2.5799999237060547 8.907187461853027 -2.347599983215332
-3.2883641719818115 8.670693397521973 -2.347599983215332
-4.636655330657959 8.03091812133789 -2.347599983215332
-5.267846584320068 7.631786823272705 -2.347599983215332
-6.423842430114746 6.687939167022705 -2.347599983215332
-7.413476467132568 5.570878982543945 -2.347599983215332
-8.211108207702637 4.309521198272705 -2.347599983215332
-9.080527305603027 3.868847608566284 -2.498745918273926
-9.36708927154541 3.127197265625 -2.5
-9.588349342346191 2.3633203506469727 -2.5
-9.747421264648438 1.584130883216858 -2.5
-9.84328556060791 0.7946386337280273 -2.5
9.434598922729492 -9.765624781721272e-06 -2.5
9.403993606567383 0.75916987657547 -2.5
9.312421798706055 1.5134179592132568 -2.5
9.160439491271973 2.257861375808716 -2.5
8.679638862609863 3.6980466842651367 -2.5
8.032050132751465 4.215546607971191 -2.403675079345703
6.631396293640137 5.874921798706055 -2.347599983215332
2.4648633003234863 8.509687423706055 -2.347599983215332
1.0678906440734863 8.794882774353027 -2.347599983215332
-0.35673826932907104 8.852294921875 -2.347599983215332
-1.0679004192352295 8.794873237609863 -2.347599983215332
-1.7721288204193115 8.680429458618164 -2.347599983215332
-2.4648730754852295 8.509696960449219 -2.347599983215332
-3.7979931831359863 8.004101753234863 -2.347599983215332
-4.429736137390137 7.672529220581055 -2.347599983215332
-5.603134632110596 6.862597465515137 -2.347599983215332
-6.137177467346191 6.389492034912109 -2.347599983215332
-6.631411075592041 5.874921798706055 -2.347599983215332
-7.0826416015625 5.322265625 -2.347599983215332
-7.487939357757568 4.735087871551514 -2.347599983215332
-8.679648399353027 3.698066234588623 -2.5
-8.949071884155273 2.9876365661621094 -2.5
-9.160468101501465 2.2578516006469727 -2.5
-9.3124361038208 1.5134375095367432 -2.5
8.999990463256836 0.7265625 -2.5
8.912353515625 1.4484081268310547 -2.5
8.766894340515137 2.1608495712280273 -2.5
8.564589500427246 2.8592870235443115 -2.5
8.306737899780273 3.5391502380371094 -2.5
6.77834939956665 5.093603610992432 -2.347599983215332
6.346503734588623 5.622539043426514 -2.347599983215332
5.362411975860596 6.567773342132568 -2.347599983215332
1.695986270904541 8.307499885559082 -2.347599983215332
1.022011637687683 8.417031288146973 -2.347599983215332
-0.34141600131988525 8.471991539001465 -2.347599983215332
-1.0220214128494263 8.417031288146973 -2.347599983215332
-1.6960009336471558 8.307509422302246 -2.347599983215332
-2.3589794635772705 8.1441011428833 -2.347599983215332
-3.634833812713623 7.660224437713623 -2.347599983215332
-4.239433288574219 7.342909812927246 -2.347599983215332
-4.816542625427246 6.977968692779541 -2.347599983215332
-5.873510837554932 6.114980220794678 -2.347599983215332
-6.346523284912109 5.622519493103027 -2.347599983215332
-7.973452091217041 4.184784889221191 -2.493251323699951
-8.306757926940918 3.539179563522339 -2.5
-8.766913414001465 2.1608593463897705 -2.5
-8.912358283996582 1.4484081268310547 -2.5
-9.000009536743164 0.7265625 -2.5
8.655146598815918 -9.765624781721272e-06 -2.5
8.627079963684082 0.6964355111122131 -2.5
8.209726333618164 2.7408201694488525 -2.5
7.962558269500732 3.3925390243530273 -2.5
7.198320388793945 3.7779784202575684 -2.3481690883636475
6.869306564331055 4.343896389007568 -2.347599983215332
5.630136489868164 5.86160135269165 -2.347599983215332
2.8820605278015137 7.599384784698486 -2.347599983215332
-0.3272753953933716 8.120956420898438 -2.347599983215332
-0.9796826243400574 8.068290710449219 -2.347599983215332
-5.140224456787109 6.295634746551514 -2.347599983215332
-5.630151271820068 5.86160135269165 -2.347599983215332
-6.083559513092041 5.389560222625732 -2.347599983215332
-7.962573051452637 3.3925390243530273 -2.5
-8.20974063873291 2.7408201694488525 -2.5
-8.403661727905273 2.0713183879852295 -2.5
-8.627094268798828 0.6964648365974426 -2.5
8.308671951293945 0.0 -2.5
8.281728744506836 0.6685742139816284 -2.5
8.067245483398438 1.9883984327316284 -2.5
7.643808364868164 3.256718635559082 -2.5
6.595917701721191 4.171025276184082 -2.3481690883636475
6.237402439117432 4.687099456787109 -2.347599983215332
5.404755592346191 5.626962661743164 -2.347599983215332
4.934443473815918 6.043612957000732 -2.347599983215332
4.432138442993164 6.421093463897705 -2.347599983215332
3.9010839462280273 6.756894588470459 -2.347599983215332
2.1706933975219727 7.494140625 -2.347599983215332
1.560634732246399 7.644511699676514 -2.347599983215332
0.9404491782188416 7.745312213897705 -2.347599983215332
-0.31416991353034973 7.795849323272705 -2.347599983215332
-0.9404589533805847 7.745312213897705 -2.347599983215332
-1.560644507408142 7.644511699676514 -2.347599983215332
-2.170712947845459 7.494150161743164 -2.347599983215332
-5.404770374298096 5.626953125 -2.347599983215332
-6.237402439117432 4.687109470367432 -2.347599983215332
-7.881088733673096 2.631103515625 -2.5
-8.28173828125 0.6685839891433716 -2.5
7.986806392669678 -1.9531249563442543e-05 -2.5
7.960898399353027 0.6426659822463989 -2.5
7.754735946655273 1.9113867282867432 -2.5
7.575780868530273 2.529179573059082 -2.5
7.347704887390137 3.1305761337280273 -2.5
5.995761394500732 4.505517482757568 -2.347599983215332
5.195380687713623 5.408984184265137 -2.347599983215332
4.743290901184082 5.809482097625732 -2.347599983215332
4.260439395904541 6.172333717346191 -2.347599983215332
2.659501791000366 7.01256799697876 -2.347599983215332
2.086611270904541 7.203827857971191 -2.347599983215332
1.5001757144927979 7.348378658294678 -2.347599983215332
0.9040136337280273 7.445263385772705 -2.347599983215332
0.30198240280151367 7.493866920471191 -2.347599983215332
-0.9040234088897705 7.445273399353027 -2.347599983215332
-1.5001952648162842 7.348369121551514 -2.347599983215332
-2.086625814437866 7.203827857971191 -2.347599983215332
-4.260458946228027 6.172343730926514 -2.347599983215332
-5.195400238037109 5.408994197845459 -2.347599983215332
-5.995771408081055 4.505537033081055 -2.347599983215332
-6.684189319610596 4.226816177368164 -2.475482940673828
-7.347709655761719 3.1305761337280273 -2.5
-7.754735946655273 1.9113867282867432 -2.5
7.662031173706055 0.6185546517372131 -2.5
7.463593482971191 1.8396190404891968 -2.5
7.071835994720459 3.0130369663238525 -2.5
6.664365291595459 3.497734308242798 -2.4478049278259277
6.180498123168945 3.908320188522339 -2.378227710723877
5.403017520904541 4.786679744720459 -2.347599983215332
5.000331878662109 5.205917835235596 -2.347599983215332
4.100488185882568 5.940615177154541 -2.347599983215332
3.0944433212280273 6.521445274353027 -2.347599983215332
2.5596580505371094 6.74929666519165 -2.347599983215332
2.0082714557647705 6.933369159698486 -2.347599983215332
1.4438574314117432 7.072490215301514 -2.347599983215332
0.8700780868530273 7.165741920471191 -2.347599983215332
0.2906445264816284 7.212529182434082 -2.347599983215332
-0.8700976371765137 7.165741920471191 -2.347599983215332
-1.44387686252594 7.072490215301514 -2.347599983215332
-2.0082812309265137 6.93337869644165 -2.347599983215332
-2.5596678256988525 6.749287128448486 -2.347599983215332
-3.0944676399230957 6.521445274353027 -2.347599983215332
-4.565224647521973 5.591396331787109 -2.347599983215332
-5.000346660614014 5.205908298492432 -2.347599983215332
-5.403037071228027 4.786679744720459 -2.347599983215332
-5.770673751831055 4.336386680603027 -2.347599983215332
-6.48253870010376 4.099326133728027 -2.4944558143615723
-7.071860313415527 3.0130467414855957 -2.5
-7.29137659072876 2.434218645095825 -2.5
-7.587421894073486 1.2330858707427979 -2.5
-7.662050724029541 0.6185546517372131 -2.5
7.382851600646973 0.5960156321525574 -2.5
7.310946941375732 1.1881542205810547 -2.5
7.191640377044678 1.7725878953933716 -2.5
7.025683403015137 2.345517635345459 -2.5
6.814169883728027 2.9032421112060547 -2.5
5.206142425537109 4.612255573272705 -2.347599983215332
3.9510838985443115 5.72415018081665 -2.347599983215332
2.981699228286743 6.28380823135376 -2.347599983215332
1.935097575187683 6.680742263793945 -2.347599983215332
1.3912500143051147 6.814794540405273 -2.347599983215332
0.83837890625 6.90465784072876 -2.347599983215332
0.2800585925579071 6.949716567993164 -2.347599983215332
-0.28006836771965027 6.949716567993164 -2.347599983215332
-0.83837890625 6.904648303985596 -2.347599983215332
-1.391259789466858 6.814785003662109 -2.347599983215332
-1.9351073503494263 6.680742263793945 -2.347599983215332
-2.4663963317871094 6.503378868103027 -2.347599983215332
-3.4776854515075684 6.023515701293945 -2.347599983215332
-3.951103448867798 5.724140644073486 -2.347599983215332
-4.81814432144165 5.016220569610596 -2.347599983215332
-5.206161975860596 4.612255573272705 -2.347599983215332
-5.63748025894165 4.236289024353027 -2.380136013031006
-7.310956954956055 1.1881542205810547 -2.5
-7.382861137390137 0.5960058569908142 -2.5
7.144579887390137 0.0 -2.5
7.121416091918945 0.574902355670929 -2.5
6.936972618103027 1.7098242044448853 -2.5
6.776894569396973 2.2624707221984863 -2.5
6.572861194610596 2.8004393577575684 -2.5
5.950448989868164 3.7628417015075684 -2.4635303020477295
5.021787166595459 4.448925495147705 -2.347599983215332
4.243105411529541 5.196875095367432 -2.347599983215332
3.3545215129852295 5.810214519500732 -2.347599983215332
2.876113176345825 6.06130838394165 -2.347599983215332
1.3419725894927979 6.573466777801514 -2.347599983215332
0.2701464891433716 6.703622817993164 -2.347599983215332
-0.8086913824081421 6.660136699676514 -2.347599983215332
-2.3790721893310547 6.273085594177246 -2.347599983215332
-4.243120193481445 5.196875095367432 -2.347599983215332
-4.647529125213623 4.838593482971191 -2.347599983215332
-5.021806716918945 4.448935508728027 -2.347599983215332
-5.617856502532959 4.221552848815918 -2.4589273929595947
-6.326230525970459 3.320253849029541 -2.5
-6.776914119720459 2.2624804973602295 -2.5
-6.936982154846191 1.709814429283142 -2.5
-7.052080154418945 1.1460741758346558 -2.5
-7.121425628662109 0.574902355670929 -2.5
6.876035213470459 0.5550976395606995 -2.5
6.809072017669678 1.106591820716858 -2.5
6.543388366699219 2.184511661529541 -2.5
6.346386432647705 2.7039549350738525 -2.5
6.104589939117432 3.2039647102355957 -2.498507261276245
5.777987957000732 3.6537890434265137 -2.4774954319000244
5.361054420471191 4.028573989868164 -2.4302687644958496
4.487372875213623 4.671875 -2.347599983215332
3.2389256954193115 5.610019207000732 -2.347599983215332
1.295742154121399 6.346972465515137 -2.347599983215332
-0.26084959506988525 6.472646236419678 -2.347599983215332
-1.295751929283142 6.346972465515137 -2.347599983215332
-2.2970898151397705 6.056933403015137 -2.347599983215332
-2.777031183242798 5.852441310882568 -2.347599983215332
-3.238945245742798 5.610019207000732 -2.347599983215332
-4.096913814544678 5.017802715301514 -2.347599983215332
-4.487392425537109 4.671864986419678 -2.347599983215332
-5.501103401184082 4.13381814956665 -2.4937472343444824
-6.108242034912109 3.2058496475219727 -2.5
-6.346396446228027 2.7039451599121094 -2.5
-6.543398380279541 2.184501886367798 -2.5
-6.697958946228027 1.65090811252594 -2.5
6.666835784912109 9.765624781721272e-06 -2.5
6.645214557647705 0.5364648103713989 -2.5
6.32373046875 2.1111717224121094 -2.5
5.211767673492432 3.9164061546325684 -2.444655656814575
4.724677562713623 4.185712814331055 -2.3669769763946533
3.1302146911621094 5.421699047088623 -2.347599983215332
2.683789014816284 5.655995845794678 -2.347599983215332
1.2522460222244263 6.133935451507568 -2.347599983215332
0.7546093463897705 6.214785099029541 -2.347599983215332
0.2520800828933716 6.255351543426514 -2.347599983215332
-0.25208982825279236 6.255351543426514 -2.347599983215332
-1.2522557973861694 6.13390588760376 -2.347599983215332
-1.7417773008346558 6.013271331787109 -2.347599983215332
-2.6838085651397705 5.655995845794678 -2.347599983215332
-3.1302244663238525 5.421709060668945 -2.347599983215332
-3.556337833404541 5.152235984802246 -2.347599983215332
-3.9593846797943115 4.849374771118164 -2.347599983215332
-4.336757659912109 4.515038967132568 -2.347599983215332
-5.634755611419678 3.5631933212280273 -2.5
-6.133359432220459 2.6131834983825684 -2.5
-6.473124980926514 1.59548819065094 -2.5
6.448564529418945 9.765624781721272e-06 -2.5
6.365048885345459 1.034423828125 -2.5
6.261171817779541 1.543251872062683 -2.5
5.932538986206055 2.5276269912719727 -2.5
5.425263404846191 3.430742025375366 -2.4885363578796387
5.069423675537109 3.8094334602355957 -2.458373546600342
3.8297362327575684 4.690595626831055 -2.347599983215332
3.439882755279541 4.983544826507568 -2.347599983215332
3.027724504470825 5.244199275970459 -2.347599983215332
0.24381835758686066 6.050546646118164 -2.347599983215332
-1.2112597227096558 5.933085918426514 -2.347599983215332
-1.6847362518310547 5.816396236419678 -2.347599983215332
-3.4399023056030273 4.983544826507568 -2.347599983215332
-3.8297557830810547 4.690595626831055 -2.347599983215332
-4.194775104522705 4.367226600646973 -2.347599983215332
-5.450263500213623 3.446542978286743 -2.5
-5.709931373596191 2.9967968463897705 -2.5
-6.116708755493164 2.042070150375366 -2.5
-6.365058422088623 1.0344433784484863 -2.5
6.242412090301514 0.0 -2.5
6.22216796875 0.5023144483566284 -2.5
5.921162128448486 1.9767870903015137 -2.5
5.742890357971191 2.446826219558716 -2.5
5.527382850646973 2.900995969772339 -2.5
3.3299217224121094 4.824228286743164 -2.347599983215332
2.512939453125 5.29592752456665 -2.347599983215332
0.7065624594688416 5.819140434265137 -2.347599983215332
0.2360253781080246 5.857138633728027 -2.347599983215332
-0.23603515326976776 5.857138633728027 -2.347599983215332
-1.63088858127594 5.630458831787109 -2.347599983215332
-2.512949228286743 5.295937538146973 -2.347599983215332
-2.9309473037719727 5.076552391052246 -2.347599983215332
-4.067109107971191 4.234296798706055 -2.3513169288635254
-4.660790920257568 4.129111289978027 -2.4937210083007812
-4.990458965301514 3.7500975131988525 -2.5
-5.527402400970459 2.900995969772339 -2.5
-5.92117166519165 1.9767968654632568 -2.5
-6.06103515625 1.4939160346984863 -2.5
-6.161581993103027 1.0013574361801147 -2.5
-6.222187519073486 0.5023046731948853 -2.5
6.047372817993164 -9.765624781721272e-06 -2.5
5.871650218963623 1.4472460746765137 -2.5
4.426386833190918 3.921464681625366 -2.4446945190429688
3.9938671588897705 4.158066272735596 -2.3834540843963623
3.591484308242798 4.398779392242432 -2.347599983215332
2.4344236850738525 5.130458831787109 -2.347599983215332
1.135898470878601 5.56396484375 -2.347599983215332
0.6844823956489563 5.637343406677246 -2.347599983215332
-2.0137109756469727 5.309706687927246 -2.347599983215332
-2.4344334602355957 5.130458831787109 -2.347599983215332
-2.8393750190734863 4.917929649353027 -2.347599983215332
-3.591484308242798 4.398779392242432 -2.347599983215332
-4.518984317779541 4.003476619720459 -2.4958322048187256
-5.354687213897705 2.810370922088623 -2.5
-5.736162185668945 1.9150097370147705 -2.5
-5.871650218963623 1.4472460746765137 -2.5
5.862509727478027 0.0 -2.5
5.843495845794678 0.471748024225235 -2.5
5.786591529846191 0.9404199123382568 -2.5
5.560810565948486 1.85647451877594 -2.5
5.393388748168945 2.297919988632202 -2.5
4.954931735992432 3.1333301067352295 -2.5
4.313554763793945 3.821484327316284 -2.457496404647827
3.481689453125 4.264306545257568 -2.347599983215332
2.752558469772339 4.767597675323486 -2.347599983215332
2.359999895095825 4.9736328125 -2.347599983215332
0.22166991233825684 5.500683307647705 -2.347599983215332
-0.2216796875 5.500683307647705 -2.347599983215332
-1.531640648841858 5.287802696228027 -2.347599983215332
-2.752578020095825 4.76760721206665 -2.347599983215332
-3.1272850036621094 4.530654430389404 -2.347599983215332
-3.4817090034484863 4.264326095581055 -2.347599983215332
-4.686757564544678 3.521865129470825 -2.5
-4.954951286315918 3.1333301067352295 -2.5
-5.191005706787109 2.7244627475738525 -2.5
-5.692177772521973 1.4030077457427979 -2.5
-5.786611080169678 0.9404296875 -2.5
5.687021255493164 0.0 -2.5
5.521767616271973 1.3609960079193115 -2.5
5.394335746765137 1.8009082078933716 -2.5
4.806611061096191 3.0395312309265137 -2.5
4.528623104095459 3.4030370712280273 -2.4901926517486572
3.838251829147339 3.9960546493530273 -2.435723304748535
3.0336523056030273 4.39501953125 -2.347599983215332
2.670166015625 4.624873161315918 -2.347599983215332
1.4857714176177979 5.129501819610596 -2.347599983215332
1.068203091621399 5.232431411743164 -2.347599983215332
-0.21503905951976776 5.336015701293945 -2.347599983215332
-0.6437109112739563 5.301415920257568 -2.347599983215332
-1.4857909679412842 5.129501819610596 -2.347599983215332
-2.289375066757202 4.824746131896973 -2.347599983215332
-3.0336718559265137 4.395029067993164 -2.347599983215332
-4.546454906463623 3.416445255279541 -2.5
-4.806630611419678 3.0395312309265137 -2.5
-5.231943130493164 2.229130744934082 -2.5
-5.394355297088623 1.8009082078933716 -2.5
-5.521777153015137 1.3610057830810547 -2.5
-5.613388538360596 0.9122753739356995 -2.5
5.520155906677246 9.765624781721272e-06 -2.5
5.502245903015137 0.44419920444488525 -2.5
5.236064434051514 1.7480664253234863 -2.5
5.078427791595459 2.1637206077575684 -2.5
4.887851238250732 2.5653514862060547 -2.5
4.665575981140137 2.9503417015075684 -2.5
4.097548961639404 3.630126953125 -2.479215621948242
3.36089825630188 4.116366863250732 -2.40669846534729
2.944648265838623 4.266054630279541 -2.347599983215332
2.5918164253234863 4.489179611206055 -2.347599983215332
1.8381445407867432 4.846806526184082 -2.347599983215332
1.442177653312683 4.978993892669678 -2.347599983215332
0.20872069895267487 5.179462909698486 -2.347599983215332
-0.208740234375 5.179452896118164 -2.347599983215332
-1.036865234375 5.078906059265137 -2.347599983215332
-1.4421972036361694 4.978993892669678 -2.347599983215332
-1.83816397190094 4.846796989440918 -2.347599983215332
-2.2221972942352295 4.683193206787109 -2.347599983215332
-3.818242073059082 3.9752049446105957 -2.4962637424468994
-4.131914138793945 3.6605467796325684 -2.5
-4.665585994720459 2.950331926345825 -2.5
-4.887861251831055 2.5653514862060547 -2.5
-5.502265453338623 0.44419920444488525 -2.5
5.361259460449219 0.0 -2.5
5.343876838684082 0.43141600489616394 -2.5
5.291835784912109 0.8600195050239563 -2.5
5.205478191375732 1.283046841621399 -2.5
5.085351467132568 1.69775390625 -2.5
4.932255744934082 2.101435422897339 -2.5
4.531289100646973 2.8654394149780273 -2.5
4.284746170043945 3.21978497505188 -2.49924898147583
2.890253782272339 4.187265396118164 -2.3725180625915527
1.7852343320846558 4.707314491271973 -2.347599983215332
1.0070116519927979 4.932695388793945 -2.347599983215332
0.6068261861801147 4.997734069824219 -2.347599983215332
-0.20273436605930328 5.030371189117432 -2.347599983215332
-1.400673747062683 4.835683345794678 -2.347599983215332
-2.9133496284484863 4.220693111419678 -2.391470193862915
-3.381787061691284 4.141943454742432 -2.4934186935424805
-4.012978553771973 3.5551953315734863 -2.5
-4.286025524139404 3.22076153755188 -2.5
-4.531298637390137 2.865410089492798 -2.5
-4.747177600860596 2.491523265838623 -2.5
-4.932255744934082 2.101435422897339 -2.5
-5.343896389007568 0.4314062297344208 -2.5
