ply
format ascii 1.0
element vertex 828
property float x
property float y
property float z
end_header
24.36393928527832 15.406840324401855 7.724059104919434
9.040444374084473 6.79345178604126 3.030082941055298
12.03221607208252 17.431659698486328 5.675442218780518
12.056706428527832 25.409015655517578 7.5359015464782715
-15.661904335021973 6.672904968261719 4.561663627624512
9.039506912231445 6.792748928070068 2.8958654403686523
17.129070281982422 15.175033569335938 5.8607964515686035
12.03221607208252 17.43166160583496 5.424609661102295
-15.659067153930664 6.671694278717041 4.359355449676514
17.063453674316406 15.116918563842773 5.569911479949951
14.988920211791992 15.605116844177246 5.286751747131348
12.332189559936523 15.104198455810547 4.764271259307861
11.983930587768555 20.75676727294922 5.856098651885986
12.029643058776855 25.35197639465332 6.856247901916504
-15.591249465942383 6.642807483673096 4.140778541564941
17.129058837890625 15.175028800964355 5.323311805725098
11.94662857055664 20.692155838012695 5.558036804199219
11.540424346923828 24.320947647094727 6.262135028839111
-15.653437614440918 6.669296741485596 3.958019971847534
-22.51998519897461 1.8179882764816284 5.2556328773498535
23.621883392333984 14.93758773803711 6.175753116607666
9.028300285339355 6.78433084487915 2.4954466819763184
12.477148056030273 15.281733512878418 4.359353065490723
11.983925819396973 20.75676727294922 5.296132564544678
12.013359069824219 25.317636489868164 6.192248821258545
23.779020309448242 15.03695297241211 5.890625953674316
14.986699104309082 15.602797508239746 4.529671669006348
12.030695915222168 17.429447174072266 4.434187412261963
23.71921730041504 14.99913501739502 5.551928520202637
12.481977462768555 15.287646293640137 3.9044342041015625
11.928959846496582 20.661561965942383 4.71987247467041
6.821452617645264 23.55031394958496 4.850518226623535
-15.64186954498291 6.664365291595459 3.3636302947998047
23.860790252685547 15.088662147521973 5.260676383972168
17.219127655029297 15.2548189163208 4.2867112159729
12.096613883972168 17.52495574951172 3.968048095703125
11.972784996032715 20.737470626831055 4.462067604064941
12.11662769317627 25.535297393798828 5.266810417175293
9.026911735534668 6.783286094665527 1.974873661994934
17.219127655029297 15.254823684692383 4.023468971252441
15.313529968261719 15.943071365356445 3.866358518600464
12.481977462768555 15.287646293640137 3.4518163204193115
12.231254577636719 17.72002601623535 3.7658324241638184
12.11662769317627 25.535282135009766 4.94337797164917
-15.732871055603027 2.5568504333496094 2.78776478767395
8.9776611328125 6.746274471282959 1.8360787630081177
17.219127655029297 15.254823684692383 3.761242628097534
12.035134315490723 20.845462799072266 3.9354984760284424
12.115819931030273 25.533571243286133 4.620888710021973
-15.612621307373047 6.651908874511719 2.7746996879577637
9.026225090026855 6.782768249511719 1.717789888381958
17.21912384033203 15.254814147949219 3.4999687671661377
12.481982231140137 15.287646293640137 3.002696990966797
12.035139083862305 20.845462799072266 3.662116527557373
-15.61156177520752 6.651459693908691 2.581780433654785
9.025883674621582 6.782514572143555 1.5899276733398438
17.21912384033203 15.2548189163208 3.2395739555358887
12.035139083862305 20.845462799072266 3.389657497406006
12.481972694396973 15.287646293640137 2.5565948486328125
-15.609447479248047 6.650556564331055 2.1979146003723145
12.005695343017578 20.794464111328125 2.8402490615844727
12.329230308532715 25.983333587646484 3.4019603729248047
9.02486801147461 6.781747817993164 1.2086535692214966
12.481982231140137 15.287646293640137 2.1130456924438477
11.839221000671387 17.15206527709961 2.2313804626464844
12.005695343017578 20.794469833374023 2.5707805156707764
23.986562728881836 15.168192863464355 2.7207977771759033
16.12230682373047 16.785097122192383 2.231245279312134
12.481977462768555 15.287646293640137 1.8920871019363403
11.877341270446777 17.20726776123047 2.00447940826416
11.868366241455078 20.556621551513672 2.2756309509277344
-15.606298446655273 6.649213790893555 1.6263067722320557
9.024489402770996 6.781464576721191 0.9561077952384949
16.141977310180664 16.80557632446289 1.973638892173767
12.481977462768555 15.287646293640137 1.6715978384017944
11.961015701293945 17.328502655029297 1.7833694219589233
11.92333698272705 20.651811599731445 2.01975679397583
12.401190757751465 26.13500213623047 2.450132369995117
23.986562728881836 15.168192863464355 2.0872535705566406
17.21912384033203 15.2548189163208 1.6919070482254028
12.481972694396973 15.287646293640137 1.4515224695205688
12.232772827148438 25.78006362915039 2.0986642837524414
23.9865665435791 15.168192863464355 1.771325945854187
17.21912384033203 15.2548189163208 1.4358025789260864
12.481972694396973 15.287646293640137 1.231805682182312
12.011479377746582 20.804473876953125 1.499375581741333
12.273796081542969 25.86651611328125 1.7869601249694824
23.986562728881836 15.168192863464355 1.4558035135269165
11.958219528198242 17.324460983276367 0.8460620045661926
-15.581610679626465 6.63870096206665 0.6807253956794739
12.481982231140137 15.287646293640137 0.574259340763092
11.957524299621582 17.32344627380371 0.612473726272583
12.274550437927246 25.868125915527344 0.8331100344657898
-15.581610679626465 6.638691425323486 0.4928121864795685
8.960763931274414 6.733579158782959 0.2018609642982483
17.21912384033203 15.254823684692383 0.41429319977760315
12.00809097290039 20.79861068725586 0.4325118958950043
23.986557006835938 15.168192863464355 0.19655029475688934
12.275094985961914 25.869264602661133 0.1983151137828827
8.960763931274414 6.733579158782959 -0.04658111557364464
17.21912384033203 15.254823684692383 -0.0955992117524147
-15.603221893310547 6.647900104522705 -0.07048171758651733
21.325824737548828 7.119609355926514 -0.3425973355770111
8.960763931274414 6.733579158782959 -0.17079925537109375
17.21912384033203 15.254823684692383 -0.3505464196205139
12.481972694396973 15.287646293640137 -0.3007408082485199
11.954724311828613 17.31939697265625 -0.32068008184432983
12.005556106567383 20.794235229492188 -0.3658866882324219
23.9865665435791 15.168192863464355 -0.7470826506614685
17.21912384033203 15.254823684692383 -0.6055797934532166
12.481977462768555 15.287646293640137 -0.5195396542549133
12.004709243774414 20.792760848999023 -0.6320375204086304
12.27593994140625 25.87101173400879 -0.753812849521637
23.98655128479004 15.168192863464355 -1.0619064569473267
8.98793888092041 6.753993988037109 -0.42067474126815796
12.481972694396973 15.287646293640137 -0.7384703159332275
12.00386905670166 20.791311264038086 -0.8983082175254822
12.276203155517578 25.871599197387695 -1.0714972019195557
-15.603071212768555 6.647836685180664 -0.6346068978309631
23.986562728881836 15.168192863464355 -1.376974105834961
12.00302505493164 20.78984260559082 -1.164757251739502
0.8126806616783142 20.166622161865234 -0.9792658686637878
-1.1439257860183716 28.386327743530273 -1.3784042596817017
21.101783752441406 7.044804573059082 -1.326643705368042
8.98793888092041 6.753993988037109 -0.6704426407814026
12.002175331115723 20.788372039794922 -1.4314593076705933
-1.082421898841858 26.860069274902344 -1.6030559539794922
-15.602972984313965 6.647802352905273 -1.0113894939422607
21.046371459960938 7.026303768157959 -1.5700860023498535
17.21912384033203 15.254823684692383 -1.6278454065322876
11.939631462097168 20.680044174194336 -1.689744472503662
12.249543190002441 25.815406799316406 -2.0219666957855225
0.7677538990974426 19.051788330078125 -1.349237322807312
28.290172576904297 4.597612380981445 -2.347599983215332
22.62550163269043 5.57668924331665 -1.9086796045303345
23.986562728881836 15.168192863464355 -2.3245675563812256
8.98793888092041 6.753993988037109 -0.9208752512931824
19.854398727416992 20.67062759399414 -2.347599983215332
12.481977462768555 15.287646293640137 -1.6165456771850586
12.249823570251465 25.815988540649414 -2.3405187129974365
7.974079608917236 27.529727935791016 -2.347599983215332
-1.0879442691802979 26.997072219848633 -2.213078260421753
-12.68655776977539 26.736366271972656 -2.4239625930786133
-19.854389190673828 20.670623779296875 -2.347599983215332
-21.45331573486328 19.005983352661133 -2.347599983215332
-22.913095474243164 17.21806526184082 -2.347599983215332
-22.21084976196289 14.045283317565918 -2.1524760723114014
-15.602880477905273 6.647758483886719 -1.3891668319702148
-27.828569412231445 6.859135627746582 -2.347599983215332
-28.29020881652832 4.597621917724609 -2.347599983215332
26.860158920288086 4.882812390860636e-06 -2.5
26.773056030273438 2.1613476276397705 -2.5
25.8981876373291 4.208881855010986 -2.442089796066284
23.204425811767578 9.886469841003418 -2.347599983215332
17.472415924072266 18.190711975097656 -2.347599983215332
12.481977462768555 15.287646293640137 -1.8369263410568237
11.894243240356445 17.231767654418945 -1.9488120079040527
10.812783241271973 22.787521362304688 -2.347599983215332
8.944123268127441 23.583683013916016 -2.347599983215332
7.017414569854736 24.226911544799805 -2.347599983215332
5.372726917266846 26.31732177734375 -2.5
0.7227197289466858 17.93423080444336 -1.6705776453018188
-1.08154296875 26.83837127685547 -2.5
-3.2376415729522705 26.664310455322266 -2.5
-5.372719764709473 26.31732940673828 -2.5
-7.472959041595459 25.799657821655273 -2.5
-9.524731636047363 25.11468505859375 -2.5
-17.472412109375 18.190719604492188 -2.347599983215332
-20.16415023803711 15.152372360229492 -2.347599983215332
-22.333642959594727 11.721586227416992 -2.347599983215332
-15.602831840515137 6.64773416519165 -1.578544020652771
-24.489818572998047 6.036201000213623 -2.347599983215332
23.89981460571289 1.9293944835662842 -2.5
23.652006149291992 3.8438329696655273 -2.4984092712402344
21.861623764038086 5.388412952423096 -2.347599983215332
20.044231414794922 6.691747665405273 -2.2032835483551025
19.93682861328125 10.463651657104492 -2.347599983215332
9.024084091186523 6.781161785125732 -1.1769299507141113
16.85338020324707 14.930814743041992 -2.347599983215332
11.893539428710938 17.230743408203125 -2.182968854904175
11.257946968078613 19.499340057373047 -2.347599983215332
9.65237808227539 20.342004776000977 -2.347599983215332
6.264318943023682 21.626922607421875 -2.347599983215332
-0.9654882550239563 23.95812225341797 -2.5
-2.8901805877685547 23.802738189697266 -2.5
-4.796137809753418 23.49302101135254 -2.5
-6.670986175537109 23.0308837890625 -2.5
-10.279004096984863 21.66254425048828 -2.5
-12.790497779846191 18.53020668029785 -2.347599983215332
-19.030208587646484 12.033979415893555 -2.347599983215332
-19.936830520629883 10.463651657104492 -2.347599983215332
-21.86164093017578 5.388476371765137 -2.347599983215332
-23.652002334594727 3.8438377380371094 -2.4984090328216553
19.738445281982422 4.865097522735596 -2.347599983215332
19.282962799072266 6.437602519989014 -2.347599983215332
18.000593185424805 9.447441101074219 -2.347599983215332
9.024060249328613 6.781142234802246 -1.3035235404968262
12.481977462768555 15.287646293640137 -2.279106378555298
11.548291206359863 16.73057746887207 -2.347599983215332
10.16458511352539 17.60557746887207 -2.347599983215332
7.208827972412109 19.008102416992188 -2.347599983215332
6.012726783752441 20.758331298828125 -2.4956929683685303
4.330341815948486 21.21137237548828 -2.5
2.6094822883605957 21.491039276123047 -2.5
0.7178075909614563 17.812301635742188 -2.0586225986480713
-0.8717089891433716 21.631332397460938 -2.5
-4.330312252044678 21.21137809753418 -2.5
-7.676791667938232 20.242067337036133 -2.5
-9.280713081359863 19.558700561523438 -2.5
-10.824458122253418 18.748483657836914 -2.5
-12.857084274291992 15.747079849243164 -2.347599983215332
-15.493051528930664 6.600971698760986 -1.9447479248046875
-19.282962799072266 6.437578201293945 -2.347599983215332
-21.368534088134766 3.4727439880371094 -2.5
17.57198715209961 5.866401195526123 -2.347599983215332
16.403398513793945 8.60916519165039 -2.347599983215332
11.716257095336914 14.34984302520752 -2.347599983215332
10.5236177444458 15.246073722839355 -2.347599983215332
9.262678146362305 16.043426513671875 -2.347599983215332
7.941674709320068 16.73674964904785 -2.347599983215332
5.488669395446777 18.949087142944336 -2.5
-0.7943652272224426 19.711978912353516 -2.5
-3.946118116378784 19.329280853271484 -2.5
-5.48867654800415 18.949079513549805 -2.5
-6.995649337768555 18.44597816467285 -2.5
-8.457231521606445 17.823253631591797 -2.5
-9.863998413085938 17.084924697875977 -2.5
-11.206782341003418 16.23579978942871 -2.5
-13.866430282592773 12.284589767456055 -2.347599983215332
-17.57198143005371 5.866381645202637 -2.347599983215332
-19.472509384155273 3.164599657058716 -2.5
-19.66400909423828 1.58743155002594 -2.5
18.116058349609375 4.882812390860636e-06 -2.5
18.05730628967285 1.457739233970642 -2.5
17.0862979888916 4.211401462554932 -2.428461790084839
16.136213302612305 5.387065410614014 -2.347599983215332
15.650412559509277 6.668017387390137 -2.347599983215332
12.733434677124023 11.28084945678711 -2.347599983215332
11.784411430358887 12.268877029418945 -2.347599983215332
6.20965051651001 16.373519897460938 -2.416569232940674
2.183652400970459 17.983966827392578 -2.5
-0.7294677495956421 18.101360321044922 -2.5
-2.183657169342041 17.983964920043945 -2.5
-9.058036804199219 15.68895435333252 -2.5
-10.29110336303711 14.909208297729492 -2.5
-11.457406997680664 14.032782554626465 -2.5
-12.774062156677246 11.316825866699219 -2.3550899028778076
-15.063129425048828 7.905722618103027 -2.347599983215332
-15.413236618041992 6.566962718963623 -2.312023639678955
-16.265483856201172 5.430214881896973 -2.3664073944091797
-17.5798282623291 4.333046913146973 -2.4986071586608887
-17.88143539428711 2.906010627746582 -2.5
16.74376106262207 4.882812390860636e-06 -2.5
14.913896560668945 4.979096412658691 -2.347599983215332
14.46489429473877 6.162929534912109 -2.347599983215332
11.768869400024414 10.426308631896973 -2.347599983215332
7.861523151397705 13.616557121276855 -2.347599983215332
6.740344047546387 14.204999923706055 -2.347599983215332
4.658401012420654 16.08267593383789 -2.5
3.349186897277832 16.405370712280273 -2.5
-0.6742041110992432 16.73017692565918 -2.5
-4.658412933349609 16.082679748535156 -2.5
-7.177929401397705 15.127147674560547 -2.5
-9.511548042297363 13.779829025268555 -2.5
-12.516191482543945 11.08837890625 -2.4966702461242676
-13.52721118927002 8.5540771484375 -2.38968563079834
-14.183676719665527 7.444159984588623 -2.3917109966278076
-15.867289543151855 5.297280311584473 -2.4976744651794434
-16.257205963134766 4.007050514221191 -2.5
-16.689462661743164 1.3473095893859863 -2.5
15.561088562011719 4.882812390860636e-06 -2.5
15.5106201171875 1.2521826028823853 -2.5
15.359577178955078 2.4961814880371094 -2.5
9.241591453552246 11.3189058303833 -2.347599983215332
7.3062424659729 12.654780387878418 -2.347599983215332
1.8756786584854126 15.4476318359375 -2.5
0.6265869140625 15.548466682434082 -2.5
-1.8756835460662842 15.4476318359375 -2.5
-3.112626791000366 15.246610641479492 -2.5
-9.841537475585938 12.053695678710938 -2.5
-12.440199851989746 9.3482027053833 -2.5
-13.149799346923828 8.315424919128418 -2.4995665550231934
-13.7767915725708 7.230600357055664 -2.499659776687622
-14.315874099731445 6.099428653717041 -2.5
14.342878341674805 2.3309569358825684 -2.5
12.55334186553955 5.348466873168945 -2.347599983215332
12.082258224487305 6.341254711151123 -2.347599983215332
11.532812118530273 7.292905330657959 -2.347599983215332
7.751374244689941 11.229809761047363 -2.347599983215332
6.822617053985596 11.817123413085938 -2.347599983215332
6.18773889541626 13.040410041809082 -2.4833030700683594
4.042790412902832 13.9573335647583 -2.5
-0.585156261920929 14.519262313842773 -2.5
-1.7515331506729126 14.425102233886719 -2.5
-2.9065868854522705 14.23739242553711 -2.5
-5.152778148651123 13.586771965026855 -2.5
-6.229350566864014 13.128090858459473 -2.5
-7.26553201675415 12.584267616271973 -2.5
-8.254535675048828 11.958813667297363 -2.5
-10.876649856567383 9.635869026184082 -2.5
-12.86661148071289 6.752904891967773 -2.5
-13.368266105651855 5.695688247680664 -2.5
-13.783222198486328 4.601508617401123 -2.5
-14.108803749084473 3.4775097370147705 -2.5
-14.342875480651855 2.330947160720825 -2.5
13.581491470336914 1.0964257717132568 -2.5
11.32945728302002 5.946156978607178 -2.347599983215332
10.814248085021973 6.838520526885986 -2.347599983215332
8.863439559936523 9.227822303771973 -2.347599983215332
8.09216022491455 9.911112785339355 -2.347599983215332
4.83172607421875 12.740229606628418 -2.5
-0.5486474633216858 13.61461353302002 -2.5
-1.6424022912979126 13.526323318481445 -2.5
-2.7254931926727295 13.350302696228027 -2.5
-3.7909276485443115 13.0877046585083 -2.5
-4.831723690032959 12.74022388458252 -2.5
-5.841230392456055 12.310121536254883 -2.5
-8.6174898147583 10.554516792297363 -2.5
-10.198965072631836 9.035483360290527 -2.5
-11.516283988952637 7.282451152801514 -2.5
-12.06493091583252 6.332158088684082 -2.5
-12.924443244934082 4.314809322357178 -2.5
-13.229731559753418 3.2608299255371094 -2.5
-13.581488609313965 1.096401333808899 -2.5
12.781865119934082 1.0318603515625 -2.5
12.163505554199219 4.060771465301514 -2.5
11.336997032165527 4.830239295959473 -2.4024531841278076
9.013361930847168 7.985146522521973 -2.347599983215332
7.615732192993164 9.327582359313965 -2.347599983215332
6.840493202209473 9.910146713256836 -2.347599983215332
6.325175762176514 10.955522537231445 -2.466254472732544
5.497309684753418 11.585346221923828 -2.5
4.547250747680664 11.990131378173828 -2.5
3.5677146911621094 12.317148208618164 -2.5
2.5650291442871094 12.564291954040527 -2.5
0.5163232088088989 12.813041687011719 -2.5
-0.5163525342941284 12.8130464553833 -2.5
-1.5457030534744263 12.729941368103027 -2.5
-2.5650291442871094 12.564287185668945 -2.5
-7.284555435180664 10.553485870361328 -2.5
-11.354598999023438 5.959340572357178 -2.5
-11.797304153442383 5.026357173919678 -2.5
-12.163505554199219 4.060771465301514 -2.5
12.107514381408691 0.0 -2.5
11.950722694396973 1.9421825408935547 -2.5
11.116589546203613 4.736328125 -2.4950456619262695
8.510136604309082 7.53933572769165 -2.347599983215332
7.875888347625732 8.199663162231445 -2.347599983215332
6.05029296875 10.479413986206055 -2.498570442199707
5.190395355224609 10.938544273376465 -2.5
-0.4875243902206421 12.097684860229492 -2.5
-3.368525266647339 11.629487037658691 -2.5
-4.293383598327637 11.320717811584473 -2.5
-5.190390586853027 10.938539505004883 -2.5
-6.053754806518555 10.485414505004883 -2.5
-6.877851486206055 9.964286804199219 -2.5
-8.38717269897461 8.73195743560791 -2.5
-10.233149528503418 6.471044540405273 -2.5
-10.72066879272461 5.626630783081055 -2.5
-11.13866138458252 4.745732307434082 -2.5
-11.484414100646973 3.834052562713623 -2.5
-11.95071792602539 1.9421825408935547 -2.5
11.316054344177246 1.8390429019927979 -2.5
11.13137435913086 2.7436375617980957 -2.5
10.547119140625 4.493700981140137 -2.5
10.126693725585938 5.314892292022705 -2.49393367767334
7.581684589385986 7.893363952636719 -2.38665509223938
7.100297927856445 8.696284294128418 -2.4481494426727295
1.3818944692611694 11.380922317504883 -2.5
-1.3818944692611694 11.380922317504883 -2.5
-2.293203115463257 11.232816696166992 -2.5
-3.189643383026123 11.01187515258789 -2.5
-6.512597560882568 9.435107231140137 -2.5
-7.941747665405273 8.268237113952637 -2.5
-9.165228843688965 6.887211799621582 -2.5
-10.151328086853027 5.327817440032959 -2.5
-10.547114372253418 4.493700981140137 -2.5
-11.131376266479492 2.7436327934265137 -2.5
10.848410606384277 0.8757665753364563 -2.5
10.742758750915527 1.7458691596984863 -2.5
10.567439079284668 2.6046338081359863 -2.5
10.01278305053711 4.266039848327637 -2.5
9.637041091918945 5.057905197143555 -2.5
8.095993041992188 7.172431468963623 -2.4844796657562256
6.877089500427246 8.422904968261719 -2.497728109359741
5.441847801208496 9.42556095123291 -2.5
3.0280418395996094 10.453993797302246 -2.5
2.1770215034484863 10.663744926452637 -2.5
1.3118847608566284 10.80434513092041 -2.5
0.4382421672344208 10.8748779296875 -2.5
-1.3118847608566284 10.804349899291992 -2.5
-2.1770262718200684 10.663744926452637 -2.5
-3.0280418395996094 10.453984260559082 -2.5
-3.8594138622283936 10.176435470581055 -2.5
-4.665756702423096 9.8328857421875 -2.5
-5.441855430603027 9.42556095123291 -2.5
-6.182651042938232 8.957104682922363 -2.5
-8.70089340209961 6.538295745849609 -2.5
-9.198793411254883 5.816962718963623 -2.5
-9.637036323547363 5.057900428771973 -2.5
-10.012778282165527 4.266035079956055 -2.5
-10.5674409866333 2.6046338081359863 -2.5
10.356359481811523 -9.765624781721272e-06 -2.5
10.222243309020996 1.6612695455551147 -2.5
10.055419921875 2.4784374237060547 -2.5
8.753087997436523 5.535117149353027 -2.5
7.751838207244873 6.867534160614014 -2.5
7.174098968505859 7.469033241271973 -2.5
5.883083343505859 8.523110389709473 -2.5
5.178175926208496 8.968862533569336 -2.5
4.439684867858887 9.356454849243164 -2.5
2.8813183307647705 9.947465896606445 -2.5
2.071533203125 10.147055625915527 -2.5
1.2483203411102295 10.280839920043945 -2.5
0.41700682044029236 10.3479585647583 -2.5
-0.41700682044029236 10.347953796386719 -2.5
-2.071542978286743 10.147055625915527 -2.5
-2.8813230991363525 9.947461128234863 -2.5
-4.439692497253418 9.356454849243164 -2.5
-5.88308572769165 8.523115158081055 -2.5
-7.174096584320068 7.469033241271973 -2.5
-8.279306411743164 6.221494197845459 -2.5
-9.170097351074219 4.812827110290527 -2.5
-9.823378562927246 3.2795214653015137 -2.5
-10.055410385131836 2.4784326553344727 -2.5
9.87530517578125 -4.882812390860636e-06 -2.5
9.747416496276855 1.5841064453125 -2.5
9.58834457397461 2.3633153438568115 -2.5
9.08508014678955 3.870790958404541 -2.5
8.346506118774414 5.278017520904541 -2.5
7.8947434425354 5.932504653930664 -2.5
6.245585918426514 7.649457931518555 -2.5
5.609811782836914 8.127206802368164 -2.5
4.93765115737915 8.552260398864746 -2.5
4.233461856842041 8.921845436096191 -2.5
2.747485399246216 9.485400199890137 -2.5
1.9753124713897705 9.675726890563965 -2.5
-1.1903417110443115 9.803300857543945 -2.5
-1.9753222465515137 9.675726890563965 -2.5
-4.93765115737915 8.552260398864746 -2.5
-5.609814167022705 8.127206802368164 -2.5
-6.245585918426514 7.649462699890137 -2.5
-7.894741058349609 5.932509422302246 -2.5
-8.744145393371582 4.589272499084473 -2.5
-9.085078239440918 3.87078595161438 -2.5
-9.367084503173828 3.127187490463257 -2.5
9.404008865356445 0.7591747641563416 -2.5
9.312423706054688 1.5134130716323853 -2.5
9.160444259643555 2.2578516006469727 -2.5
8.94906234741211 2.9876317977905273 -2.5
8.679636001586914 3.698051691055298 -2.5
8.353922843933105 4.384472370147705 -2.5
7.97402811050415 5.042475700378418 -2.5
7.061899185180664 6.256298542022705 -2.5
6.53557825088501 6.804252624511719 -2.5
4.717299461364746 8.170599937438965 -2.5
3.3455591201782227 8.82149887084961 -2.5
2.624872922897339 9.062104225158691 -2.5
1.8871630430221558 9.243926048278809 -2.5
1.1372119188308716 9.365805625915527 -2.5
0.3798925578594208 9.426947593688965 -2.5
-1.1372216939926147 9.36581039428711 -2.5
-2.6248779296875 9.06209945678711 -2.5
-4.044545650482178 8.523691177368164 -2.5
-5.359477519989014 7.764506816864014 -2.5
-6.535571098327637 6.804257869720459 -2.5
-7.061899185180664 6.256298542022705 -2.5
-7.542426586151123 5.667763710021973 -2.5
-7.97402811050415 5.042465686798096 -2.5
-8.353925704956055 4.384472370147705 -2.5
-8.949052810668945 2.9876317977905273 -2.5
-9.160444259643555 2.2578418254852295 -2.5
-9.312421798706055 1.5134130716323853 -2.5
-9.403998374938965 0.7591650485992432 -2.5
9.029276847839355 0.0 -2.5
9.0 0.7265527248382568 -2.5
8.564597129821777 2.8592772483825684 -2.5
8.306750297546387 3.5391697883605957 -2.5
7.99502420425415 4.196113109588623 -2.5
5.710519790649414 6.994125843048096 -2.5
5.129216194152832 7.430952072143555 -2.5
4.514638423919678 7.819580078125 -2.5
3.870778799057007 8.15750503540039 -2.5
1.088354468345642 8.9634370803833 -2.5
0.36356931924819946 9.021947860717773 -2.5
-0.36357420682907104 9.021952629089355 -2.5
-1.806093692779541 8.846796989440918 -2.5
-5.129223346710205 7.430947303771973 -2.5
-5.710522174835205 6.994125843048096 -2.5
-7.995028972625732 4.196103572845459 -2.5
-8.306747436523438 3.5391650199890137 -2.5
-8.564594268798828 2.8592724800109863 -2.5
-8.7669038772583 2.160844564437866 -2.5
-8.912348747253418 1.448403239250183 -2.5
-8.999995231628418 0.7265527248382568 -2.5
8.655156135559082 0.0 -2.5
8.543073654174805 1.3883886337280273 -2.5
8.209729194641113 2.7408103942871094 -2.5
7.962565898895264 3.392519474029541 -2.5
6.478474140167236 5.739428520202637 -2.5
5.995632171630859 6.242118835449219 -2.5
5.473908424377441 6.704326152801514 -2.5
3.710392951965332 7.819497108459473 -2.5
2.408012628555298 8.313422203063965 -2.5
0.3485058546066284 8.648134231567383 -2.5
-0.3485058546066284 8.6481294631958 -2.5
-1.0432616472244263 8.592045783996582 -2.5
-1.7312597036361694 8.480234146118164 -2.5
-2.408017635345459 8.313427925109863 -2.5
-3.069155216217041 8.092714309692383 -2.5
-3.710400342941284 7.819497108459473 -2.5
-4.327582836151123 7.495575904846191 -2.5
-4.916694164276123 7.123046875 -2.5
-5.473901271820068 6.704326152801514 -2.5
-6.478466510772705 5.739428520202637 -2.5
-6.919296741485596 5.199516296386719 -2.5
-7.663754940032959 4.02224588394165 -2.5
-7.962563514709473 3.392519474029541 -2.5
-8.403647422790527 2.0713133811950684 -2.5
8.28173542022705 0.6685693264007568 -2.5
8.201086044311523 1.332802653312683 -2.5
8.067238807678223 1.9883984327316284 -2.5
7.881081581115723 2.631093740463257 -2.5
7.643815517425537 3.256718635559082 -2.5
7.022417068481445 4.440712928771973 -2.5
6.642312049865723 4.991366863250732 -2.5
5.755624771118164 5.992236137390137 -2.5
4.154335975646973 7.195517539978027 -2.5
3.5618627071380615 7.506479263305664 -2.5
2.946298837661743 7.768744945526123 -2.5
2.3116209506988525 7.980639457702637 -2.5
0.33455076813697815 8.301933288574219 -2.5
-0.33455565571784973 8.301933288574219 -2.5
-1.001503825187683 8.248090744018555 -2.5
-1.6619579792022705 8.140756607055664 -2.5
-2.946293830871582 7.768744945526123 -2.5
-3.5618748664855957 7.506484031677246 -2.5
-4.154340744018555 7.195517539978027 -2.5
-5.254775047302246 6.435937404632568 -2.5
-5.755620002746582 5.992240905761719 -2.5
-7.881083965301514 2.6310839653015137 -2.5
7.986818790435791 -4.882812390860636e-06 -2.5
7.960912704467773 0.6426757574081421 -2.5
7.883386135101318 1.2811766862869263 -2.5
6.750373363494873 4.2686767578125 -2.5
6.385002136230469 4.798007488250732 -2.5
5.978212833404541 5.296240329742432 -2.5
4.537028789520264 6.573012351989746 -2.5
3.993403196334839 6.91677713394165 -2.5
3.423884153366089 7.21569299697876 -2.5
2.832158088684082 7.467797756195068 -2.5
0.9627001881599426 7.928578853607178 -2.5
-1.597573161125183 7.825405120849609 -2.5
-3.993412971496582 6.91677713394165 -2.5
-5.051220417022705 6.186630725860596 -2.5
-5.978212833404541 5.296240329742432 -2.5
-6.384999752044678 4.798017501831055 -2.5
-6.750375747680664 4.2686767578125 -2.5
-7.347700119018555 3.130561351776123 -2.5
-7.754731178283691 1.9113622903823853 -2.5
-7.883378505706787 1.281166911125183 -2.5
7.662040710449219 0.6185449361801147 -2.5
7.587424278259277 1.2330760955810547 -2.5
7.071852684020996 3.0130271911621094 -2.5
6.806471824645996 3.5723047256469727 -2.5
6.4969482421875 4.108417987823486 -2.5
6.145285606384277 4.617885589599609 -2.5
5.324948787689209 5.543857097625732 -2.5
4.861581802368164 5.954360008239746 -2.5
4.366694450378418 6.326244831085205 -2.5
3.8434789180755615 6.65709924697876 -2.5
3.2953367233276367 6.944785118103027 -2.5
2.725834846496582 7.187436580657959 -2.5
0.3095166087150574 7.680727481842041 -2.5
-0.30952635407447815 7.680727481842041 -2.5
-0.9265673756599426 7.630918025970459 -2.5
-2.1386473178863525 7.383466720581055 -2.5
-2.725834846496582 7.187431335449219 -2.5
-3.29534649848938 6.944789886474609 -2.5
-4.36669921875 6.326244831085205 -2.5
-4.861577033996582 5.954360008239746 -2.5
-5.753769397735596 5.097402095794678 -2.5
-6.496938228607178 4.108422756195068 -2.5
-6.806469440460205 3.5723047256469727 -2.5
-7.463593482971191 1.8396093845367432 -2.5
-7.662031173706055 0.6185449361801147 -2.5
7.406877040863037 -4.882812390860636e-06 -2.5
7.310956954956055 1.1881444454193115 -2.5
7.02569055557251 2.345517635345459 -2.5
6.814172267913818 2.903247117996216 -2.5
6.558459281921387 3.442148447036743 -2.5
6.260214805603027 3.9587206840515137 -2.5
5.921371936798096 4.449618816375732 -2.5
5.544123649597168 4.911660194396973 -2.5
0.8928027153015137 7.352870941162109 -2.5
0.2982470691204071 7.400864124298096 -2.5
-0.2982470691204071 7.400859355926514 -2.5
-0.8928027153015137 7.352860927581787 -2.5
-2.626513719558716 6.925546646118164 -2.5
-3.703437328338623 6.414535999298096 -2.5
-4.207587718963623 6.09573221206665 -2.5
-5.130912780761719 5.341860294342041 -2.5
-7.191640377044678 1.7725878953933716 -2.5
-7.310956954956055 1.1881444454193115 -2.5
-7.382851600646973 0.5960058569908142 -2.5
7.121425628662109 0.5748974680900574 -2.5
7.052070140838623 1.1460692882537842 -2.5
6.776904106140137 2.262455940246582 -2.5
6.038535118103027 3.81853985786438 -2.5
5.711687088012695 4.292055606842041 -2.5
4.949230670928955 5.152690410614014 -2.5
4.518559455871582 5.534228324890137 -2.5
4.058588981628418 5.87987756729126 -2.5
2.533510684967041 6.680307388305664 -2.5
-1.429101586341858 7.000195026397705 -2.5
-2.533500909805298 6.680307388305664 -2.5
-3.0628318786621094 6.454780101776123 -2.5
-4.05859375 5.87987756729126 -2.5
-4.5185546875 5.534233093261719 -2.5
-5.711684226989746 4.292055606842041 -2.5
-6.776904106140137 2.262460947036743 -2.5
-6.936977386474609 1.7098095417022705 -2.5
-7.052065372467041 1.1460790634155273 -2.5
6.898412704467773 -4.882812390860636e-06 -2.5
6.697954177856445 1.6508984565734863 -2.5
6.108234882354736 3.2058446407318115 -2.5
5.830466270446777 3.686967611312866 -2.5
3.9187450408935547 5.677279949188232 -2.5
3.4492063522338867 5.974199295043945 -2.5
1.9192577600479126 6.626049518585205 -2.5
0.8315136432647705 6.848110198974609 -2.5
0.2777685523033142 6.892812252044678 -2.5
-0.8315136432647705 6.848110198974609 -2.5
-1.379858374595642 6.758994102478027 -2.5
-2.4462010860443115 6.450121879577637 -2.5
-2.9572949409484863 6.232372760772705 -2.5
-3.4491991996765137 5.974199295043945 -2.5
-3.9187450408935547 5.67727518081665 -2.5
-4.362865924835205 5.343544960021973 -2.5
-4.778691291809082 4.975151062011719 -2.5
-5.830463886260986 3.686967611312866 -2.5
-6.108242034912109 3.2058496475219727 -2.5
-6.876039981842041 0.5550927519798279 -2.5
6.666842937469482 0.0 -2.5
6.580507755279541 1.069433569908142 -2.5
6.473114967346191 1.5954736471176147 -2.5
6.323742389678955 2.1111717224121094 -2.5
6.13335657119751 2.613173723220825 -2.5
5.903195858001709 3.0982372760772705 -2.5
5.634750843048096 3.5631933212280273 -2.5
5.329758167266846 4.005048751831055 -2.5
4.990200042724609 4.420937538146973 -2.5
4.216408729553223 5.164169788360596 -2.5
3.7871971130371094 5.4866943359375 -2.5
2.3640966415405273 6.233598709106445 -2.5
-0.8035986423492432 6.618227481842041 -2.5
-1.3335399627685547 6.5321044921875 -2.5
-2.858022451400757 6.023159027099609 -2.5
-3.7871923446655273 5.4866943359375 -2.5
-4.618276119232178 4.808149337768555 -2.5
-4.990195274353027 4.42092752456665 -2.5
-5.329751014709473 4.005053520202637 -2.5
-5.634746074676514 3.5631980895996094 -2.5
-5.90319299697876 3.0982322692871094 -2.5
-6.133354187011719 2.6131787300109863 -2.5
-6.580502986907959 1.0694482326507568 -2.5
-6.645224571228027 0.536450207233429 -2.5
6.448566913604736 0.0 -2.5
6.427653789520264 0.5188964605331421 -2.5
6.365056037902832 1.034423828125 -2.5
6.261183738708496 1.54324209690094 -2.5
6.11669921875 2.042050838470459 -2.5
5.932548522949219 2.5276172161102295 -2.5
5.709919452667236 2.9967968463897705 -2.5
5.155256271362305 3.8739256858825684 -2.5
4.467077732086182 4.650712966918945 -2.5
4.078359127044678 4.995087623596191 -2.5
2.7644433975219727 5.825961589813232 -2.5
2.286694288253784 6.029511451721191 -2.5
1.289882779121399 6.3182373046875 -2.5
-0.25965818762779236 6.443329811096191 -2.5
-0.7772851586341858 6.401547908782959 -2.5
-1.2898778915405273 6.318242073059082 -2.5
-1.7941014766693115 6.193959712982178 -2.5
-2.7644433975219727 5.825952053070068 -2.5
-3.2242822647094727 5.584619045257568 -2.5
-3.663203001022339 5.307055473327637 -2.5
-4.078354358673096 4.995092868804932 -2.5
-4.467074871063232 4.650722503662109 -2.5
-4.826816082000732 4.276191234588623 -2.5
-5.155258655548096 3.8739209175109863 -2.5
-5.709911823272705 2.9967968463897705 -2.5
-6.11669397354126 2.042050838470459 -2.5
-6.261176586151123 1.54324209690094 -2.5
-6.365053653717041 1.0344189405441284 -2.5
-6.427656173706055 0.5188964605331421 -2.5
5.921159744262695 1.976772427558899 -2.5
5.527387619018555 2.900991201400757 -2.5
4.67251443862915 4.139492034912109 -2.5
4.324275016784668 4.502045631408691 -2.5
2.676074266433716 5.639721393585205 -2.5
2.2135887145996094 5.836757659912109 -2.5
1.7367479801177979 5.995956897735596 -2.5
1.2486523389816284 6.116264343261719 -2.5
0.25135740637779236 6.237348556518555 -2.5
-0.25135740637779236 6.237358093261719 -2.5
-0.75244140625 6.196904182434082 -2.5
-2.2135937213897705 5.836762428283691 -2.5
-3.1212158203125 5.406093597412109 -2.5
-3.5461034774780273 5.137407302856445 -2.5
-5.527382850646973 2.900991201400757 -2.5
-5.742890357971191 2.4468212127685547 -2.5
-6.161577224731445 1.0013623237609863 -2.5
-6.222172737121582 0.5023046731948853 -2.5
5.871652603149414 1.447231411933899 -2.5
5.736159324645996 1.9150097370147705 -2.5
5.563461780548096 2.370371103286743 -2.5
4.834528923034668 3.6329100131988525 -2.5
4.526520729064941 4.010156154632568 -2.5
4.189165115356445 4.361381530761719 -2.5
2.592460870742798 5.463505744934082 -2.5
1.6824902296066284 5.808603286743164 -2.5
1.209633708000183 5.925160884857178 -2.5
0.7289404273033142 6.003285884857178 -2.5
-0.2435009777545929 6.042470455169678 -2.5
-1.209633708000183 5.925156116485596 -2.5
-3.435297727584839 4.976884841918945 -2.5
-4.834531307220459 3.6329150199890137 -2.5
-5.111181735992432 3.23211407661438 -2.5
-5.563461780548096 2.370366096496582 -2.5
-5.871650218963623 1.4472265243530273 -2.5
-5.969057559967041 0.9700683355331421 -2.5
-6.027763366699219 0.4866113066673279 -2.5
5.8625168800354 0.0 -2.5
5.843510627746582 0.4717382788658142 -2.5
5.786601543426514 0.9404199123382568 -2.5
5.692165374755859 1.402993083000183 -2.5
5.560812950134277 1.8564696311950684 -2.5
5.191003322601318 2.7244482040405273 -2.5
4.954938888549805 3.133310556411743 -2.5
4.388154029846191 3.887568235397339 -2.5
2.5132176876068115 5.296494007110596 -2.5
1.6310644149780273 5.631049633026123 -2.5
1.1726610660552979 5.744038105010986 -2.5
0.7066552639007568 5.819770336151123 -2.5
0.23605956137180328 5.857768535614014 -2.5
-0.7066503763198853 5.819770336151123 -2.5
-1.1726512908935547 5.744042873382568 -2.5
-2.078867197036743 5.481547832489014 -2.5
-3.3302879333496094 4.824750900268555 -2.5
-3.707709789276123 4.5411376953125 -2.5
-4.388149261474609 3.887568235397339 -2.5
-4.954946041107178 3.133310556411743 -2.5
-5.190996170043945 2.724443197250366 -2.5
-5.393393516540527 2.297914981842041 -2.5
-5.560815334320068 1.8564647436141968 -2.5
-5.69216775894165 1.402993083000183 -2.5
-5.843505859375 0.4717382788658142 -2.5
5.687026023864746 0.0 -2.5
5.394352912902832 1.8008935451507568 -2.5
5.231945514678955 2.229120969772339 -2.5
5.035610198974609 2.642885684967041 -2.5
4.806613445281982 3.0395214557647705 -2.5
4.546450138092041 3.4164304733276367 -2.5
4.256794452667236 3.771191358566284 -2.5
3.9395408630371094 4.101499080657959 -2.5
3.596730947494507 4.405190467834473 -2.5
3.230597972869873 4.680322170257568 -2.5
2.437978506088257 5.137944221496582 -2.5
2.016650438308716 5.317461013793945 -2.5
1.5822314023971558 5.462490081787109 -2.5
-1.137548804283142 5.572094440460205 -2.5
-2.4379734992980957 5.137944221496582 -2.5
-3.230595588684082 4.680322170257568 -2.5
-3.9395360946655273 4.101493835449219 -2.5
-4.546450138092041 3.416435480117798 -2.5
-4.806611061096191 3.0395116806030273 -2.5
-5.231938362121582 2.229120969772339 -2.5
-5.394340515136719 1.8008984327316284 -2.5
-5.613379001617432 0.9122655987739563 -2.5
-5.6685791015625 0.4576074182987213 -2.5
5.520158767700195 -4.882812390860636e-06 -2.5
5.448676586151123 0.8854931592941284 -2.5
5.359753131866455 1.3210595846176147 -2.5
5.236071586608887 1.7480566501617432 -2.5
5.078434944152832 2.1637158393859863 -2.5
4.887858867645264 2.5653467178344727 -2.5
4.4130539894104 3.3161864280700684 -2.5
3.4911961555480957 4.275942325592041 -2.5
3.135807991027832 4.543002605438232 -2.5
2.760082960128784 4.780595779418945 -2.5
1.535805583000183 5.302206993103027 -2.5
1.1041796207427979 5.408588886260986 -2.5
0.22227539122104645 5.515673637390137 -2.5
-0.6653808355331421 5.479911804199219 -2.5
-1.9574755430221558 5.161445140838623 -2.5
-2.366445302963257 4.987192153930664 -2.5
-2.760077953338623 4.780595779418945 -2.5
-3.8239402770996094 3.981147289276123 -2.5
-4.131894588470459 3.660537004470825 -2.5
-4.413051605224609 3.3161914348602295 -2.5
-4.887856483459473 2.5653369426727295 -2.5
-5.078427791595459 2.163710832595825 -2.5
-5.359750747680664 1.3210644721984863 -2.5
-5.502255916595459 0.4441845715045929 -2.5
5.361269474029541 -4.882812390860636e-06 -2.5
5.343886375427246 0.4314013719558716 -2.5
5.291845798492432 0.85999995470047 -2.5
5.205483436584473 1.2830370664596558 -2.5
5.085358619689941 1.6977343559265137 -2.5
4.286027908325195 3.2207372188568115 -2.5
3.713879346847534 3.8665575981140137 -2.5
3.3907079696655273 4.152865886688232 -2.5
2.6806347370147705 4.642992973327637 -2.5
1.9011328220367432 5.012870788574219 -2.5
-0.6462304592132568 5.32217264175415 -2.5
-1.4915966987609863 5.149594783782959 -2.5
-1.901123046875 5.012870788574219 -2.5
-2.6806297302246094 4.642992973327637 -2.5
-3.0455565452575684 4.412236213684082 -2.5
-3.390702962875366 4.152865886688232 -2.5
-3.713871955871582 3.8665575981140137 -2.5
-4.012963771820068 3.555180549621582 -2.5
-4.747162818908691 2.491503953933716 -2.5
-4.9322509765625 2.101435422897339 -2.5
-5.085351467132568 1.6977441310882568 -2.5
-5.205478191375732 1.2830370664596558 -2.5
-5.343881607055664 0.4314013719558716 -2.5
