ply
format ascii 1.0
element vertex 890
property float x
property float y
property float z
end_header
-6.323200702667236 21.83016586303711 2.4333243370056152
-3.8361644744873047 6.64440393447876 0.8214373588562012
-12.309218406677246 15.076083183288574 2.083801507949829
-14.42843246459961 15.021601676940918 2.2300124168395996
-17.404216766357422 15.418793678283691 2.4894585609436035
-23.733240127563477 15.008012771606445 3.006396532058716
25.186832427978516 15.927216529846191 2.8569328784942627
20.417156219482422 15.34249496459961 2.4484474658966064
17.019939422607422 15.078369140625 2.1799216270446777
10.270988464355469 14.88009262084961 1.7333816289901733
8.75304889678955 15.160727500915527 1.67830228805542
10.17049503326416 21.43389892578125 2.2744555473327637
5.745131492614746 15.148661613464355 1.553230881690979
2.625048875808716 21.61920928955078 2.087846279144287
-6.263881683349609 21.625375747680664 2.1584343910217285
-5.743837833404541 15.145273208618164 1.5528814792633057
-7.057330131530762 14.873026847839355 1.5782498121261597
-16.990936279296875 15.052665710449219 2.176206350326538
20.19310760498047 6.741459846496582 1.8031041622161865
17.09217643737793 15.142367362976074 1.9340648651123047
14.566576957702637 15.16542911529541 1.7810192108154297
10.270988464355469 14.88009262084961 1.5313799381256104
4.309374809265137 14.877665519714355 1.311902403831482
2.6354174613952637 21.704586029052734 1.8518301248550415
-3.0921630859375 15.146415710449219 1.309326410293579
-5.743625164031982 15.144721031188965 1.3718713521957397
-3.8305699825286865 6.634716510772705 0.6488787531852722
-23.733240127563477 15.008007049560547 2.3783366680145264
20.174055099487305 15.159829139709473 1.8559633493423462
17.11305809020996 15.160868644714355 1.6814790964126587
14.56588363647461 15.164711952209473 1.5464645624160767
5.7447190284729 15.14757251739502 1.1914819478988647
4.309370040893555 14.877665519714355 1.1391887664794922
3.0945043563842773 15.157851219177246 1.1378051042556763
2.635329484939575 21.7038516998291 1.607971429824829
0.8976122736930847 22.274311065673828 1.639532446861267
-0.6108251810073853 15.157553672790527 1.1156933307647705
-3.0920605659484863 15.14589786529541 1.136907935142517
-3.827786684036255 6.629897117614746 0.563041090965271
-4.514379978179932 6.540180683135986 0.584470808506012
-12.309487342834473 15.07640552520752 1.4314651489257812
-14.543967247009277 15.141884803771973 1.5441378355026245
-23.733240127563477 15.008002281188965 2.0652246475219727
20.17290687561035 15.15895938873291 1.5749355554580688
14.565199851989746 15.163993835449219 1.3123141527175903
10.270991325378418 14.88009262084961 1.1284993886947632
5.744513988494873 15.147026062011719 1.0110915899276733
3.0943968296051025 15.157333374023438 0.9655422568321228
-1.8061779737472534 14.875165939331055 0.9352374076843262
-3.0919554233551025 15.14537525177002 0.9647817611694336
-6.288166522979736 21.70921516418457 1.4106537103652954
-5.743207931518555 15.143617630004883 1.0108648538589478
-7.057332515716553 14.873026847839355 1.027496337890625
-4.50852632522583 6.531703948974609 0.49535736441612244
-12.309487342834473 15.07640552520752 1.2147835493087769
-14.543302536010742 15.141196250915527 1.3103344440460205
-20.15004539489746 15.1417818069458 1.573150634765625
-23.733240127563477 15.008002281188965 1.7525631189346313
20.033464431762695 6.688163757324219 1.0834041833877563
24.59846305847168 15.555155754089355 1.4929394721984863
20.171754837036133 15.158095359802246 1.2943291664123535
14.564506530761719 15.163275718688965 1.0785088539123535
4.309370040893555 14.877665519714355 0.7945461869239807
2.635146379470825 21.702383041381836 1.1214343309402466
-0.6107885837554932 15.156538009643555 0.7781091332435608
-1.8061754703521729 14.875165939331055 0.7686517238616943
-3.091850519180298 15.144853591918945 0.7929031252861023
-6.287946701049805 21.708454132080078 1.1593432426452637
-7.057332515716553 14.873026847839355 0.8444726467132568
-3.8222460746765137 6.620292663574219 0.39213499426841736
-12.309487342834473 15.076411247253418 0.9984020590782166
-14.542633056640625 15.1405029296875 1.0768831968307495
-20.14895248413086 15.140961647033691 1.292865514755249
20.025968551635742 6.685658931732178 0.8485488891601562
24.598468780517578 15.555155754089355 1.169744849205017
8.751335144042969 15.157763481140137 0.7034640312194824
2.635058641433716 21.701642990112305 0.8786355257034302
-0.6107641458511353 15.15602970123291 0.6096423268318176
-1.8061754703521729 14.875165939331055 0.602250337600708
-6.287725925445557 21.70769691467285 0.9083331227302551
-5.742789268493652 15.1425142288208 0.6509051322937012
-4.496891975402832 6.514838695526123 0.31816497445106506
-12.309487342834473 15.07640552520752 0.7822664976119995
-14.541966438293457 15.139803886413574 0.843719482421875
17.109683990478516 15.157870292663574 0.6651067733764648
10.270986557006836 14.88009262084961 0.5261029005050659
8.750993728637695 15.157172203063965 0.5092547535896301
10.170493125915527 21.43389892578125 0.6903027296066284
4.309370040893555 14.877665519714355 0.45068755745887756
3.0940794944763184 15.155780792236328 0.4500829875469208
-1.8061779737472534 14.875165939331055 0.4360009729862213
-3.091634511947632 15.143813133239746 0.44972655177116394
-6.287506103515625 21.706937789916992 0.6575689315795898
-5.742581844329834 15.141963005065918 0.4712078869342804
-7.057330131530762 14.873026847839355 0.47900480031967163
-14.541299819946289 15.139110565185547 0.6107854843139648
-17.085330963134766 15.136298179626465 0.6641607284545898
-20.14676284790039 15.139310836791992 0.7332708835601807
-23.733243942260742 15.008012771606445 0.8170446753501892
20.01100730895996 6.6806640625 0.37993529438972473
20.168283462524414 15.15548324584961 0.4543374478816986
17.108837127685547 15.15712833404541 0.41163480281829834
10.270991325378418 14.88009262084961 0.32561615109443665
10.170493125915527 21.43389892578125 0.4272662401199341
3.0939745903015137 15.15526294708252 0.27856382727622986
0.9079711437225342 22.531314849853516 0.4061007499694824
-0.6107251048088074 15.15501880645752 0.2731521427631378
-1.8061779737472534 14.875165939331055 0.2698574662208557
-7.057330131530762 14.873026847839355 0.29647520184516907
-12.309487342834473 15.07640552520752 0.35051971673965454
-14.540627479553223 15.138412475585938 0.37801727652549744
-20.14566421508789 15.1384859085083 0.453825980424881
20.003541946411133 6.678173542022705 0.14606018364429474
24.59844970703125 15.555146217346191 0.2015731781721115
20.167116165161133 15.154608726501465 0.17470641434192657
17.107990264892578 15.156376838684082 0.15830443799495697
14.56176471710205 15.160414695739746 0.14559020102024078
10.270991325378418 14.88009262084961 0.1252160668373108
8.750317573547363 15.15599536895752 0.12120819091796875
10.17049503326416 21.43389892578125 0.1643185317516327
2.6347875595092773 21.69942855834961 0.15139220654964447
0.9079760313034058 22.531314849853516 0.15617676079273224
-0.6107079982757568 15.154511451721191 0.10504455119371414
-3.0914268493652344 15.142778396606445 0.10704223066568375
-5.742164134979248 15.140864372253418 0.11215667426586151
-7.057332515716553 14.873026847839355 0.11401519179344177
-3.8112449645996094 6.601240158081055 0.052792660892009735
-12.309489250183105 15.076411247253418 0.13480162620544434
-14.539965629577637 15.13771915435791 0.14536713063716888
-17.083559036254883 15.134721755981445 0.15807250142097473
-20.144561767578125 15.13766098022461 0.1745159924030304
-23.733240127563477 15.008007049560547 0.19448241591453552
25.186819076538086 15.927202224731445 -0.12383956462144852
17.10713768005371 15.155624389648438 -0.09497695416212082
10.170493125915527 21.43389892578125 -0.09858977794647217
4.309370040893555 14.877665519714355 -0.06436309963464737
3.093764543533325 15.154228210449219 -0.06427459418773651
2.634699583053589 21.698688507080078 -0.0908338874578476
-0.6106860041618347 15.154003143310547 -0.06302566081285477
-3.0913195610046387 15.142260551452637 -0.0642230212688446
-6.286845684051514 21.704668045043945 -0.09390594065189362
-12.309487342834473 15.076411247253418 -0.08088302612304688
-14.539299011230469 15.137025833129883 -0.08722656220197678
-20.143461227416992 15.13683032989502 -0.10470595955848694
-23.733243942260742 15.008012771606445 -0.11669234931468964
19.98863410949707 6.673198223114014 -0.3211157023906708
20.164791107177734 15.152860641479492 -0.3843630850315094
17.106290817260742 15.15487289428711 -0.34824997186660767
14.560392379760742 15.158988952636719 -0.320291131734848
10.270991325378418 14.88009262084961 -0.2755188047885895
10.170493125915527 21.43389892578125 -0.3615038990974426
5.74307107925415 15.143232345581055 -0.2467910647392273
2.6346092224121094 21.69795036315918 -0.3330651819705963
0.9079711437225342 22.531314849853516 -0.34361448884010315
-3.091214418411255 15.141737937927246 -0.23548872768878937
-5.741747856140137 15.139765739440918 -0.24673506617546082
-7.057330131530762 14.873026847839355 -0.25085142254829407
-4.468099117279053 6.473134517669678 -0.11985442787408829
-12.309487342834473 15.076411247253418 -0.2965853810310364
-17.081783294677734 15.133149147033691 -0.34775084257125854
-20.142362594604492 15.136005401611328 -0.3839333951473236
19.98118782043457 6.670712947845459 -0.5545307993888855
17.105443954467773 15.154120445251465 -0.6015695333480835
14.559703826904297 15.158275604248047 -0.5532841086387634
10.270986557006836 14.88009262084961 -0.47596830129623413
8.74929141998291 15.154218673706055 -0.4606439173221588
10.17049789428711 21.43389892578125 -0.6245315670967102
4.309372425079346 14.877665519714355 -0.4077392518520355
2.634523868560791 21.69721221923828 -0.5753613114356995
0.9079809188842773 22.53131866455078 -0.5936070084571838
-1.8061779737472534 14.875165939331055 -0.3944566249847412
-20.141263961791992 15.135180473327637 -0.6632235646247864
-23.733240127563477 15.008012771606445 -0.7391987442970276
19.973737716674805 6.668227195739746 -0.7879130244255066
14.559008598327637 15.157553672790527 -0.7863988876342773
8.748942375183105 15.153617858886719 -0.6547266840934753
4.309370040893555 14.877665519714355 -0.5795617699623108
2.6344311237335205 21.696474075317383 -0.8177875876426697
0.9079711437225342 22.531314849853516 -0.8437460064888
-0.6106200814247131 15.152484893798828 -0.5674253702163696
-1.8061779737472534 14.875165939331055 -0.5606757998466492
-3.09100079536438 15.140703201293945 -0.5782090425491333
-17.08000946044922 15.131571769714355 -0.8538186550140381
-20.140161514282227 15.134355545043945 -0.9426496624946594
23.61438751220703 14.93285083770752 -1.3556185960769653
17.103740692138672 15.15261173248291 -1.1086796522140503
10.270986557006836 14.88009262084961 -0.877282977104187
5.742451190948486 15.141606330871582 -0.7857212424278259
4.309370040893555 14.877665519714355 -0.7515193223953247
-0.6106005907058716 15.151972770690918 -0.7357609272003174
-1.8061779737472534 14.875165939331055 -0.7270338535308838
-3.090893507003784 15.140180587768555 -0.7497420907020569
-5.741122722625732 15.138114929199219 -0.7855366468429565
-3.7975878715515137 6.577582836151123 -0.3685113489627838
-12.309489250183105 15.076411247253418 -0.9443484544754028
-17.079113006591797 15.130785942077637 -1.1070877313613892
-20.139055252075195 15.133524894714355 -1.2222638130187988
23.61438751220703 14.93285083770752 -1.6661399602890015
17.10289192199707 15.15185546875 -1.362573504447937
14.557621955871582 15.156107902526855 -1.2531903982162476
8.74825382232666 15.152421951293945 -1.0433813333511353
10.170493125915527 21.43389892578125 -1.4147673845291138
5.742246150970459 15.141063690185547 -0.9656651020050049
2.6342527866363525 21.69499397277832 -1.3032482862472534
0.9079760313034058 22.531314849853516 -1.3447082042694092
-1.8061779737472534 14.875165939331055 -0.8935689926147461
-3.0907886028289795 15.139662742614746 -0.9214500188827515
-5.740912914276123 15.13756275177002 -0.965441882610321
-3.79486083984375 6.572865962982178 -0.4525988698005676
-4.445311069488525 6.440116882324219 -0.4666503667831421
-12.309487342834473 15.076411247253418 -1.1606638431549072
-14.53596305847168 15.133554458618164 -1.2513372898101807
-17.078229904174805 15.130000114440918 -1.3606191873550415
-28.66728401184082 4.658905982971191 -1.7319539785385132
20.082321166992188 15.090888023376465 -1.7775704860687256
17.03884506225586 15.09511661529541 -1.6108033657073975
14.556923866271973 15.155375480651855 -1.4869979619979858
5.742041110992432 15.140517234802246 -1.145835280418396
4.309374809265137 14.877665519714355 -1.0960487127304077
3.0931224822998047 15.151093482971191 -1.0942355394363403
0.9079711437225342 22.531314849853516 -1.5956557989120483
-0.6105614900588989 15.150946617126465 -1.072981357574463
-1.8061754703521729 14.875165939331055 -1.0603262186050415
-3.0906810760498047 15.139140129089355 -1.093370795249939
-5.740701675415039 15.137011528015137 -1.1455655097961426
-7.057330131530762 14.873026847839355 -1.1649081707000732
-3.7921361923217773 6.56814432144165 -0.5366758704185486
-12.309489250183105 15.076411247253418 -1.3772653341293335
-14.535295486450195 15.132856369018555 -1.4847904443740845
-17.07733917236328 15.1292085647583 -1.6144405603408813
-20.063549041748047 15.0767822265625 -1.7759090662002563
-28.632675170898438 4.653281211853027 -2.052687406539917
28.290206909179688 4.597621917724609 -2.347599983215332
27.828521728515625 6.85912561416626 -2.347599983215332
19.943918228149414 6.658266544342041 -1.7222024202346802
26.36783790588379 11.23428726196289 -2.347599983215332
23.672481536865234 14.96959400177002 -2.29412579536438
20.08116912841797 15.0900239944458 -2.0574498176574707
17.037994384765625 15.094365119934082 -1.864439845085144
14.499699592590332 15.095809936523438 -1.7144542932510376
10.270991325378418 14.88009262084961 -1.4809582233428955
8.747560501098633 15.151225090026855 -1.432996392250061
5.741830825805664 15.139975547790527 -1.3262765407562256
4.309370040893555 14.877665519714355 -1.268696665763855
3.093017578125 15.150566101074219 -1.2665531635284424
0.9079760313034058 22.531314849853516 -1.846998691558838
-1.8061754703521729 14.875165939331055 -1.2273465394973755
-3.090578556060791 15.138622283935547 -1.2655538320541382
-7.057332515716553 14.873026847839355 -1.3484017848968506
-14.481789588928223 15.077153205871582 -1.7123388051986694
-17.012720108032227 15.071971893310547 -1.8616750240325928
-20.062456130981445 15.075956344604492 -2.0555336475372314
-22.84168815612793 5.629970550537109 -1.9269133806228638
26.773054122924805 2.1613476276397705 -2.5
25.898395538330078 4.208915710449219 -2.4421093463897705
19.210412979125977 6.413388729095459 -1.885010838508606
23.204425811767578 9.886479377746582 -2.347599983215332
14.499018669128418 15.095097541809082 -1.9480935335159302
15.952011108398438 19.537677764892578 -2.347599983215332
10.270986557006836 14.88009262084961 -1.6828539371490479
8.713666915893555 15.09251880645752 -1.6220433712005615
3.092907667160034 15.150038719177246 -1.4391688108444214
-0.610522449016571 15.149921417236328 -1.4112179279327393
-3.7866809368133545 6.558701038360596 -0.704885721206665
-4.428305625915527 6.415478229522705 -0.7255530953407288
-12.309489250183105 15.076411247253418 -1.811543583869934
-21.318021774291992 13.480717658996582 -2.347599983215332
-22.333648681640625 11.72159194946289 -2.347599983215332
-22.796117782592773 7.610458850860596 -2.2368576526641846
-22.76103973388672 5.610092639923096 -2.181877613067627
23.977575302124023 1.4648437172581907e-05 -2.5
23.652008056640625 3.8438377380371094 -2.4984099864959717
21.86162757873535 5.388417720794678 -2.347599983215332
20.714157104492188 8.825488090515137 -2.347599983215332
18.000164031982422 13.526254653930664 -2.347599983215332
16.85338592529297 14.930814743041992 -2.347599983215332
14.498330116271973 15.094379425048828 -2.182190179824829
8.713324546813965 15.091928482055664 -1.8169746398925781
5.720473289489746 15.083646774291992 -1.681984543800354
2.627077579498291 21.63589859008789 -2.272416591644287
0.9066137671470642 22.497631072998047 -2.347599983215332
-0.6104980111122131 15.14940357208252 -1.580818772315979
-3.090364933013916 15.1375732421875 -1.6108585596084595
-6.264322280883789 21.626928329467773 -2.347599983215332
-3.7839536666870117 6.553974628448486 -0.7890576124191284
-4.422634124755859 6.407265663146973 -0.8117390275001526
-12.309489250183105 15.076411247253418 -2.029327869415283
-14.480451583862305 15.075756072998047 -2.1794991493225098
-19.936838150024414 10.46365737915039 -2.347599983215332
-20.714162826538086 8.825483322143555 -2.347599983215332
-21.86164665222168 5.388422966003418 -2.347599983215332
-23.899816513061523 1.9293895959854126 -2.5
21.648893356323242 9.765624781721272e-06 -2.5
19.738445281982422 4.865102291107178 -2.347599983215332
19.11985969543457 6.383154392242432 -2.3277409076690674
18.702428817749023 7.968354225158691 -2.347599983215332
18.000593185424805 9.4474458694458 -2.347599983215332
17.182016372680664 10.865262985229492 -2.347599983215332
16.252012252807617 12.212597846984863 -2.347599983215332
15.216598510742188 13.480751991271973 -2.347599983215332
14.082507133483887 14.661459922790527 -2.347599983215332
10.270991325378418 14.88009262084961 -2.0879464149475098
8.712983131408691 15.091337203979492 -2.0123393535614014
8.714956283569336 18.36640739440918 -2.347599983215332
5.720268249511719 15.083105087280273 -1.8628405332565308
4.309370040893555 14.877665519714355 -1.7886812686920166
3.080864191055298 15.091034889221191 -1.778648018836975
2.4504125118255615 20.18095588684082 -2.347599983215332
0.8185644149780273 20.31269073486328 -2.347599983215332
-0.6081396341323853 15.090848922729492 -1.7440950870513916
-1.8061754703521729 14.875165939331055 -1.7303903102874756
-5.655945777893066 19.526540756225586 -2.347599983215332
-3.781221866607666 6.549242973327637 -0.8733022809028625
-12.309487342834473 15.076411247253418 -2.2476134300231934
-17.18201446533203 10.86525821685791 -2.347599983215332
-18.70242691040039 7.968349456787109 -2.347599983215332
-19.282962799072266 6.437602519989014 -2.347599983215332
-19.738447189331055 4.865097522735596 -2.347599983215332
19.472511291503906 3.164604425430298 -2.5
17.9870548248291 4.433417797088623 -2.347599983215332
17.042959213256836 7.261318206787109 -2.347599983215332
15.657453536987305 9.9011812210083 -2.347599983215332
14.809969902038574 11.128973960876465 -2.347599983215332
13.866430282592773 12.284608840942383 -2.347599983215332
12.832965850830078 13.360551834106445 -2.347599983215332
11.716276168823242 14.349848747253418 -2.347599983215332
10.270991325378418 14.88009262084961 -2.2912404537200928
7.94167947769165 16.73675537109375 -2.347599983215332
3.080754280090332 15.0905122756958 -1.9517666101455688
2.232988119125366 18.390296936035156 -2.347599983215332
0.7459325790405273 18.51034164428711 -2.347599983215332
-0.6081176400184631 15.090336799621582 -1.9138528108596802
-3.0787596702575684 15.080756187438965 -1.9505046606063843
-5.154089450836182 17.793947219848633 -2.347599983215332
-11.716264724731445 14.349535942077637 -2.347599983215332
-14.809967994689941 11.128969192504883 -2.347599983215332
-15.657450675964355 9.9011812210083 -2.347599983215332
-17.571985244750977 5.866401195526123 -2.347599983215332
-17.987051010131836 4.433417797088623 -2.347599983215332
18.05731201171875 1.4577441215515137 -2.5
15.0631103515625 7.905736923217773 -2.347599983215332
14.378117561340332 9.092192649841309 -2.347599983215332
12.733437538146973 11.280854225158691 -2.347599983215332
11.78441333770752 12.268891334533691 -2.347599983215332
9.663747787475586 14.000361442565918 -2.347599983215332
7.292778015136719 15.369233131408691 -2.347599983215332
4.309367656707764 14.877665519714355 -2.1374969482421875
3.080644369125366 15.08998966217041 -2.125356912612915
2.0505027770996094 16.889015197753906 -2.347599983215332
0.684985339641571 16.997901916503906 -2.347599983215332
-0.6081030368804932 15.089823722839355 -2.0840723514556885
-4.732958793640137 16.34004783630371 -2.347599983215332
-7.057330131530762 14.873026847839355 -2.2718043327331543
-3.775749444961548 6.539760589599609 -1.0420962572097778
-11.78441333770752 12.268881797790527 -2.347599983215332
-13.599884033203125 10.21963882446289 -2.347599983215332
-14.378117561340332 9.092167854309082 -2.347599983215332
-15.06311321258545 7.905727386474609 -2.347599983215332
-15.65041446685791 6.668012619018555 -2.347599983215332
-17.044086456298828 4.200995922088623 -2.422461748123169
-17.881454467773438 2.9060254096984863 -2.5
16.689464569091797 1.347329020500183 -2.5
16.52692985534668 2.6858983039855957 -2.5
16.22963523864746 4.000253677368164 -2.495758533477783
14.913890838623047 4.978999137878418 -2.347599983215332
14.464892387390137 6.162914752960205 -2.347599983215332
13.922077178955078 7.306869983673096 -2.347599983215332
10.891740798950195 11.339516639709473 -2.347599983215332
8.931715965270996 12.939828872680664 -2.347599983215332
7.861530780792236 13.616572380065918 -2.347599983215332
6.740348815917969 14.2050142288208 -2.347599983215332
3.0805394649505615 15.089457511901855 -2.2994682788848877
1.89520263671875 15.60842227935791 -2.347599983215332
-0.6080761551856995 15.089311599731445 -2.2548036575317383
-1.8061803579330444 14.875165939331055 -2.237313985824585
-4.37443733215332 15.102279663085938 -2.347599983215332
-5.575469970703125 14.70131778717041 -2.347599983215332
-6.7403564453125 14.205009460449219 -2.347599983215332
-4.399991512298584 6.374453067779541 -1.1564826965332031
-9.94396686553955 12.179174423217773 -2.347599983215332
-10.891744613647461 11.33951187133789 -2.347599983215332
-11.768877029418945 10.426318168640137 -2.347599983215332
-14.464892387390137 6.162909984588623 -2.347599983215332
-16.228845596313477 4.000058650970459 -2.4956374168395996
-16.526927947998047 2.6858983039855957 -2.5
-16.689464569091797 1.3473095893859863 -2.5
15.5610933303833 4.882812390860636e-06 -2.5
15.510629653930664 1.252163052558899 -2.5
15.10891342163086 3.7240233421325684 -2.5
12.938715934753418 6.79076623916626 -2.347599983215332
12.350326538085938 7.809877872467041 -2.347599983215332
10.937600135803223 9.6898775100708 -2.347599983215332
10.122421264648438 10.538569450378418 -2.347599983215332
7.3062424659729 12.65478515625 -2.347599983215332
1.7613402605056763 14.505942344665527 -2.347599983215332
-1.761348843574524 14.50594711303711 -2.347599983215332
-4.065454006195068 14.03555679321289 -2.347599983215332
-5.18165397644043 13.662914276123047 -2.347599983215332
-3.7702598571777344 6.530253887176514 -1.2114335298538208
-10.122420310974121 10.538564682006836 -2.347599983215332
-10.93759822845459 9.6898775100708 -2.347599983215332
-13.860475540161133 4.627304553985596 -2.347599983215332
-15.359575271606445 2.4961814880371094 -2.5
14.342883110046387 2.3309569358825684 -2.5
12.55334186553955 5.348481178283691 -2.347599983215332
12.082260131835938 6.341264724731445 -2.347599983215332
11.532816886901855 7.292929649353027 -2.347599983215332
10.213603019714355 9.048476219177246 -2.347599983215332
9.452387809753418 9.840995788574219 -2.347599983215332
8.629862785339355 10.569682121276855 -2.347599983215332
6.822619438171387 11.817123413085938 -2.347599983215332
4.838669300079346 12.758520126342773 -2.347599983215332
3.7963452339172363 13.1065034866333 -2.347599983215332
2.7294018268585205 13.369482040405273 -2.347599983215332
1.6447484493255615 13.545756340026855 -2.347599983215332
0.5494311451911926 13.63417911529541 -2.347599983215332
-2.7294042110443115 13.369482040405273 -2.347599983215332
-3.796353578567505 13.1065034866333 -2.347599983215332
-4.83866548538208 12.758524894714355 -2.347599983215332
-3.7675061225891113 6.525487899780273 -1.2963591814041138
-4.388642311096191 6.358017444610596 -1.3291479349136353
-11.532820701599121 7.292924404144287 -2.347599983215332
-12.5533447265625 5.348471641540527 -2.347599983215332
-12.943008422851562 4.321005821228027 -2.347599983215332
-14.108805656433105 3.4775145053863525 -2.5
-14.48393440246582 1.1692675352096558 -2.5
12.60893726348877 4.209492206573486 -2.4389703273773193
10.814248085021973 6.83853006362915 -2.347599983215332
8.092167854309082 9.911117553710938 -2.347599983215332
5.485131740570068 11.559697151184082 -2.347599983215332
3.559809446334839 12.28988265991211 -2.347599983215332
2.559340715408325 12.536469459533691 -2.347599983215332
-1.5422778129577637 12.701762199401855 -2.347599983215332
-4.53718376159668 11.963583946228027 -2.347599983215332
-3.764747142791748 6.520702838897705 -1.3814849853515625
-4.382960319519043 6.349780082702637 -1.4156301021575928
-8.092164039611816 9.911123275756836 -2.347599983215332
-8.86344051361084 9.227827072143555 -2.347599983215332
-9.577232360839844 8.484692573547363 -2.347599983215332
-10.814249038696289 6.83853006362915 -2.347599983215332
-11.771185874938965 5.015224456787109 -2.347599983215332
-12.608903884887695 4.209467887878418 -2.4389636516571045
-13.22973346710205 3.2608397006988525 -2.5
-13.449220657348633 2.185722589492798 -2.5
12.82344913482666 9.765624781721272e-06 -2.5
12.781865119934082 1.0318701267242432 -2.5
12.657387733459473 2.0570361614227295 -2.5
12.138566970825195 4.052455902099609 -2.4948740005493164
11.078144073486328 4.719960689544678 -2.347599983215332
10.662421226501465 5.596078872680664 -2.347599983215332
9.62667179107666 7.233983993530273 -2.347599983215332
8.341596603393555 8.68453598022461 -2.347599983215332
5.162197113037109 10.879111289978027 -2.347599983215332
1.4514721632003784 11.953930854797363 -2.347599983215332
0.4848657250404358 12.031967163085938 -2.347599983215332
-0.4848730266094208 12.031967163085938 -2.347599983215332
-2.4086596965789795 11.79837417602539 -2.347599983215332
-3.350222110748291 11.566303253173828 -2.347599983215332
-4.270053386688232 11.259218215942383 -2.347599983215332
-3.761979818344116 6.515913009643555 -1.4668309688568115
-8.341595649719238 8.684531211853027 -2.347599983215332
-9.013362884521484 7.985151290893555 -2.347599983215332
-9.62667465209961 7.233979225158691 -2.347599983215332
-12.138566970825195 4.052446365356445 -2.4948737621307373
-12.450819969177246 3.068852424621582 -2.5
-12.781865119934082 1.0318603515625 -2.5
12.107511520385742 9.765624781721272e-06 -2.5
12.068254470825195 0.9742528796195984 -2.5
11.950724601745605 1.9421874284744263 -2.5
11.755690574645996 2.897524356842041 -2.5
10.459648132324219 4.45644998550415 -2.347599983215332
10.067140579223633 5.283647537231445 -2.347599983215332
7.87588357925415 8.19967269897461 -2.347599983215332
7.19054651260376 8.806825637817383 -2.347599983215332
4.031657695770264 10.630615234375 -2.347599983215332
3.1631786823272705 10.920551300048828 -2.347599983215332
2.274184465408325 11.139667510986328 -2.347599983215332
1.3704345226287842 11.286547660827637 -2.347599983215332
-4.371560096740723 6.333271503448486 -1.5889931917190552
-7.190543174743652 8.806830406188965 -2.347599983215332
-8.510146141052246 7.539340496063232 -2.347599983215332
-10.067139625549316 5.283642292022705 -2.347599983215332
-11.47803783416748 3.8319385051727295 -2.4986112117767334
-12.06825065612793 0.9742431640625 -2.5
11.464518547058105 4.882812390860636e-06 -2.5
11.42734146118164 0.9225195050239563 -2.5
11.131379127502441 2.743647336959839 -2.5
10.87451171875 3.630449056625366 -2.5
9.532499313354492 5.003046989440918 -2.347599983215332
9.099005699157715 5.753876686096191 -2.347599983215332
8.606511116027832 6.467377662658691 -2.347599983215332
6.808674335479736 8.339120864868164 -2.347599983215332
5.382822036743164 9.323315620422363 -2.347599983215332
2.995190382003784 10.340585708618164 -2.347599983215332
2.1534080505371094 10.548070907592773 -2.347599983215332
1.2976537942886353 10.687148094177246 -2.347599983215332
0.43348386883735657 10.756903648376465 -2.347599983215332
-1.2976586818695068 10.687138557434082 -2.347599983215332
-2.1534056663513184 10.548070907592773 -2.347599983215332
-2.995192766189575 10.340595245361328 -2.347599983215332
-4.615147590637207 9.726224899291992 -2.347599983215332
-3.7564220428466797 6.506289005279541 -1.6382763385772705
-5.21854829788208 6.391562461853027 -1.7993319034576416
-7.457615852355957 7.764208793640137 -2.347599983215332
-8.606507301330566 6.467377662658691 -2.347599983215332
-9.532496452331543 5.003041744232178 -2.347599983215332
-10.874512672424316 3.630449056625366 -2.5
-11.131378173828125 2.743647336959839 -2.5
-11.316052436828613 1.8390477895736694 -2.5
10.883703231811523 4.882812390860636e-06 -2.5
8.638036727905273 5.462368011474609 -2.347599983215332
8.170490264892578 6.139726638793945 -2.347599983215332
7.649950981140137 6.777275085449219 -2.347599983215332
7.079799652099609 7.370859146118164 -2.347599983215332
6.463735103607178 7.916645526885986 -2.347599983215332
5.110116958618164 8.850981712341309 -2.347599983215332
4.381332874298096 9.233481407165527 -2.347599983215332
2.843449592590332 9.816718101501465 -2.347599983215332
2.0443115234375 10.013690948486328 -2.347599983215332
1.2319140434265137 10.14571762084961 -2.347599983215332
0.4115234315395355 10.211942672729492 -2.347599983215332
-1.2319164276123047 10.14571762084961 -2.347599983215332
-2.0443127155303955 10.013686180114746 -2.347599983215332
-4.36012077331543 6.316699028015137 -1.7630420923233032
-7.079799652099609 7.370863914489746 -2.347599983215332
-7.649950981140137 6.777275085449219 -2.347599983215332
-8.170489311218262 6.139726638793945 -2.347599983215332
-8.63803482055664 5.462372779846191 -2.347599983215332
-9.869072914123535 4.204819202423096 -2.464118003845215
-10.567447662353516 2.6046483516693115 -2.5
-10.74276065826416 1.74587881565094 -2.5
10.356359481811523 4.882812390860636e-06 -2.5
10.222243309020996 1.6612889766693115 -2.5
9.508191108703613 4.051064491271973 -2.4948973655700684
8.611085891723633 4.519448280334473 -2.347599983215332
7.279286861419678 6.448896408081055 -2.347599983215332
6.736764907836914 7.013720512390137 -2.347599983215332
5.524447917938232 8.003549575805664 -2.347599983215332
4.169045448303223 8.786088943481445 -2.347599983215332
3.448542356491089 9.093066215515137 -2.347599983215332
2.705676317214966 9.341073989868164 -2.347599983215332
1.9452612400054932 9.528495788574219 -2.347599983215332
0.18975830078125 4.708832740783691 -1.1376228332519531
-0.39158689975738525 9.717147827148438 -2.347599983215332
-1.945257544517517 9.5285005569458 -2.347599983215332
-3.4485411643981934 9.093066215515137 -2.347599983215332
-3.750826358795166 6.496591567993164 -1.810874581336975
-4.354392051696777 6.308393478393555 -1.8503793478012085
-6.150545597076416 7.533061504364014 -2.347599983215332
-6.736761093139648 7.013720512390137 -2.347599983215332
-7.279288291931152 6.448896408081055 -2.347599983215332
-7.774605751037598 5.842241287231445 -2.347599983215332
-8.611089706420898 4.519448280334473 -2.347599983215332
-9.50818920135498 4.051059246063232 -2.4948973655700684
-10.055418014526367 2.478447198867798 -2.5
-10.322774887084961 0.8333446979522705 -2.5
9.87530517578125 9.765624781721272e-06 -2.5
9.58834457397461 2.3633251190185547 -2.5
9.077826499938965 3.8677000999450684 -2.4980053901672363
8.211103439331055 4.309521198272705 -2.347599983215332
7.83770227432251 4.956269264221191 -2.347599983215332
6.941164493560791 6.149340629577637 -2.347599983215332
6.423840045928955 6.687934398651123 -2.347599983215332
1.117775797843933 9.2056884765625 -2.347599983215332
-1.8549010753631592 9.085893630981445 -2.347599983215332
-2.579998731613159 8.907177925109863 -2.347599983215332
-3.2883543968200684 8.67068862915039 -2.347599983215332
-3.047022581100464 6.421469688415527 -1.79936683177948
-4.348628997802734 6.300048828125 -1.9379503726959229
-4.493981838226318 5.504130840301514 -1.7988641262054443
-6.423840045928955 6.687929630279541 -2.347599983215332
-7.413474082946777 5.570868968963623 -2.347599983215332
-7.83770227432251 4.956274509429932 -2.347599983215332
-9.077825546264648 3.8677000999450684 -2.4980051517486572
-9.843279838562012 0.7946337461471558 -2.5
9.404008865356445 0.7591796517372131 -2.5
8.94905948638916 2.9876415729522705 -2.5
5.603127479553223 6.862587928771973 -2.347599983215332
3.797983407974243 8.004091262817383 -2.347599983215332
3.141608715057373 8.2837495803833 -2.347599983215332
1.77212393283844 8.680424690246582 -2.347599983215332
1.0678930282592773 8.794873237609863 -2.347599983215332
-1.7721227407455444 8.680429458618164 -2.347599983215332
-3.0307469367980957 6.387163162231445 -1.8733562231063843
-6.631406307220459 5.874921798706055 -2.347599983215332
-8.679640769958496 3.6980419158935547 -2.5
-9.160449981689453 2.2578516006469727 -2.5
-9.404006004333496 0.7591796517372131 -2.5
9.029276847839355 9.765624781721272e-06 -2.5
8.766901969909668 2.1608543395996094 -2.5
8.564597129821777 2.8592822551727295 -2.5
6.778354167938232 5.093598365783691 -2.347599983215332
5.8735032081604 6.114980220794678 -2.347599983215332
3.006640672683716 7.927865982055664 -2.347599983215332
0.17866699397563934 4.433598518371582 -1.2285569906234741
-2.358968496322632 8.144091606140137 -2.347599983215332
-2.944849729537964 7.764931678771973 -2.2993531227111816
-3.0130553245544434 6.349912166595459 -1.946025013923645
-3.7423510551452637 6.481914043426514 -2.072334051132202
-5.873504638671875 6.114975452423096 -2.347599983215332
-6.34650993347168 5.622524261474609 -2.347599983215332
-6.778356552124023 5.093608379364014 -2.347599983215332
-7.971517086029053 4.183779239654541 -2.492647886276245
-8.306747436523438 3.539174795150757 -2.5
-8.76690673828125 2.1608543395996094 -2.5
8.655153274536133 4.882812390860636e-06 -2.5
8.40365219116211 2.0713183879852295 -2.5
6.869308948516846 4.343896389007568 -2.347599983215332
6.497499942779541 4.882553577423096 -2.347599983215332
6.083544731140137 5.38955545425415 -2.347599983215332
5.140219688415527 6.295624732971191 -2.347599983215332
4.063764572143555 7.038652420043945 -2.347599983215332
3.484206438064575 7.342832088470459 -2.347599983215332
2.8820629119873047 7.599379539489746 -2.347599983215332
1.6257177591323853 7.96328592300415 -2.347599983215332
0.9796679615974426 8.068281173706055 -2.347599983215332
0.32726073265075684 8.120942115783691 -2.347599983215332
-0.9796679615974426 8.068281173706055 -2.347599983215332
-2.261225461959839 7.806645393371582 -2.347599983215332
-2.8820605278015137 7.599379539489746 -2.347599983215332
-3.0307469367980957 6.387163162231445 -2.042062520980835
-3.18658185005188 5.51931619644165 -1.8408578634262085
-3.8090124130249023 5.518295764923096 -1.9367765188217163
-5.278531551361084 5.495532035827637 -2.2009899616241455
-6.49749755859375 4.882553577423096 -2.347599983215332
-6.86931037902832 4.343891620635986 -2.347599983215332
-8.20973014831543 2.7408201694488525 -2.5
-8.40364933013916 2.0713183879852295 -2.5
-8.62708568572998 0.6964550614356995 -2.5
8.28173542022705 0.6685742139816284 -2.5
8.20108413696289 1.3328124284744263 -2.5
8.067240715026855 1.9883935451507568 -2.5
7.881081581115723 2.631093740463257 -2.5
7.643810749053955 3.256723642349243 -2.5
7.351560115814209 3.858393430709839 -2.4981629848480225
6.2373948097229 4.687099456787109 -2.347599983215332
5.840012073516846 5.173808574676514 -2.347599983215332
4.9344482421875 6.04360818862915 -2.347599983215332
4.432146072387695 6.421064376831055 -2.347599983215332
3.9010937213897705 6.756889343261719 -2.347599983215332
1.5606396198272705 7.644501686096191 -2.347599983215332
0.3141576945781708 7.795854091644287 -2.347599983215332
-0.9404516220092773 7.745297908782959 -2.347599983215332
-2.766688108444214 7.295166015625 -2.347599983215332
-3.18658185005188 5.51931619644165 -1.917622685432434
-4.504622936248779 5.517158031463623 -2.1431055068969727
-5.840015888214111 5.173803806304932 -2.347599983215332
-6.2373948097229 4.687099456787109 -2.347599983215332
-6.675081729888916 4.2210693359375 -2.376349687576294
-7.351560115814209 3.8583984375 -2.4981627464294434
-7.64381217956543 3.256723642349243 -2.5
-8.067243576049805 1.9884082078933716 -2.5
7.986814022064209 4.882812390860636e-06 -2.5
7.960915565490723 0.6426757574081421 -2.5
7.883383750915527 1.2811815738677979 -2.5
7.071969985961914 3.711660146713257 -2.5
6.649792194366455 4.205082893371582 -2.4627504348754883
5.995769023895264 4.505527019500732 -2.347599983215332
4.743298053741455 5.809487342834473 -2.347599983215332
4.260451793670654 6.172328948974609 -2.347599983215332
3.215161085128784 6.775825023651123 -2.347599983215332
2.6595141887664795 7.012563228607178 -2.347599983215332
1.5001806020736694 7.348369121551514 -2.347599983215332
0.9040185213088989 7.445253849029541 -2.347599983215332
0.19083739817142487 4.735639572143555 -1.4835314750671387
-0.30199217796325684 7.493857383728027 -2.347599983215332
-1.500181794166565 7.348373889923096 -2.347599983215332
-2.086616277694702 7.203827857971191 -2.347599983215332
-3.0143749713897705 6.352665901184082 -2.2009899616241455
-3.18658447265625 5.51931619644165 -1.9949018955230713
-3.8090171813964844 5.518295764923096 -2.0988476276397705
-5.195385456085205 5.408974647521973 -2.347599983215332
-6.649777889251709 4.205068111419678 -2.462745189666748
-7.347706317901611 3.130561351776123 -2.5
-7.575780868530273 2.5291748046875 -2.5
-7.754733562469482 1.911376953125 -2.5
-7.883383750915527 1.2811815738677979 -2.5
-7.960914134979248 0.6426806449890137 -2.5
7.686970233917236 0.0 -2.5
7.662038326263428 0.6185449361801147 -2.5
7.463593482971191 1.8396190404891968 -2.5
7.291364669799805 2.434213876724243 -2.5
6.806469440460205 3.5723094940185547 -2.5
6.481584548950195 4.098715782165527 -2.4940898418426514
5.403022289276123 4.786664962768555 -2.347599983215332
5.000336647033691 5.205908298492432 -2.347599983215332
3.609182119369507 6.251288890838623 -2.347599983215332
2.5596678256988525 6.749291896820068 -2.347599983215332
2.0082762241363525 6.93337869644165 -2.347599983215332
1.4438623189926147 7.072494983673096 -2.347599983215332
0.8700805306434631 7.165741920471191 -2.347599983215332
0.17905516922473907 4.443242073059082 -1.4462286233901978
-1.4438610076904297 7.072494983673096 -2.347599983215332
-2.5596654415130615 6.74929666519165 -2.347599983215332
-2.9422900676727295 6.200747013092041 -2.2321577072143555
-3.18658185005188 5.51931619644165 -2.0727174282073975
-3.809015989303589 5.518295764923096 -2.1807174682617188
-4.432741641998291 5.429125785827637 -2.2794747352600098
-6.806468486785889 3.5723094940185547 -2.5
-7.071850299835205 3.0130369663238525 -2.5
-7.291365623474121 2.4342236518859863 -2.5
-7.587419033050537 1.2330858707427979 -2.5
7.382858753204346 0.5960058569908142 -2.5
7.310954570770264 1.1881542205810547 -2.5
6.814172267913818 2.903247117996216 -2.5
6.251584529876709 3.9532666206359863 -2.4965548515319824
5.618290901184082 4.221874713897705 -2.372040271759033
5.206154823303223 4.612250804901123 -2.347599983215332
4.818137168884277 5.016220569610596 -2.347599983215332
4.398876667022705 5.387651443481445 -2.347599983215332
3.9510912895202637 5.724145412445068 -2.347599983215332
3.477675676345825 6.023510456085205 -2.347599983215332
1.9351024627685547 6.680742263793945 -2.347599983215332
1.3912523984909058 6.814789772033691 -2.347599983215332
0.8383764624595642 6.904638290405273 -2.347599983215332
-0.8383764624595642 6.904633522033691 -2.347599983215332
-1.9351037740707397 6.680742263793945 -2.347599983215332
-2.4664013385772705 6.503368854522705 -2.347599983215332
-2.9422900676727295 6.200736999511719 -2.316566228866577
-3.1865832805633545 5.51931619644165 -2.151097536087036
-4.398876667022705 5.387656211853027 -2.347599983215332
-4.818139553070068 5.016220569610596 -2.347599983215332
-5.206154823303223 4.612250804901123 -2.347599983215332
-6.558461666107178 3.442148447036743 -2.5
-6.814173221588135 2.903251886367798 -2.5
-7.025688171386719 2.345522403717041 -2.5
-7.191642761230469 1.7725830078125 -2.5
-7.382856369018555 0.5960107445716858 -2.5
7.121423244476318 0.574902355670929 -2.5
7.052067756652832 1.1460790634155273 -2.5
6.936975002288818 1.7098193168640137 -2.5
6.5728759765625 2.8004393577575684 -2.5
6.326218128204346 3.320258617401123 -2.5
6.03579568862915 3.8168113231658936 -2.4988677501678467
5.598923206329346 4.207319259643555 -2.450643539428711
4.243107795715332 5.196869850158691 -2.347599983215332
3.8111791610717773 5.521445274353027 -2.347599983215332
2.8761181831359863 6.061303615570068 -2.347599983215332
0.8086889386177063 6.660136699676514 -2.347599983215332
0.17868895828723907 4.434115886688232 -1.5528218746185303
-0.2701464891433716 6.703618049621582 -2.347599983215332
-0.8086913824081421 6.660136699676514 -2.347599983215332
-1.866579532623291 6.444164752960205 -2.347599983215332
-2.876121759414673 6.061303615570068 -2.347599983215332
-3.145639657974243 5.4483642578125 -2.201399087905884
-4.243107795715332 5.196869850158691 -2.347599983215332
-5.021799087524414 4.448930740356445 -2.347599983215332
-6.776901721954346 2.262465715408325 -2.5
-6.9369797706604 1.7098193168640137 -2.5
-7.121419429779053 0.5749072432518005 -2.5
6.898410320281982 0.0 -2.5
6.80907678604126 1.1065869331359863 -2.5
6.543393611907959 2.184511661529541 -2.5
5.50054931640625 4.133393287658691 -2.493501901626587
4.096904277801514 5.017807483673096 -2.347599983215332
3.6798558235168457 5.331196308135986 -2.347599983215332
2.7770190238952637 5.852450847625732 -2.347599983215332
1.2957446575164795 6.346967697143555 -2.347599983215332
0.78082275390625 6.430654048919678 -2.347599983215332
-1.2957470417022705 6.346972465515137 -2.347599983215332
-2.297086238861084 6.056928634643555 -2.347599983215332
-2.777017831802368 5.852450847625732 -2.347599983215332
-3.679860830307007 5.331186294555664 -2.347599983215332
-4.096902847290039 5.017802715301514 -2.347599983215332
-4.487385272979736 4.671870231628418 -2.347599983215332
-4.848764419555664 4.295629978179932 -2.347599983215332
-5.50054931640625 4.133403301239014 -2.493501901626587
-6.108239650726318 3.2058496475219727 -2.5
-6.346396446228027 2.7039451599121094 -2.5
-6.697952747344971 1.6508984565734863 -2.5
6.645224571228027 0.5364599227905273 -2.5
6.580510139465332 1.0694384574890137 -2.5
4.762592792510986 4.219296932220459 -2.385972738265991
4.336750507354736 4.51504373550415 -2.347599983215332
3.9593772888183594 4.849365234375 -2.347599983215332
3.1302123069763184 5.421699047088623 -2.347599983215332
2.6837964057922363 5.655986309051514 -2.347599983215332
2.219980478286743 5.853608131408691 -2.347599983215332
1.2522509098052979 6.133915901184082 -2.347599983215332
0.17869384586811066 4.434277057647705 -1.6641590595245361
-0.7546142339706421 6.214780330657959 -2.347599983215332
-2.6837987899780273 5.655995845794678 -2.347599983215332
-3.1302146911621094 5.421689510345459 -2.347599983215332
-3.55633282661438 5.152231216430664 -2.347599983215332
-4.336750507354736 4.51504373550415 -2.347599983215332
-4.76258659362793 4.219291687011719 -2.385972023010254
-5.634746074676514 3.5632030963897705 -2.5
-5.90319299697876 3.0982372760772705 -2.5
-6.323742389678955 2.1111814975738525 -2.5
-6.645223140716553 0.5364648103713989 -2.5
6.448566913604736 4.882812390860636e-06 -2.5
6.365058422088623 1.0344287157058716 -2.5
6.261176586151123 1.5432469844818115 -2.5
6.11669397354126 2.042055606842041 -2.5
5.932543754577637 2.5276269912719727 -2.5
5.709921836853027 2.9967968463897705 -2.5
5.450261116027832 3.446542978286743 -2.5
4.747360706329346 4.205800533294678 -2.4588470458984375
4.19476318359375 4.36721658706665 -2.347599983215332
3.8297460079193115 4.690590858459473 -2.347599983215332
3.439894914627075 4.983544826507568 -2.347599983215332
3.0277295112609863 5.244184494018555 -2.347599983215332
1.6847362518310547 5.816376686096191 -2.347599983215332
1.2112475633621216 5.933081150054932 -2.347599983215332
0.17869628965854645 4.434365272521973 -1.7205214500427246
-0.24382811784744263 6.050551414489746 -2.347599983215332
-0.729907214641571 6.011308670043945 -2.347599983215332
-1.2112499475479126 5.933081150054932 -2.347599983215332
-3.0277295112609863 5.244179725646973 -2.347599983215332
-3.4398984909057617 4.983544826507568 -2.347599983215332
-3.829742431640625 4.690595626831055 -2.347599983215332
-4.19476318359375 4.36721658706665 -2.347599983215332
-4.747358322143555 4.205800533294678 -2.4588444232940674
-5.450261116027832 3.446537971496582 -2.5
-5.709919452667236 2.9967968463897705 -2.5
-5.932545185089111 2.5276219844818115 -2.5
-6.116696834564209 2.042055606842041 -2.5
-6.261178970336914 1.543251872062683 -2.5
-6.365056037902832 1.034423828125 -2.5
-6.427652359008789 0.5189013481140137 -2.5
6.242424011230469 0.0 -2.5
6.222179889678955 0.5023095607757568 -2.5
5.921159744262695 1.9767870903015137 -2.5
5.742900371551514 2.4468212127685547 -2.5
4.990456581115723 3.7500829696655273 -2.4999988079071045
4.063766956329346 4.230824947357178 -2.349386215209961
3.3299291133880615 4.824233055114746 -2.347599983215332
2.9309399127960205 5.0765380859375 -2.347599983215332
2.512939453125 5.295917987823486 -2.347599983215332
1.6308789253234863 5.630444049835205 -2.347599983215332
1.1725268363952637 5.743417739868164 -2.347599983215332
0.7065722346305847 5.819145202636719 -2.347599983215332
-2.9309422969818115 5.076542854309082 -2.347599983215332
-3.329930305480957 4.824238300323486 -2.347599983215332
-5.527387619018555 2.900995969772339 -2.5
-5.742900371551514 2.4468212127685547 -2.5
-5.921162128448486 1.976772427558899 -2.5
-6.061026573181152 1.4939111471176147 -2.5
-6.222176551818848 0.5023095607757568 -2.5
6.027763366699219 0.4866113066673279 -2.5
5.736154556274414 1.915014624595642 -2.5
5.563459396362305 2.370375871658325 -2.5
5.354680061340332 2.810356378555298 -2.5
4.834528923034668 3.6329197883605957 -2.5
3.225886106491089 4.673505783081055 -2.347599983215332
2.0137035846710205 5.309706687927246 -2.347599983215332
1.1358935832977295 5.563969612121582 -2.347599983215332
0.6844946146011353 5.6373291015625 -2.347599983215332
-0.22865965962409973 5.674120903015137 -2.347599983215332
-0.684497058391571 5.637319087982178 -2.347599983215332
-1.1358959674835205 5.56396484375 -2.347599983215332
-2.839362621307373 4.917924880981445 -2.347599983215332
-3.22588849067688 4.673501014709473 -2.347599983215332
-3.5914831161499023 4.398779392242432 -2.347599983215332
-4.518753528594971 4.003271579742432 -2.4957072734832764
-4.834528923034668 3.6329197883605957 -2.5
-5.111180305480957 3.232123851776123 -2.5
-5.354683876037598 2.810356378555298 -2.5
-5.563461780548096 2.370366096496582 -2.5
-5.736155986785889 1.915014624595642 -2.5
-5.969062328338623 0.9700732231140137 -2.5
-6.02776575088501 0.4866113066673279 -2.5
5.843510627746582 0.4717431664466858 -2.5
5.692162990570068 1.402993083000183 -2.5
5.393395900726318 2.297905206680298 -2.5
4.686748027801514 3.521865129470825 -2.5
3.481696605682373 4.26431131362915 -2.347599983215332
3.1272778511047363 4.530644416809082 -2.347599983215332
1.9521484375 5.147392272949219 -2.347599983215332
0.6635717749595642 5.464999675750732 -2.347599983215332
-0.22166991233825684 5.500673770904541 -2.347599983215332
-0.6635717749595642 5.465004920959473 -2.347599983215332
-1.5316283702850342 5.287787914276123 -2.347599983215332
-1.952147126197815 5.147397518157959 -2.347599983215332
-3.1272802352905273 4.530644416809082 -2.347599983215332
-3.481696605682373 4.264316082000732 -2.347599983215332
-4.03523063659668 4.201132774353027 -2.4840705394744873
-4.384170055389404 3.884037971496582 -2.497728109359741
-4.686745643615723 3.521865129470825 -2.5
-4.954939842224121 3.1333203315734863 -2.5
-5.191001892089844 2.7244482040405273 -2.5
-5.560810565948486 1.85647451877594 -2.5
-5.786599159240723 0.9404247999191284 -2.5
5.668583869934082 0.4576171636581421 -2.5
5.613379001617432 0.9122655987739563 -2.5
5.39434814453125 1.8009033203125 -2.5
5.035607814788818 2.642885684967041 -2.5
4.546450138092041 3.416435480117798 -2.5
4.256201267242432 3.7706639766693115 -2.4996497631073
3.9304051399230957 4.091987133026123 -2.494203805923462
