ply
format ascii 1.0
element vertex 837
property float x
property float y
property float z
end_header
-4.893710613250732 -10.3132905960083 3.058758497238159
17.429384231567383 -2.83257794380188 4.731467247009277
11.856122970581055 -24.986263275146484 7.083010673522949
14.162636756896973 -24.530433654785156 7.254297733306885
16.234882354736328 -23.52029800415039 7.319347381591797
17.48213768005371 -2.8411474227905273 4.536040782928467
16.234891891479492 -23.52029800415039 6.982816219329834
9.212343215942383 -3.9250340461730957 2.4466490745544434
9.807587623596191 -3.2742674350738525 2.526315450668335
17.917314529418945 -2.911870002746582 4.435202598571777
18.430810928344727 -1.4879150390625 4.517884254455566
7.658203125 -5.754775047302246 2.228362798690796
17.656503677368164 -1.4254003763198853 4.120616436004639
11.856122970581055 -24.986263275146484 6.111202239990234
16.234891891479492 -23.52029800415039 6.315114498138428
24.34053611755371 -5.999443054199219 5.539455413818359
17.418529510498047 -2.830815315246582 3.899444580078125
18.498065948486328 -1.4933397769927979 4.1007866859436035
11.856122970581055 -24.986268997192383 5.790530681610107
13.975878715515137 -24.207109451293945 5.852386474609375
7.646083831787109 -5.745678424835205 2.0025088787078857
19.111982345581055 -1.5428954362869263 4.014566421508789
-20.4910831451416 -15.398051261901855 5.070788383483887
18.61125946044922 -22.7946720123291 5.821710109710693
20.85831069946289 -5.141157150268555 4.249954700469971
16.81202507019043 -1.3572264909744263 3.336790084838867
16.234891891479492 -23.52029800415039 5.325524806976318
18.611249923706055 -22.7946720123291 5.483574867248535
7.669072151184082 -5.762953758239746 1.7875887155532837
21.1602783203125 -5.215576171875 4.061066150665283
18.292953491210938 -2.972914934158325 3.453472852706909
17.010360717773438 -1.3732372522354126 3.180063486099243
-20.48206901550293 -15.391298294067383 4.4809980392456055
24.781049728393555 -4.027338981628418 4.391048908233643
17.410072326660156 -1.4055078029632568 3.0549156665802
11.856122970581055 -24.986284255981445 4.521842956542969
14.124530792236328 -24.464399337768555 4.618724822998047
16.234882354736328 -23.520301818847656 4.672721862792969
7.696933269500732 -5.783881664276123 1.5741604566574097
17.831928253173828 -1.4395605325698853 2.9250128269195557
-12.875214576721191 -13.404497146606445 2.827773332595825
14.1047945022583 -24.43022346496582 4.291884899139404
16.234882354736328 -23.520301818847656 4.348132133483887
7.710693359375 -5.794223308563232 1.4674334526062012
20.00264549255371 -1.6147997379302979 3.05316162109375
16.234891891479492 -23.52029800415039 4.024636268615723
18.745834350585938 -1.5133397579193115 2.6484429836273193
11.856132507324219 -24.986284255981445 3.58260440826416
14.162646293640137 -24.53044319152832 3.669240713119507
16.234882354736328 -23.520301818847656 3.7021422386169434
18.769256591796875 -22.988187789916992 3.8443760871887207
7.720947265625 -5.801943302154541 1.251082181930542
-20.478788375854492 -15.388803482055664 3.0300920009613037
11.856122970581055 -24.986284255981445 3.2714221477508545
16.234882354736328 -23.520301818847656 3.380577325820923
18.769256591796875 -22.988187789916992 3.5104570388793945
-20.47811508178711 -15.3883056640625 2.742527961730957
11.856142044067383 -24.986284255981445 2.961049795150757
18.769256591796875 -22.988187789916992 3.177408456802368
7.70730447769165 -5.791684627532959 1.0322011709213257
-20.477460861206055 -15.38780689239502 2.4556665420532227
11.856122970581055 -24.986284255981445 2.6514172554016113
18.769256591796875 -22.988183975219727 2.8451499938964844
7.700175762176514 -5.786313533782959 0.9234088063240051
-20.476806640625 -15.38731861114502 2.1694328784942627
11.85414981842041 -24.982065200805664 2.3420464992523193
13.965526580810547 -24.189027786254883 2.3656973838806152
16.234882354736328 -23.520301818847656 2.420598030090332
-20.476152420043945 -15.386820793151855 1.8837542533874512
11.854140281677246 -24.982065200805664 2.0337023735046387
14.00722599029541 -24.261234283447266 2.0603713989257812
16.232147216796875 -23.516342163085938 2.101559638977051
18.563270568847656 -22.73588752746582 2.1587133407592773
7.680478572845459 -5.771518230438232 0.7065838575363159
11.854130744934082 -24.98206901550293 1.7258602380752563
14.00723648071289 -24.26123046875 1.7484923601150513
7.651601314544678 -5.749824047088623 0.5973644852638245
11.787050247192383 -24.840648651123047 1.4104150533676147
-20.473974227905273 -15.385204315185547 1.0293254852294922
11.854140281677246 -24.982065200805664 1.111377239227295
14.00722599029541 -24.26123046875 1.1259509325027466
7.620224475860596 -5.726240158081055 0.383104532957077
11.854140281677246 -24.98206901550293 0.804583728313446
14.00723648071289 -24.2612247467041 0.8151348829269409
16.232147216796875 -23.51633644104004 0.8314294219017029
18.563270568847656 -22.73589324951172 0.8540410995483398
7.616445064544678 -5.723402976989746 0.277212530374527
2.9332714080810547 -7.734438419342041 0.14897185564041138
12.842714309692383 -27.06544303894043 0.5395178198814392
14.0791597366333 -24.385805130004883 0.5071093440055847
16.31197166442871 -23.63197135925293 0.5171343684196472
2.9332714080810547 -7.734438419342041 0.05729110538959503
14.079150199890137 -24.385799407958984 0.19502227008342743
18.6761417388916 -22.8741397857666 0.2045230120420456
12.842714309692383 -27.065433502197266 -0.12449462711811066
14.062841415405273 -24.357572555541992 -0.11688094586133957
16.31197166442871 -23.631967544555664 -0.11932983249425888
7.596650123596191 -5.708529949188232 -0.03948882967233658
14.0791597366333 -24.385805130004883 -0.42908063530921936
16.330848693847656 -23.659330368041992 -0.43806976079940796
7.586083889007568 -5.700585842132568 -0.14459793269634247
-7.256415843963623 -19.13357925415039 -0.538688063621521
-5.790839672088623 -19.992313385009766 -0.5479203462600708
13.151982307434082 -22.779916763305664 -0.6924359202384949
16.33085823059082 -23.659330368041992 -0.7567794919013977
18.6761417388916 -22.874135971069336 -0.7773606777191162
-20.46449089050293 -15.37807559967041 -0.9578184485435486
-6.602744102478027 -17.410058975219727 -0.6967130899429321
2.9332714080810547 -7.734438419342041 -0.3095153868198395
16.33085823059082 -23.659330368041992 -1.0756815671920776
18.6761417388916 -22.874135971069336 -1.1049357652664185
18.144277572631836 -7.730571269989014 -0.7379615902900696
-20.463144302368164 -15.377055168151855 -1.241976022720337
-7.937333583831787 -16.727582931518555 -0.8983465433120728
-5.694931507110596 -19.66122055053711 -0.9931616187095642
16.31197166442871 -23.63197135925293 -1.3932323455810547
19.492538452148438 -10.23049259185791 -1.068111538887024
18.075702667236328 -6.034565448760986 -0.9246044754981995
-20.4617862701416 -15.3760347366333 -1.526334524154663
-7.937333583831787 -16.727582931518555 -1.1041243076324463
-6.514238357543945 -17.1766357421875 -1.0954889059066772
-5.691337585449219 -19.648754119873047 -1.2198845148086548
12.784403800964355 -26.94259262084961 -1.7783780097961426
13.163466453552246 -22.7997989654541 -1.5699628591537476
16.23213768005371 -23.516342163085938 -1.7039910554885864
18.563270568847656 -22.735902786254883 -1.7503329515457153
23.14885711669922 -14.638476371765137 -1.6332939863204956
18.706357955932617 -9.81787109375 -1.2598282098770142
16.988134384155273 -7.237983226776123 -1.1011756658554077
17.956865310668945 -5.994887351989746 -1.1289258003234863
-20.379179000854492 -15.313969612121582 -1.803847312927246
-6.721845626831055 -17.72406768798828 -1.3413571119308472
12.784394264221191 -26.94259262084961 -2.1102559566497803
7.510507583618164 -5.643803596496582 -0.6647872924804688
23.10038948059082 -14.607816696166992 -1.9340360164642334
18.438329696655273 -9.677191734313965 -1.4735150337219238
17.83675765991211 -5.954790115356445 -1.3306444883346558
-28.66142463684082 1.4648437172581907e-05 -2.347599983215332
-28.56840705871582 -2.3062596321105957 -2.347599983215332
-28.290205001831055 -4.597602367401123 -2.347599983215332
-27.186307907104492 -9.076117515563965 -2.347599983215332
-25.37834930419922 -13.319584846496582 -2.347599983215332
-24.22427749633789 -15.318500518798828 -2.347599983215332
-19.854433059692383 -20.670635223388672 -2.347599983215332
-18.126718521118164 -22.20120620727539 -2.347599983215332
-16.974559783935547 -24.591869354248047 -2.4475302696228027
-5.684189319610596 -19.624155044555664 -1.67345130443573
7.974111080169678 -27.52971649169922 -2.347599983215332
11.854140281677246 -24.982065200805664 -2.264913320541382
13.15404224395752 -22.78346061706543 -2.1548478603363037
16.23213768005371 -23.516342163085938 -2.3404855728149414
19.85438346862793 -20.670644760131836 -2.347599983215332
21.453350067138672 -19.006019592285156 -2.347599983215332
7.497822284698486 -5.634257793426514 -0.7682026624679565
17.574413299560547 -11.113408088684082 -1.703155517578125
18.337148666381836 -9.624086380004883 -1.6962591409683228
17.831981658935547 -5.953197956085205 -1.5398300886154175
-25.140966415405273 -2.0295751094818115 -2.347599983215332
-24.896121978759766 -4.046010494232178 -2.347599983215332
-23.924707412719727 -7.987231254577637 -2.347599983215332
-19.48799705505371 -17.26485824584961 -2.423264503479004
-18.57291030883789 -19.33643913269043 -2.4954628944396973
-13.43007755279541 -23.26157569885254 -2.5
-6.475927352905273 -17.07564926147461 -1.6997663974761963
-5.680771350860596 -19.612329483032227 -1.9004430770874023
1.0815331935882568 -26.838382720947266 -2.5
5.045205116271973 -24.713031768798828 -2.347599983215332
7.01736307144165 -24.226903915405273 -2.347599983215332
8.944101333618164 -23.583696365356445 -2.347599983215332
18.8795108795166 -16.725786209106445 -2.347599983215332
17.167587280273438 -10.856146812438965 -1.8905432224273682
18.310428619384766 -9.610068321228027 -1.9246996641159058
17.831083297729492 -5.952900409698486 -1.7496650218963623
26.07965850830078 -6.428071022033691 -2.5
20.004291534423828 -3.2510204315185547 -1.8863201141357422
-23.657480239868164 -3.8446922302246094 -2.498986005783081
-22.689287185668945 -7.574794769287109 -2.4940314292907715
-22.014286041259766 -9.379424095153809 -2.4949474334716797
-17.947460174560547 -15.900057792663574 -2.5
-16.609853744506836 -17.29267120361328 -2.5
-8.354765892028809 -17.607309341430664 -2.03200101852417
-6.47814416885376 -17.081459045410156 -1.9047620296478271
-2.8901660442352295 -23.802743911743164 -2.5
-0.96546870470047 -23.9581298828125 -2.5
0.9654784798622131 -23.9581298828125 -2.5
4.718056678771973 -23.110595703125 -2.459305763244629
9.6524019241333 -20.341997146606445 -2.347599983215332
11.25795841217041 -19.499345779418945 -2.347599983215332
14.240068435668945 -17.44093132019043 -2.347599983215332
15.778026580810547 -16.426698684692383 -2.3748018741607666
7.475019454956055 -5.617128849029541 -0.9748998880386353
17.17127799987793 -10.858476638793945 -2.118279218673706
18.32784080505371 -9.619203567504883 -2.1581366062164307
17.826913833618164 -5.951508522033691 -1.9595528841018677
23.28084373474121 -5.738237380981445 -2.5
21.042884826660156 -1.6987792253494263 -2.2011570930480957
-21.648876190185547 1.2207030522404239e-05 -2.5
-21.578691482543945 -1.7420018911361694 -2.5
-21.368555068969727 -3.472719669342041 -2.5
-20.53475570678711 -6.85549783706665 -2.5
-18.297441482543945 -11.570595741271973 -2.5
-17.307050704956055 -13.00540542602539 -2.5
-13.69173812866211 -16.76934051513672 -2.5
-10.824433326721191 -18.74849510192871 -2.5
-8.374785423278809 -17.649505615234375 -2.2559659481048584
-6.477617263793945 -17.080081939697266 -2.1094768047332764
-6.023095607757568 -20.79415512084961 -2.5
4.330341815948486 -21.21138572692871 -2.5
6.009345531463623 -20.746685028076172 -2.4942920207977295
8.908007621765137 -18.77326202392578 -2.399603843688965
12.167314529418945 -17.627410888671875 -2.473440408706665
13.681279182434082 -16.756547927856445 -2.4980907440185547
14.996708869934082 -15.613251686096191 -2.5
7.46926736831665 -5.612807273864746 -1.0789352655410767
19.16914939880371 -10.06075668334961 -2.5
15.854531288146973 -6.754994869232178 -1.9901200532913208
14.908095359802246 -4.977065086364746 -1.814982295036316
20.329036712646484 -1.6411375999450684 -2.355220079421997
-19.727977752685547 9.765624781721272e-06 -2.5
-17.468271255493164 -9.16805648803711 -2.5
-15.771395683288574 -11.85142993927002 -2.5
-13.666064262390137 -14.227861404418945 -2.5
-9.864004135131836 -17.084936141967773 -2.5
-8.457226753234863 -17.823251724243164 -2.5
-6.474609375 -17.0721435546875 -2.3138017654418945
-5.488661766052246 -18.949087142944336 -2.5
-3.94610333442688 -19.32929229736328 -2.5
-2.3779492378234863 -19.584144592285156 -2.5
-0.7943554520606995 -19.711977005004883 -2.5
2.377939462661743 -19.584144592285156 -2.5
9.863993644714355 -17.084936141967773 -2.5
13.666044235229492 -14.227885246276855 -2.5
14.7666015625 -13.082084655761719 -2.5
16.67389678955078 -10.543940544128418 -2.5
17.46826171875 -9.168061256408691 -2.5
18.14934539794922 -7.732729434967041 -2.5
18.04544448852539 -4.447817325592041 -2.355220079421997
18.344823837280273 -2.981337785720825 -2.355220079421997
18.52522850036621 -1.495522379875183 -2.355220079421997
-18.116064071655273 9.765624781721272e-06 -2.5
-17.881454467773438 -2.906015634536743 -2.5
-17.183719635009766 -5.736767292022705 -2.5
-15.311503410339355 -9.682412147521973 -2.5
-5.040185451507568 -17.400794982910156 -2.5
-3.623671770095825 -17.749937057495117 -2.5
-2.1836328506469727 -17.98396873474121 -2.5
-0.7294628620147705 -18.101362228393555 -2.5
0.7294530868530273 -18.10137176513672 -2.5
5.040185451507568 -17.40080451965332 -2.5
6.424042701721191 -16.93880271911621 -2.5
13.09521484375 -5.579355239868164 -1.9643129110336304
17.183740615844727 -5.736782073974609 -2.5
17.011577606201172 -1.3733203411102295 -2.355220079421997
-16.743749618530273 9.765624781721272e-06 -2.5
-16.526933670043945 -2.6858837604522705 -2.5
-13.385663986206055 -10.05868148803711 -2.5
-12.532880783081055 -11.103163719177246 -2.5
-9.5115327835083 -13.779838562011719 -2.5
-5.937411785125732 -15.655688285827637 -2.5
-4.658408164978027 -16.082679748535156 -2.5
-2.0182323455810547 -16.621673583984375 -2.5
2.018242120742798 -16.621679306030273 -2.5
5.937421798706055 -15.655683517456055 -2.5
7.177939414978027 -15.127153396606445 -2.5
8.3718843460083 -14.50052261352539 -2.5
10.589521408081055 -12.969799041748047 -2.5
11.598808288574219 -12.07564926147461 -2.5
10.300028800964355 -6.513354301452637 -1.8195804357528687
11.58456039428711 -6.08007287979126 -1.953439712524414
15.569833755493164 -2.530351400375366 -2.355220079421997
16.689472198486328 -1.3473193645477295 -2.5
-15.5610933303833 9.765624781721272e-06 -2.5
-15.510604858398438 -1.252138614654541 -2.5
-15.359580039978027 -2.4961767196655273 -2.5
-14.76024341583252 -4.927695274353027 -2.5
-14.315878868103027 -6.099428653717041 -2.5
-13.152079582214355 -8.316869735717773 -2.5
-12.440204620361328 -9.348207473754883 -2.5
-11.647636413574219 -10.318901062011719 -2.5
-10.779541015625 -11.22269058227539 -2.5
-8.839706420898438 -12.8065185546875 -2.5
-5.518027305603027 -14.549867630004883 -2.5
-0.6265624761581421 -15.548471450805664 -2.5
0.6265918016433716 -15.548471450805664 -2.5
1.8756933212280273 -15.4476318359375 -2.5
4.329355239868164 -14.9467134475708 -2.5
7.780556678771973 -13.476293563842773 -2.5
8.839696884155273 -12.806528091430664 -2.5
9.841532707214355 -12.053706169128418 -2.5
10.300028800964355 -6.513354301452637 -1.9578717947006226
13.77865219116211 -7.231601238250732 -2.5
13.486825942993164 -5.746205806732178 -2.355220079421997
10.886454582214355 -3.6344382762908936 -1.8438783884048462
12.450937271118164 -3.0688915252685547 -2.0601963996887207
-14.483925819396973 -1.169252872467041 -2.5
-14.10879898071289 -3.4775047302246094 -2.5
-12.866630554199219 -6.752919673919678 -2.5
-12.281494140625 -7.76635217666626 -2.5
-10.876660346984863 -9.635869026184082 -2.5
-8.254570007324219 -11.958813667297363 -2.5
-4.042783260345459 -13.957338333129883 -2.5
-2.9065818786621094 -14.237387657165527 -2.5
0.5850976705551147 -14.519271850585938 -2.5
1.7515233755111694 -14.4251070022583 -2.5
6.229355335235596 -13.12808609008789 -2.5
9.19009780883789 -11.255820274353027 -2.5
7.431806564331055 -5.584658145904541 -1.5993746519088745
10.300028800964355 -6.513354301452637 -2.09665584564209
12.12148380279541 -6.361850261688232 -2.355220079421997
10.886454582214355 -3.6344382762908936 -1.9745820760726929
12.450937271118164 -3.0688915252685547 -2.2062337398529053
14.483935356140137 -1.1692724227905273 -2.5
-13.625673294067383 2.441406195430318e-06 -2.5
-12.924443244934082 -4.314809322357178 -2.5
-12.535341262817383 -5.340805530548096 -2.5
-12.064921379089355 -6.332172870635986 -2.5
-10.892949104309082 -8.185522079467773 -2.5
-9.438838005065918 -9.826860427856445 -2.5
-8.617499351501465 -10.554516792297363 -2.5
-5.841210842132568 -12.310121536254883 -2.5
-2.725478410720825 -13.350302696228027 -2.5
1.6423925161361694 -13.526323318481445 -2.5
2.725478410720825 -13.35030746459961 -2.5
3.790888547897339 -13.087709426879883 -2.5
5.841249942779541 -12.310121536254883 -2.5
6.81286096572876 -11.800180435180664 -2.5
7.740283012390137 -11.213701248168945 -2.5
8.6174898147583 -10.554516792297363 -2.5
7.201523303985596 -7.497617244720459 -1.9074243307113647
7.422353267669678 -5.577553749084473 -1.7034780979156494
11.366239547729492 -5.965463638305664 -2.355220079421997
13.581493377685547 -1.096411108970642 -2.5
-12.781865119934082 -1.0318505764007568 -2.5
-12.65737247467041 -2.0570263862609863 -2.5
-12.450810432434082 -3.068852424621582 -2.5
-11.797304153442383 -5.026362419128418 -2.5
-10.838252067565918 -6.853696346282959 -2.5
-8.883124351501465 -9.248300552368164 -2.5
-6.411718368530273 -11.105424880981445 -2.5
-4.547245979309082 -11.990131378173828 -2.5
-2.554921865463257 -12.5148286819458 -2.49015736579895
-1.54568350315094 -12.729950904846191 -2.5
0.5163476467132568 -12.8130464553833 -2.5
3.567704916000366 -12.317152976989746 -2.5
4.547265529632568 -11.990131378173828 -2.5
5.497334003448486 -11.58535099029541 -2.5
8.110146522521973 -9.933100700378418 -2.5
7.20153284072876 -7.497611999511719 -2.0267512798309326
9.598485946655273 -8.503524780273438 -2.5
10.21059513092041 -6.456791877746582 -2.355220079421997
12.657402038574219 -2.0570311546325684 -2.5
-12.068242073059082 -0.9742431640625 -2.5
-11.950722694396973 -1.9421825408935547 -2.5
-10.720664024353027 -5.626645565032959 -2.5
-8.387147903442383 -8.731963157653809 -2.5
-7.657333850860596 -9.3785400390625 -2.5
-6.053750038146973 -10.485414505004883 -2.5
-3.368525266647339 -11.629477500915527 -2.5
-2.4217967987060547 -11.86281681060791 -2.5
0.48750975728034973 -12.097695350646973 -2.5
1.4593944549560547 -12.019232749938965 -2.5
2.920654296875 -7.701161861419678 -1.7006771564483643
5.190419673919678 -10.938539505004883 -2.5
6.053769588470459 -10.485414505004883 -2.5
7.657333850860596 -9.3785400390625 -2.5
7.201523303985596 -7.497617244720459 -2.1465961933135986
6.878310203552246 -6.093676567077637 -1.8974465131759644
7.407402038574219 -5.56631326675415 -1.913214087486267
10.099823951721191 -5.300795555114746 -2.355220079421997
10.493603706359863 -4.470912933349609 -2.355220079421997
-11.46451187133789 4.882812390860636e-06 -2.5
-11.427313804626465 -0.92249995470047 -2.5
-11.131376266479492 -2.743642568588257 -2.5
-10.151318550109863 -5.327826976776123 -2.5
-9.689687728881836 -6.127397537231445 -2.5
-9.165214538574219 -6.887221336364746 -2.5
-8.581317901611328 -7.602377891540527 -2.5
-5.732255935668945 -9.928559303283691 -2.5
-4.914765357971191 -10.35763168334961 -2.5
-4.065361022949219 -10.71950626373291 -2.5
-3.1896190643310547 -11.011869430541992 -2.5
-2.293203115463257 -11.23282241821289 -2.5
-1.381874918937683 -11.3809175491333 -2.5
2.293212890625 -11.23282241821289 -2.5
3.189638614654541 -11.01187515258789 -2.5
2.912714719772339 -7.680209636688232 -1.7911734580993652
4.914755821228027 -10.357622146606445 -2.5
6.902782917022705 -6.1153564453125 -2.0109944343566895
9.563437461853027 -5.019291877746582 -2.355220079421997
9.936307907104492 -4.233471393585205 -2.355220079421997
10.46395492553711 -3.4933836460113525 -2.405613899230957
11.316054344177246 -1.8390429019927979 -2.5
-10.883710861206055 4.882812390860636e-06 -2.5
-10.848407745361328 -0.8757714629173279 -2.5
-10.5674409866333 -2.6046435832977295 -2.5
-9.637041091918945 -5.057905197143555 -2.5
-9.198779106140137 -5.816967487335205 -2.5
-8.700888633728027 -6.538300514221191 -2.5
-8.146552085876465 -7.217221736907959 -2.5
-6.883359432220459 -8.430571556091309 -2.5
-5.441845417022705 -9.42556095123291 -2.5
-1.3118847608566284 -10.80434513092041 -2.5
1.3119043111801147 -10.80434513092041 -2.5
5.126698970794678 -8.879716873168945 -2.355220079421997
5.824599266052246 -8.43838882446289 -2.355220079421997
6.48473596572876 -7.942338466644287 -2.355220079421997
6.903134822845459 -6.115649223327637 -2.1184160709381104
7.054413795471191 -5.301059246063232 -2.026920795440674
7.900214672088623 -4.995825290679932 -2.1470839977264404
9.07894515991211 -4.764999866485596 -2.355220079421997
9.432909965515137 -4.019008636474609 -2.355220079421997
10.323593139648438 -3.446528196334839 -2.5
10.567450523376465 -2.6046435832977295 -2.5
-10.356337547302246 4.882812390860636e-06 -2.5
-10.055410385131836 -2.4784374237060547 -2.5
-9.527626991271973 -4.059345722198486 -2.5
-9.170106887817383 -4.812846660614014 -2.5
-8.753095626831055 -5.535126686096191 -2.5
-8.279315948486328 -6.221498966217041 -2.5
-7.751835823059082 -6.867528915405273 -2.5
-7.174091815948486 -7.469027996063232 -2.5
-6.549814224243164 -8.022085189819336 -2.5
-5.88308572769165 -8.523115158081055 -2.5
-3.6723926067352295 -9.683359146118164 -2.5
-2.8813183307647705 -9.947465896606445 -2.5
-2.071533203125 -10.147055625915527 -2.5
0.41701170802116394 -10.347953796386719 -2.5
2.902333974838257 -7.652846336364746 -1.9757696390151978
7.054413795471191 -5.301059246063232 -2.1301326751708984
7.830419540405273 -4.95168924331665 -2.236478328704834
8.639042854309082 -4.534121036529541 -2.355220079421997
9.19881820678711 -3.919262647628784 -2.4137208461761475
9.823378562927246 -3.279531240463257 -2.5
10.322772979736328 -0.8333495855331421 -2.5
-9.8753023147583 4.882812390860636e-06 -2.5
-9.843280792236328 -0.794628918170929 -2.5
-9.588339805603027 -2.3633153438568115 -2.5
-9.085058212280273 -3.87078595161438 -2.5
-8.744131088256836 -4.589282035827637 -2.5
-7.894726276397705 -5.932509422302246 -2.5
-7.391767501831055 -6.548534870147705 -2.5
-6.840868949890137 -7.122089862823486 -2.5
-4.233457088470459 -8.921845436096191 -2.5
-3.5018162727355957 -9.233564376831055 -2.5
-1.9753222465515137 -9.675726890563965 -2.5
-1.1903222799301147 -9.803300857543945 -2.5
-0.39762693643569946 -9.867294311523438 -2.5
0.39765623211860657 -9.867289543151855 -2.5
1.1903514862060547 -9.803296089172363 -2.5
1.9753124713897705 -9.675726890563965 -2.5
2.58837890625 -8.936088562011719 -2.355220079421997
3.988291025161743 -8.405170440673828 -2.355220079421997
4.651709079742432 -8.056986808776855 -2.355220079421997
5.28494119644165 -7.656552791595459 -2.355220079421997
6.444716453552246 -6.709643363952637 -2.355220079421997
8.237744331359863 -4.32351541519165 -2.355220079421997
9.085067749023438 -3.870795726776123 -2.5
9.36709976196289 -3.127197265625 -2.5
9.747431755065918 -1.5841162204742432 -2.5
-9.403993606567383 -0.7591650485992432 -2.5
-9.160449028015137 -2.2578516006469727 -2.5
-8.949052810668945 -2.9876317977905273 -2.5
-7.061903953552246 -6.256293773651123 -2.5
-5.966865062713623 -7.308085918426514 -2.5
-5.359472751617432 -7.7645263671875 -2.5
-4.717294692993164 -8.170610427856445 -2.5
-4.044540882110596 -8.523700714111328 -2.5
-3.3455467224121094 -8.821508407592773 -2.5
-2.6248631477355957 -9.062104225158691 -2.5
-1.1371972560882568 -9.365805625915527 -2.5
0.37990233302116394 -9.426947593688965 -2.5
1.8871679306030273 -9.24393081665039 -2.5
5.621327877044678 -6.884868144989014 -2.355220079421997
6.157080173492432 -6.410219669342041 -2.355220079421997
6.652919769287109 -5.893989086151123 -2.355220079421997
7.512226581573486 -4.750463962554932 -2.355220079421997
8.140498161315918 -4.272475719451904 -2.4361298084259033
8.94906234741211 -2.9876415729522705 -2.5
9.312431335449219 -1.5134228467941284 -2.5
9.404013633728027 -0.7591747641563416 -2.5
-8.564579963684082 -2.8592772483825684 -2.5
-8.306747436523438 -3.539174795150757 -2.5
-7.995009422302246 -4.196117877960205 -2.5
-7.21837854385376 -5.424272537231445 -2.5
-6.758505821228027 -5.987514495849609 -2.5
-5.710517406463623 -6.994121074676514 -2.5
-5.129218578338623 -7.430952072143555 -2.5
-4.514628887176514 -7.819584846496582 -2.5
-3.8707616329193115 -8.157500267028809 -2.5
-1.806093692779541 -8.8468017578125 -2.5
-1.0883398056030273 -8.963441848754883 -2.5
-0.36357420682907104 -9.021957397460938 -2.5
0.3635839819908142 -9.021952629089355 -2.5
2.8744726181030273 -7.579370021820068 -2.244400978088379
4.253193378448486 -7.366733074188232 -2.355220079421997
4.832177639007568 -7.0006103515625 -2.355220079421997
6.800361156463623 -5.110146522521973 -2.355220079421997
7.995019435882568 -4.196123123168945 -2.5
8.306757926940918 -3.5391845703125 -2.5
8.7669038772583 -2.1608543395996094 -2.5
8.912363052368164 -1.448403239250183 -2.5
-8.403642654418945 -2.0713133811950684 -2.5
-8.209716796875 -2.7408056259155273 -2.5
-7.962558269500732 -3.392534017562866 -2.5
-6.91930627822876 -5.199521541595459 -2.5
-6.478476524353027 -5.739428520202637 -2.5
-5.47390604019165 -6.704326152801514 -2.5
-4.916679382324219 -7.123051643371582 -2.5
-4.327578067779541 -7.495585918426514 -2.5
-3.06915020942688 -8.0927095413208 -2.5
-1.7312597036361694 -8.480238914489746 -2.5
-1.0432714223861694 -8.592055320739746 -2.5
-0.3485058546066284 -8.648138999938965 -2.5
0.3485156297683716 -8.648138999938965 -2.5
1.7312694787979126 -8.480243682861328 -2.5
2.2685742378234863 -7.831992149353027 -2.355220079421997
2.8744726181030273 -7.579370021820068 -2.341416358947754
4.076962947845459 -7.061508655548096 -2.355220079421997
5.156913757324219 -6.31606912612915 -2.355220079421997
5.648407936096191 -5.880634784698486 -2.355220079421997
6.103291034698486 -5.407050609588623 -2.355220079421997
6.518603324890137 -4.898407936096191 -2.355220079421997
7.231298446655273 -4.572802543640137 -2.4713072776794434
8.209735870361328 -2.7408154010772705 -2.5
8.40365219116211 -2.0713281631469727 -2.5
8.543075561523438 -1.3883886337280273 -2.5
-7.643808364868164 -3.256723642349243 -2.5
-7.356972694396973 -3.8612401485443115 -2.5
-7.022411823272705 -4.440707683563232 -2.5
-6.642314434051514 -4.991376876831055 -2.5
-6.21911096572876 -5.509667873382568 -2.5
-5.254765510559082 -6.435946941375732 -2.5
-4.719853401184082 -6.837904930114746 -2.5
-2.9462890625 -7.768749713897705 -2.5
-1.661953091621399 -8.140766143798828 -2.5
1.001503825187683 -8.248100280761719 -2.5
1.661953091621399 -8.140766143798828 -2.5
2.1777539253234863 -7.518466472625732 -2.355220079421997
2.7756738662719727 -7.318852424621582 -2.355220079421997
4.446533203125 -6.441918849945068 -2.355220079421997
4.950478553771973 -6.06322717666626 -2.355220079421997
5.422324180603027 -5.645224571228027 -2.355220079421997
5.858974456787109 -5.190600395202637 -2.355220079421997
7.022411823272705 -4.440712928771973 -2.5
7.356972694396973 -3.8612353801727295 -2.5
7.643808364868164 -3.2567334175109863 -2.5
7.881093502044678 -2.631093740463257 -2.5
8.067245483398438 -1.9884033203125 -2.5
8.20108413696289 -1.3328124284744263 -2.5
8.281728744506836 -0.6685742139816284 -2.5
-7.98681640625 4.882812390860636e-06 -2.5
-7.960898399353027 -0.6426659822463989 -2.5
-7.883368968963623 -1.2811717987060547 -2.5
-7.754706859588623 -1.9113720655441284 -2.5
-7.347704887390137 -3.130566358566284 -2.5
-7.071962833404541 -3.711660146713257 -2.5
-6.750370979309082 -4.268681526184082 -2.5
-6.385009765625 -4.798017501831055 -2.5
-5.532656192779541 -5.760107517242432 -2.5
-5.051220417022705 -6.186630725860596 -2.5
-3.993398427963257 -6.916787147521973 -2.5
-0.3216015696525574 -7.98034143447876 -2.5
0.3215917944908142 -7.98034143447876 -2.5
2.0933690071105957 -7.227211952209473 -2.355220079421997
3.2256152629852295 -6.797817230224609 -2.355220079421997
4.274267673492432 -6.192368030548096 -2.355220079421997
4.758700847625732 -5.828349590301514 -2.355220079421997
6.384999752044678 -4.798017501831055 -2.5
7.57580041885376 -2.529169797897339 -2.5
7.754735946655273 -1.911376953125 -2.5
7.960917949676514 -0.6426806449890137 -2.5
-7.686962604522705 -4.882812390860636e-06 -2.5
-7.463613033294678 -1.8396142721176147 -2.5
-6.496933460235596 -4.108422756195068 -2.5
-6.145283222198486 -4.617885589599609 -2.5
-5.324951171875 -5.543857097625732 -2.5
-4.861572265625 -5.954360008239746 -2.5
-3.8434863090515137 -6.6571044921875 -2.5
-3.295351505279541 -6.944794654846191 -2.5
-0.30952146649360657 -7.680732250213623 -2.5
1.5375878810882568 -7.531620979309082 -2.5
2.014785051345825 -6.955883502960205 -2.355220079421997
2.5679686069488525 -6.771210670471191 -2.355220079421997
3.1044921875 -6.542612075805664 -2.355220079421997
4.113808631896973 -5.959882736206055 -2.355220079421997
4.580029010772705 -5.609536170959473 -2.355220079421997
5.098827838897705 -5.308461666107178 -2.3938446044921875
5.73009729385376 -5.076430320739746 -2.4897122383117676
6.49694299697876 -4.10842752456665 -2.5
6.806474685668945 -3.572319269180298 -2.5
7.291357040405273 -2.4342236518859863 -2.5
-7.406884670257568 2.441406195430318e-06 -2.5
-7.382871150970459 -0.5960058569908142 -2.5
-7.310937404632568 -1.1881396770477295 -2.5
-7.191640377044678 -1.7725830078125 -2.5
-7.025693416595459 -2.345517635345459 -2.5
-6.814169883728027 -2.903247117996216 -2.5
-6.260224342346191 -3.9587254524230957 -2.5
-5.544130802154541 -4.911669731140137 -2.5
-4.684443473815918 -5.737407207489014 -2.5
-3.175283193588257 -6.691747665405273 -2.5
-2.060722589492798 -7.114438533782959 -2.5
-0.8927733898162842 -7.352870941162109 -2.5
-0.29823240637779236 -7.40087366104126 -2.5
0.8928027153015137 -7.352875709533691 -2.5
1.4815527200698853 -7.257192134857178 -2.5
2.474423885345459 -6.524482250213623 -2.355220079421997
3.4889843463897705 -6.043066501617432 -2.355220079421997
3.9639158248901367 -5.742724418640137 -2.355220079421997
5.086835861206055 -5.295966625213623 -2.4785194396972656
5.544120788574219 -4.911674499511719 -2.5
6.260224342346191 -3.9587254524230957 -2.5
7.025683403015137 -2.345527410507202 -2.5
7.191650390625 -1.7725878953933716 -2.5
7.38284158706665 -0.5960107445716858 -2.5
-7.144579887390137 2.441406195430318e-06 -2.5
-7.121416091918945 -0.5748974680900574 -2.5
-6.936972618103027 -1.709814429283142 -2.5
-6.776904106140137 -2.262460947036743 -2.5
-6.572880744934082 -2.8004443645477295 -2.5
-6.326220512390137 -3.320258617401123 -2.5
-6.038525104522705 -3.81853985786438 -2.5
-5.347812175750732 -4.737739086151123 -2.5
-4.94924783706665 -5.152695178985596 -2.5
-4.518574237823486 -5.534238338470459 -2.5
-4.058583736419678 -5.8798828125 -2.5
-2.533496141433716 -6.680307388305664 -2.5
-0.8611816167831421 -7.092494964599609 -2.5
0.28767576813697815 -7.138798713684082 -2.5
0.8611816167831421 -7.092494964599609 -2.5
1.4291112422943115 -7.000205039978027 -2.5
3.932382822036743 -5.697035789489746 -2.4222559928894043
5.347812175750732 -4.737739086151123 -2.5
5.711679458618164 -4.292065143585205 -2.5
6.326220512390137 -3.320263624191284 -2.5
6.57287073135376 -2.8004541397094727 -2.5
6.936962604522705 -1.7098193168640137 -2.5
7.052070140838623 -1.1460790634155273 -2.5
-6.898398399353027 2.441406195430318e-06 -2.5
-6.876035213470459 -0.5550878643989563 -2.5
-6.809062480926514 -1.1065820455551147 -2.5
-6.697948932647705 -1.6508984565734863 -2.5
-6.108242034912109 -3.2058544158935547 -2.5
-5.830449104309082 -3.686967611312866 -2.5
-4.362861156463623 -5.343549728393555 -2.5
-2.9573047161102295 -6.232378005981445 -2.5
-1.3798632621765137 -6.758998870849609 -2.5
-0.8315136432647705 -6.848114967346191 -2.5
-0.2777734398841858 -6.892822265625 -2.5
0.2777636647224426 -6.892822265625 -2.5
0.8315038681030273 -6.848114967346191 -2.5
1.9192675352096558 -6.626049518585205 -2.5
2.4170897006988525 -6.373354434967041 -2.470242738723755
3.390820264816284 -5.873090744018555 -2.4576873779296875
3.9187498092651367 -5.677285194396973 -2.5
4.362861156463623 -5.343544960021973 -2.5
4.778720378875732 -4.975156307220459 -2.5
5.163544654846191 -4.574501991271973 -2.5
5.514882564544678 -4.144174575805664 -2.5
5.830468654632568 -3.686967611312866 -2.5
6.346405982971191 -2.7039549350738525 -2.5
6.80908203125 -1.106591820716858 -2.5
6.876064300537109 -0.5550927519798279 -2.5
-6.666835784912109 0.0 -2.5
-6.645214557647705 -0.5364550948143005 -2.5
-6.580507755279541 -1.0694384574890137 -2.5
-6.473095417022705 -1.5954785346984863 -2.5
-6.32373046875 -2.1111767292022705 -2.5
-6.133359432220459 -2.6131787300109863 -2.5
-5.90319299697876 -3.0982372760772705 -2.5
-4.990204811096191 -4.420932292938232 -2.5
-4.618281364440918 -4.808139324188232 -2.5
-4.216406345367432 -5.164169788360596 -2.5
-3.7871971130371094 -5.486703872680664 -2.5
-2.858027219772339 -6.023159027099609 -2.5
-1.8548437356948853 -6.403627872467041 -2.5
-1.3335254192352295 -6.532114028930664 -2.5
1.3335254192352295 -6.532114028930664 -2.5
3.3334081172943115 -5.773657321929932 -2.5
3.7871971130371094 -5.486708641052246 -2.5
4.216415882110596 -5.164174556732178 -2.5
4.618290901184082 -4.808149337768555 -2.5
4.990204811096191 -4.420937538146973 -2.5
5.634755611419678 -3.5632030963897705 -2.5
6.133368968963623 -2.6131834983825684 -2.5
6.323740005493164 -2.1111814975738525 -2.5
6.473105430603027 -1.59548819065094 -2.5
6.645234107971191 -0.5364599227905273 -2.5
-6.427656173706055 -0.5188915729522705 -2.5
-6.365038871765137 -1.0344189405441284 -2.5
-6.116679668426514 -2.042055606842041 -2.5
-5.932548522949219 -2.5276269912719727 -2.5
-5.709921836853027 -2.9968016147613525 -2.5
-5.155253887176514 -3.8739256858825684 -2.5
-4.826806545257568 -4.276186466217041 -2.5
-3.2242674827575684 -5.584619045257568 -2.5
-2.7644238471984863 -5.825952053070068 -2.5
-2.286689519882202 -6.029516696929932 -2.5
-1.2898730039596558 -6.318246841430664 -2.5
-0.777294933795929 -6.401552677154541 -2.5
0.25965818762779236 -6.443334579467773 -2.5
1.7941112518310547 -6.19396448135376 -2.5
3.663203001022339 -5.307065486907959 -2.5
4.078369140625 -4.995092868804932 -2.5
4.467080116271973 -4.650727272033691 -2.5
4.826826095581055 -4.276196002960205 -2.5
5.709931373596191 -2.9968016147613525 -2.5
5.932548522949219 -2.5276317596435547 -2.5
6.11669921875 -2.042055606842041 -2.5
6.365068435668945 -1.0344287157058716 -2.5
-6.242421627044678 0.0 -2.5
-6.222177505493164 -0.5023046731948853 -2.5
-6.161571979522705 -1.0013574361801147 -2.5
-6.061025142669678 -1.4939111471176147 -2.5
-5.921162128448486 -1.976772427558899 -2.5
-5.527392387390137 -2.9010009765625 -2.5
-5.276034832000732 -3.336367130279541 -2.5
-4.990448951721191 -3.7500877380371094 -2.5
-4.672509670257568 -4.139487266540527 -2.5
-4.324257850646973 -4.502045631408691 -2.5
-3.9479784965515137 -4.835410118103027 -2.5
-3.5461132526397705 -5.137412071228027 -2.5
-1.7367479801177979 -5.995956897735596 -2.5
-1.2486523389816284 -6.116269588470459 -2.5
-0.7524316310882568 -6.196908950805664 -2.5
1.2486425638198853 -6.116274356842041 -2.5
1.736757755279541 -5.995961666107178 -2.5
2.676084041595459 -5.639716625213623 -2.5
3.121220588684082 -5.406098365783691 -2.5
3.546093702316284 -5.137416839599609 -2.5
3.947988271713257 -4.835414886474609 -2.5
4.990458965301514 -3.7500927448272705 -2.5
5.276034832000732 -3.33636212348938 -2.5
5.52737283706665 -2.901005744934082 -2.5
6.161601543426514 -1.0013574361801147 -2.5
6.222187519073486 -0.5023095607757568 -2.5
-6.047382831573486 -2.441406195430318e-06 -2.5
-5.736142635345459 -1.9150097370147705 -2.5
-5.563446998596191 -2.370371103286743 -2.5
-5.111181735992432 -3.232119083404541 -2.5
-4.834540843963623 -3.6329150199890137 -2.5
-4.526533126831055 -4.010156154632568 -2.5
-4.189150333404541 -4.361381530761719 -2.5
-3.435302734375 -4.976894378662109 -2.5
-3.023681640625 -5.2371826171875 -2.5
-2.5924510955810547 -5.4635009765625 -2.5
-1.682470679283142 -5.808618068695068 -2.5
-1.2096483707427979 -5.925160884857178 -2.5
-0.7289257645606995 -6.003285884857178 -2.5
-0.2434960901737213 -6.04247522354126 -2.5
1.2096288204193115 -5.92516565322876 -2.5
3.0237011909484863 -5.2371826171875 -2.5
4.189179420471191 -4.361386775970459 -2.5
4.834531307220459 -3.6329197883605957 -2.5
5.111191272735596 -3.232119083404541 -2.5
5.354687213897705 -2.81036114692688 -2.5
5.563466548919678 -2.3703808784484863 -2.5
5.736162185668945 -1.915014624595642 -2.5
5.871660232543945 -1.447241187095642 -2.5
-5.862509727478027 0.0 -2.5
-5.786591529846191 -0.9404150247573853 -2.5
-5.560810565948486 -1.85647451877594 -2.5
-5.190996170043945 -2.7244482040405273 -2.5
-4.686748027801514 -3.521865129470825 -2.5
-4.388134479522705 -3.887563467025757 -2.5
-4.061122894287109 -4.228066444396973 -2.5
-3.707714796066284 -4.5411376953125 -2.5
-2.931269407272339 -5.077089786529541 -2.5
-2.0788769721984863 -5.481557369232178 -2.5
-1.6310644149780273 -5.631059646606445 -2.5
-1.1726367473602295 -5.744038105010986 -2.5
0.2360546886920929 -5.857773303985596 -2.5
0.7066503763198853 -5.819780349731445 -2.5
2.931269407272339 -5.077089786529541 -2.5
4.061093807220459 -4.228071212768555 -2.5
4.686748027801514 -3.5218701362609863 -2.5
5.191005706787109 -2.7244529724121094 -2.5
5.560800552368164 -1.85647451877594 -2.5
5.69216775894165 -1.4030028581619263 -2.5
5.843515396118164 -0.4717382788658142 -2.5
-5.687021255493164 0.0 -2.5
-5.613379001617432 -0.9122607111930847 -2.5
-5.035605430603027 -2.642900228500366 -2.5
-4.546445369720459 -3.41644024848938 -2.5
-3.939531087875366 -4.101493835449219 -2.5
-3.230595588684082 -4.68032693862915 -2.5
0.6854785084724426 -5.645566463470459 -2.5
2.437978506088257 -5.137944221496582 -2.5
2.8435254096984863 -4.925107479095459 -2.5
3.2306151390075684 -4.68032693862915 -2.5
3.5967187881469727 -4.405204772949219 -2.5
4.256806373596191 -3.7712011337280273 -2.5
4.546435356140137 -3.416445255279541 -2.5
4.806611061096191 -3.0395262241363525 -2.5
5.035614967346191 -2.642895460128784 -2.5
5.231923580169678 -2.229135751724243 -2.5
5.394355297088623 -1.8009033203125 -2.5
5.613379001617432 -0.9122655987739563 -2.5
-5.502255916595459 -0.4441918730735779 -2.5
-5.448661804199219 -0.8854931592941284 -2.5
-5.359736442565918 -1.3210595846176147 -2.5
-5.236073970794678 -1.7480615377426147 -2.5
-4.665566444396973 -2.9503369331359863 -2.5
-4.131894588470459 -3.6605420112609863 -2.5
-2.366455078125 -4.987192153930664 -2.5
-0.6653808355331421 -5.479911804199219 -2.5
0.6653808355331421 -5.479911804199219 -2.5
1.5358006954193115 -5.302216529846191 -2.5
1.9574804306030273 -5.161440372467041 -2.5
2.366445302963257 -4.987196922302246 -2.5
3.13580060005188 -4.543007850646973 -2.5
3.8239550590515137 -3.9811620712280273 -2.5
4.413056373596191 -3.3161962032318115 -2.5
5.078437328338623 -2.1637206077575684 -2.5
5.359745979309082 -1.3210644721984863 -2.5
5.448691368103027 -0.8855029344558716 -2.5
-5.343876838684082 -0.4314062297344208 -2.5
-5.085371017456055 -1.6977490186691284 -2.5
-4.932236194610596 -2.1014404296875 -2.5
-4.747148513793945 -2.491508722305298 -2.5
-4.012959003448486 -3.55517578125 -2.5
-3.7138867378234863 -3.8665575981140137 -2.5
-3.3907225131988525 -4.152871131896973 -2.5
-3.045546770095825 -4.412236213684082 -2.5
-2.6806249618530273 -4.642992973327637 -2.5
-1.9011424779891968 -5.012876033782959 -2.5
-1.4916112422943115 -5.149599552154541 -2.5
-0.21588866412639618 -5.356928825378418 -2.5
0.21588866412639618 -5.356918811798096 -2.5
1.0724023580551147 -5.252919673919678 -2.5
1.4915820360183716 -5.149594783782959 -2.5
1.901123046875 -5.012876033782959 -2.5
2.298330068588257 -4.843642234802246 -2.5
3.3907127380371094 -4.152865886688232 -2.5
3.713876962661743 -3.866567373275757 -2.5
4.012978553771973 -3.555185556411743 -2.5
4.747168064117432 -2.491508722305298 -2.5
