ply
format ascii 1.0
element vertex 775
property float x
property float y
property float z
end_header
-21.332763671875 -11.196298599243164 6.455530643463135
-19.566287994384766 -12.372978210449219 6.203065872192383
-19.18401336669922 -14.415868759155273 6.429900169372559
-18.59577178955078 -16.474424362182617 6.656844139099121
-18.622528076171875 -19.388105392456055 7.203276634216309
-20.178192138671875 -4.973476409912109 5.32243537902832
-21.61687469482422 -11.345399856567383 6.252394199371338
-19.787363052368164 -12.512773513793945 5.995901584625244
-19.322772979736328 -14.520136833190918 6.19017219543457
-21.91435432434082 -11.501532554626465 6.0470099449157715
-20.219676971435547 -12.786171913146973 5.845194339752197
-18.973114013671875 -16.808719635009766 6.193272113800049
-17.134647369384766 -17.839033126831055 6.043569087982178
15.261366844177246 -2.480214834213257 3.7777507305145264
-22.06063461303711 -11.578310012817383 5.795584201812744
-18.354169845581055 -13.792275428771973 5.340646266937256
-18.159862518310547 -16.088232040405273 5.643657684326172
-17.080516815185547 -17.782705307006836 5.735709190368652
-22.2967472076416 -11.70223617553711 5.564218044281006
-20.76846694946289 -13.133193016052246 5.429747104644775
-23.04052734375 -12.092607498168945 5.448119163513184
-20.526063919067383 -12.979902267456055 5.084791660308838
-18.87002944946289 -16.717391967773438 5.278327465057373
-19.94569206237793 -14.988222122192383 4.93582010269165
12.525586128234863 -7.920702934265137 2.9318487644195557
-21.355703353881836 -13.504530906677246 4.708367824554443
-20.496807098388672 -15.402372360229492 4.7776031494140625
-18.876405715942383 -16.723047256469727 4.699288845062256
14.37645435333252 -4.799482345581055 2.824277877807617
-23.637529373168945 -12.405927658081055 4.668978214263916
-20.027587890625 -12.664677619934082 4.1443939208984375
-18.549999237060547 -13.93944263458252 4.058304309844971
-19.871200561523438 -17.604345321655273 4.643154621124268
-19.876630783081055 -20.693750381469727 5.018448352813721
13.741766929626465 -5.854804515838623 2.612471580505371
-18.87440299987793 -14.183212280273438 3.860150098800659
13.741766929626465 -5.854804515838623 2.4422056674957275
-20.484325408935547 -12.953505516052246 3.687384605407715
-19.913925170898438 -14.96435546875 3.789836883544922
-19.53748893737793 -14.681493759155273 3.441570281982422
-18.75528335571289 -16.61572265625 3.528585195541382
-23.481630325317383 -12.324101448059082 3.4352848529815674
-21.51094627380371 -13.602705001831055 3.2969043254852295
-19.919912338256836 -14.968856811523438 3.2277636528015137
-24.400009155273438 -12.806113243103027 3.2595880031585693
-20.569805145263672 -15.457225799560547 3.043560743331909
-25.724365234375 -13.501191139221191 3.11047101020813
-22.869197845458984 -14.461620330810547 2.8969781398773193
-22.687538146972656 -17.048603057861328 3.0384247303009033
-22.73890495300293 -14.379218101501465 2.5792653560638428
-23.07064437866211 -14.589003562927246 2.3119418621063232
-8.83993148803711 -23.30897331237793 0.72535640001297
-8.839921951293945 -23.308963775634766 0.44895172119140625
-8.955507278442383 -23.613710403442383 -0.10495071113109589
-8.975360870361328 -23.66606330871582 -0.3856908977031708
-8.899687767028809 -23.46660041809082 -0.6606776118278503
-3.5523924827575684 -29.256425857543945 -0.7758175730705261
-22.58014678955078 -11.85091781616211 -0.9541831612586975
-22.696815490722656 -17.055566787719727 -1.0623071193695068
-8.830615043640137 -23.284393310546875 -0.9317910671234131
-1.115234375 -27.6739444732666 -1.0363247394561768
7.090224266052246 -10.271933555603027 -0.46701934933662415
-27.143836975097656 -9.061884880065918 -1.3884541988372803
-24.406288146972656 -10.398505210876465 -1.287176489830017
-20.202733993530273 -12.77538013458252 -1.1597646474838257
-18.37688446044922 -13.809306144714355 -1.1153185367584229
-16.8929386138916 -14.965790748596191 -1.0950180292129517
-8.830615043640137 -23.284393310546875 -1.2082613706588745
-3.552382707595825 -29.256444931030273 -1.4299297332763672
-1.1152245998382568 -27.6739444732666 -1.3438115119934082
6.532880783081055 -9.46450138092041 -0.5579842925071716
-27.224365234375 -9.088788986206055 -1.711564540863037
-24.989070892333984 -10.646855354309082 -1.619800329208374
-22.22174835205078 -11.662821769714355 -1.4965730905532837
-18.479248046875 -13.88623046875 -1.3784334659576416
-16.780858993530273 -14.866483688354492 -1.3369163274765015
-15.022343635559082 -15.639842987060547 -1.2931982278823853
-3.552382707595825 -29.256444931030273 -1.7574729919433594
-1.1152245998382568 -27.6739444732666 -1.6516300439834595
5.492109298706055 -9.51259708404541 -0.6550250053405762
6.068066120147705 -8.791083335876465 -0.6370024085044861
9.04238224029541 -9.414111137390137 -0.7784156799316406
-24.764842987060547 -10.551288604736328 -1.904835820198059
-22.22174835205078 -11.662821769714355 -1.7758723497390747
-20.405643463134766 -12.903691291809082 -1.7084258794784546
-16.827373504638672 -14.907685279846191 -1.5908074378967285
-3.5523924827575684 -29.256425857543945 -2.085449457168579
-1.1152245998382568 -27.6739444732666 -1.9598544836044312
5.140830039978027 -8.904159545898438 -0.727550208568573
6.433066368103027 -7.879072189331055 -0.7197729349136353
-21.239482879638672 -7.090761661529541 -1.834108829498291
-24.85089874267578 -10.58797836303711 -2.2125442028045654
-22.22174835205078 -11.662821769714355 -2.05560040473938
-20.331571578979492 -12.856855392456055 -1.9703510999679565
-18.479248046875 -13.88623046875 -1.8933215141296387
-16.779823303222656 -14.865575790405273 -1.8361860513687134
-15.022353172302246 -15.639842987060547 -1.7762476205825806
-18.271240234375 -22.379100799560547 -2.3663558959960938
-16.418397903442383 -23.786151885986328 -2.367340564727783
-14.453691482543945 -25.034530639648438 -2.367753744125366
-12.391523361206055 -26.11457061767578 -2.367588996887207
-8.034931182861328 -27.73983383178711 -2.365516185760498
-3.4855175018310547 -28.705801010131836 -2.368511438369751
-1.115234375 -27.6739444732666 -2.268563985824585
5.733017444610596 -28.082088470458984 -2.347599983215332
7.974091529846191 -27.529726028442383 -2.347599983215332
4.284160137176514 -9.028671264648438 -0.8185542225837708
4.844452857971191 -8.390820503234863 -0.7936006188392639
28.659608840942383 -4.657656192779541 -2.3782570362091064
-25.322265625 -4.115253925323486 -2.387782335281372
-21.21260643005371 -7.081787109375 -2.0814757347106934
-23.20441436767578 -9.886465072631836 -2.347599983215332
-20.336210250854492 -12.859794616699219 -2.2394769191741943
-16.81291961669922 -14.894882202148438 -2.090622901916504
-3.0657129287719727 -25.248437881469727 -2.3672499656677246
-1.0186816453933716 -25.278818130493164 -2.3547263145446777
3.0402636528015137 -25.038856506347656 -2.347599983215332
8.944130897521973 -23.58367156982422 -2.347599983215332
4.21337890625 -8.879511833190918 -0.9147791862487793
4.662988185882568 -8.076542854309082 -0.8680136203765869
6.34423828125 -7.770263671875 -0.9336573481559753
21.473154067993164 -16.13603401184082 -2.5
26.079647064208984 -6.428056716918945 -2.5
26.512332916259766 -4.308671951293945 -2.5
26.7730655670166 -2.1613476276397705 -2.5
-23.977577209472656 1.9531249563442543e-05 -2.5
-23.66706085205078 -3.84624981880188 -2.5
-19.030214309692383 -12.033974647521973 -2.347599983215332
-16.783660888671875 -14.868964195251465 -2.337883949279785
-14.243925094604492 -17.445663452148438 -2.3482377529144287
-6.264296531677246 -21.626934051513672 -2.347599983215332
2.714003801345825 -22.35173797607422 -2.347599983215332
8.502568244934082 -22.41941261291504 -2.5
4.21337890625 -8.879511833190918 -1.0247540473937988
5.071406364440918 -7.34716796875 -0.9308169484138489
8.764081954956055 -9.124384880065918 -1.3191100358963013
20.265615463256836 -12.81517505645752 -2.5
23.28083038330078 -5.738173484802246 -2.5
23.667070388793945 -3.84624981880188 -2.5
23.89983367919922 -1.9293944835662842 -2.5
-21.648906707763672 9.765624781721272e-06 -2.5
-21.578691482543945 -1.7420116662979126 -2.5
-21.368555068969727 -3.47271466255188 -2.5
-20.463973999023438 -6.831865310668945 -2.4913816452026367
-18.000595092773438 -9.447431564331055 -2.347599983215332
-17.18202018737793 -10.865253448486328 -2.347599983215332
-16.25200080871582 -12.212597846984863 -2.347599983215332
-15.216601371765137 -13.480731964111328 -2.347599983215332
-12.85708999633789 -15.747079849243164 -2.347599983215332
-11.548280715942383 -16.730575561523438 -2.347599983215332
-10.164589881896973 -17.605566024780273 -2.347599983215332
-8.714950561523438 -18.366395950317383 -2.347599983215332
-7.208837509155273 -19.008113861083984 -2.347599983215332
-5.655917644500732 -19.52654266357422 -2.347599983215332
4.218720436096191 -20.664541244506836 -2.435549736022949
7.676826000213623 -20.242050170898438 -2.5
4.662988185882568 -8.076542854309082 -1.0769588947296143
17.307050704956055 -13.005410194396973 -2.5
19.16914939880371 -10.060722351074219 -2.5
21.368555068969727 -3.47271466255188 -2.5
-19.72798728942871 9.765624781721272e-06 -2.5
-19.472518920898438 -3.1645703315734863 -2.5
-19.15471649169922 -4.72122049331665 -2.5
-15.657450675964355 -9.901162147521973 -2.347599983215332
-13.866455078125 -12.284589767456055 -2.347599983215332
-7.94167947769165 -16.73674774169922 -2.347599983215332
-5.154062271118164 -17.7939453125 -2.347599983215332
-3.7055468559265137 -18.150976181030273 -2.347599983215332
-2.2330076694488525 -18.39029312133789 -2.347599983215332
-0.7459472417831421 -18.51034164428711 -2.347599983215332
0.7551074028015137 -18.737695693969727 -2.376434087753296
2.371875047683716 -19.534198760986328 -2.4936249256134033
6.995664119720459 -18.445966720581055 -2.5
6.49669885635376 -7.956992149353027 -1.3017464876174927
8.752226829528809 -9.112030982971191 -1.6010873317718506
14.766611099243164 -13.082070350646973 -2.5
15.771395683288574 -11.851435661315918 -2.5
16.67391586303711 -10.543925285339355 -2.5
17.468271255493164 -9.168046951293945 -2.5
19.154726028442383 -4.721200942993164 -2.5
-18.057294845581055 -1.4577245712280273 -2.5
-17.881444931030273 -2.906005859375 -2.5
-17.589628219604492 -4.335458755493164 -2.5
-17.183719635009766 -5.736757755279541 -2.5
-15.27220630645752 -9.657548904418945 -2.4935805797576904
-8.505849838256836 -14.732558250427246 -2.347599983215332
-4.73293924331665 -16.340038299560547 -2.347599983215332
-3.402773380279541 -16.66790008544922 -2.347599983215332
-0.7209765315055847 -17.89111328125 -2.4709603786468506
0.7294726371765137 -18.10136604309082 -2.5
3.6236815452575684 -17.749940872192383 -2.5
4.21337890625 -8.879511833190918 -1.3563162088394165
4.662988185882568 -8.076542854309082 -1.2869782447814941
5.071406364440918 -7.34716796875 -1.2319858074188232
13.560068130493164 -12.013163566589355 -2.5
14.48275375366211 -10.883066177368164 -2.5
16.04097557067871 -8.418925285339355 -2.5
18.057313919067383 -1.4577441215515137 -2.5
-16.689453125 -1.3473047018051147 -2.5
-16.52692413330078 -2.6858787536621094 -2.5
-16.25721549987793 -4.007030963897705 -2.5
-15.403905868530273 -6.56298828125 -2.5
-14.151650428771973 -8.948965072631836 -2.5
-12.509736061096191 -11.082636833190918 -2.4953808784484863
-11.427783012390137 -11.897567749023438 -2.4631385803222656
-4.560878753662109 -15.745956420898438 -2.447654962539673
-3.3401365280151367 -16.361093521118164 -2.493250846862793
0.6741992235183716 -16.73018455505371 -2.5
2.0182323455810547 -16.62166976928711 -2.5
3.34917950630188 -16.405370712280273 -2.5
4.662988185882568 -8.076542854309082 -1.3924578428268433
8.73226547241211 -9.091249465942383 -1.8821481466293335
14.825868606567383 -7.781200885772705 -2.5
15.403915405273438 -6.562968730926514 -2.5
15.88206958770752 -5.302187442779541 -2.5
-14.760263442993164 -4.927675724029541 -2.5
-13.152079582214355 -8.316874504089355 -2.5
-12.440195083618164 -9.348212242126465 -2.5
-11.647645950317383 -10.318896293640137 -2.5
-9.841532707214355 -12.053671836853027 -2.5
-8.83968734741211 -12.806513786315918 -2.5
-7.778124809265137 -13.472128868103027 -2.499224901199341
-6.670253753662109 -14.057255744934082 -2.4997458457946777
-4.329345703125 -14.946699142456055 -2.5
-3.112626791000366 -15.246610641479492 -2.5
-1.8756835460662842 -15.447616577148438 -2.5
0.6266015768051147 -15.548466682434082 -2.5
3.112626791000366 -15.24658203125 -2.5
4.21337890625 -8.879511833190918 -1.5790096521377563
4.662988185882568 -8.076542854309082 -1.4982866048812866
6.209423542022705 -7.605155944824219 -1.5773497819900513
9.233573913574219 -9.613163948059082 -2.1414568424224854
12.440214157104492 -9.348183631896973 -2.5
13.152079582214355 -8.316855430603027 -2.5
13.778671264648438 -7.231581687927246 -2.5
14.760272979736328 -4.927675724029541 -2.5
-14.483935356140137 -1.1692577600479126 -2.5
-13.368270874023438 -5.695693016052246 -2.5
-12.281503677368164 -7.766357421875 -2.5
-11.616738319396973 -8.729413986206055 -2.5
-9.19009780883789 -11.255820274353027 -2.5
-8.254590034484863 -11.95882797241211 -2.5
-4.042783260345459 -13.9573335647583 -2.5
-2.9065818786621094 -14.23739242553711 -2.5
-1.7515233755111694 -14.425097465515137 -2.5
-0.5851171612739563 -14.519257545471191 -2.5
2.9065818786621094 -14.237401962280273 -2.5
4.042792797088623 -13.957343101501465 -2.5
5.152782917022705 -13.586767196655273 -2.5
4.21337890625 -8.879511833190918 -1.6909371614456177
5.071406364440918 -7.34716796875 -1.5359328985214233
6.218339920043945 -7.61608362197876 -1.6915862560272217
9.309423446655273 -9.692138671875 -2.3120930194854736
11.6167573928833 -8.729413986206055 -2.5
12.281513214111328 -7.766337871551514 -2.5
12.866621017456055 -6.752900123596191 -2.5
13.368281364440918 -5.695683479309082 -2.5
14.108818054199219 -3.4775097370147705 -2.5
14.342880249023438 -2.3309569358825684 -2.5
14.483935356140137 -1.169277310371399 -2.5
-12.06494140625 -6.332158088684082 -2.5
-11.516279220581055 -7.282451152801514 -2.5
-10.198954582214355 -9.035478591918945 -2.5
-6.812841415405273 -11.800175666809082 -2.5
-5.841210842132568 -12.310126304626465 -2.5
-4.831728458404541 -12.74022388458252 -2.5
-2.725468635559082 -13.350302696228027 -2.5
-1.6423827409744263 -13.526308059692383 -2.5
-0.5486425757408142 -13.614619255065918 -2.5
0.5486523509025574 -13.614628791809082 -2.5
1.6423925161361694 -13.526317596435547 -2.5
2.725478410720825 -13.350302696228027 -2.5
3.790898323059082 -13.0877046585083 -2.5
4.227412223815918 -8.90909194946289 -1.8093013763427734
5.071406364440918 -7.34716796875 -1.637990951538086
9.438827514648438 -9.826865196228027 -2.5
10.198965072631836 -9.03548812866211 -2.5
10.892949104309082 -8.185507774353027 -2.5
11.516279220581055 -7.282460689544678 -2.5
12.06494140625 -6.33214807510376 -2.5
12.535331726074219 -5.340800762176514 -2.5
12.924452781677246 -4.314804553985596 -2.5
13.44921875 -2.185722589492798 -2.5
13.581483840942383 -1.0964257717132568 -2.5
-12.163505554199219 -4.060771465301514 -2.5
-11.797314643859863 -5.026357173919678 -2.5
-11.354609489440918 -5.95934534072876 -2.5
-10.838241577148438 -6.853691101074219 -2.5
-10.251591682434082 -7.703574180603027 -2.5
-9.598485946655273 -8.503515243530273 -2.5
-8.883105278015137 -9.248281478881836 -2.5
-6.411728382110596 -11.105439186096191 -2.5
-5.497304439544678 -11.58535099029541 -2.5
-4.547236442565918 -11.990107536315918 -2.5
-2.565019369125366 -12.56429672241211 -2.5
-0.516357421875 -12.8130464553833 -2.5
0.516357421875 -12.813036918640137 -2.5
1.545693278312683 -12.729950904846191 -2.5
4.547255992889404 -11.990126609802246 -2.5
8.883105278015137 -9.248310089111328 -2.5
10.25161075592041 -7.703593730926514 -2.5
11.797314643859863 -5.026357173919678 -2.5
12.163505554199219 -4.060781002044678 -2.5
12.45082950592041 -3.068837881088257 -2.5
12.657392501831055 -2.0570311546325684 -2.5
-12.107500076293945 0.0 -2.5
-11.950712203979492 -1.9421581029891968 -2.5
-11.755682945251465 -2.89751935005188 -2.5
-11.484423637390137 -3.834052562713623 -2.5
-10.233134269714355 -6.471044540405273 -2.5
-7.657333850860596 -9.378515243530273 -2.5
-6.877851486206055 -9.964286804199219 -2.5
-6.053750038146973 -10.485400199890137 -2.5
-5.190390586853027 -10.938525199890137 -2.5
-3.3685057163238525 -11.62948226928711 -2.5
-2.421806573867798 -11.862832069396973 -2.5
-1.459414005279541 -12.019238471984863 -2.5
-0.4875195324420929 -12.097684860229492 -2.5
2.421816349029541 -11.862832069396973 -2.5
5.431904315948486 -9.408309936523438 -2.2431905269622803
5.283076286315918 -7.653818130493164 -1.9203159809112549
9.062606811523438 -8.028769493103027 -2.5
10.233154296875 -6.471035003662109 -2.5
11.755682945251465 -2.897509813308716 -2.5
11.950722694396973 -1.9421874284744263 -2.5
12.068251609802246 -0.97425776720047 -2.5
-11.42733383178711 -0.9225097298622131 -2.5
-11.316054344177246 -1.8390233516693115 -2.5
-11.131376266479492 -2.74365234375 -2.5
-10.547109603881836 -4.493700981140137 -2.5
-10.151318550109863 -5.327812194824219 -2.5
-8.581317901611328 -7.602382659912109 -2.5
-4.065371036529541 -10.719501495361328 -2.5
-3.1896190643310547 -11.01186466217041 -2.5
-2.2931933403015137 -11.23282241821289 -2.5
-0.4616406261920929 -11.455204963684082 -2.5
0.46162107586860657 -11.45522403717041 -2.5
2.293203115463257 -11.23282241821289 -2.5
4.065390586853027 -10.719491958618164 -2.5
5.427490234375 -9.400702476501465 -2.367086410522461
6.512587547302246 -9.435097694396973 -2.5
9.165224075317383 -6.887216567993164 -2.5
9.689697265625 -6.127382755279541 -2.5
10.547119140625 -4.493691444396973 -2.5
10.874521255493164 -3.63042950630188 -2.5
11.131386756896973 -2.7436327934265137 -2.5
11.316044807434082 -1.8390429019927979 -2.5
-10.88370132446289 9.765624781721272e-06 -2.5
-10.74276351928711 -1.74587881565094 -2.5
-10.567450523376465 -2.6046483516693115 -2.5
-10.012773513793945 -4.266044616699219 -2.5
-9.198779106140137 -5.816953182220459 -2.5
-7.539394378662109 -7.849335670471191 -2.5
-6.883339881896973 -8.430556297302246 -2.5
-6.18264627456665 -8.957109451293945 -2.5
4.665761470794678 -9.832880973815918 -2.5
6.216454982757568 -7.61376953125 -2.2577884197235107
10.01278305053711 -4.266035079956055 -2.5
10.323593139648438 -3.4465136528015137 -2.5
10.848407745361328 -0.875781238079071 -2.5
-10.356337547302246 0.0 -2.5
-10.22225570678711 -1.6612695455551147 -2.5
-9.823378562927246 -3.2795214653015137 -2.5
-9.527636528015137 -4.059345722198486 -2.5
-8.753095626831055 -5.535117149353027 -2.5
-8.279315948486328 -6.221494197845459 -2.5
-7.751835823059082 -6.867528915405273 -2.5
-5.88308572769165 -8.523124694824219 -2.5
-5.178164005279541 -8.968847274780273 -2.5
-3.672431468963623 -9.683378219604492 -2.5
-2.8813085556030273 -9.947461128234863 -2.5
-2.071523427963257 -10.147050857543945 -2.5
-1.2483203411102295 -10.280829429626465 -2.5
-0.4170019328594208 -10.347949028015137 -2.5
1.248329997062683 -10.280839920043945 -2.5
5.178173542022705 -8.968867301940918 -2.5
5.88308572769165 -8.523115158081055 -2.5
6.207763671875 -7.603105068206787 -2.3694326877593994
8.75308609008789 -5.535117149353027 -2.5
9.170097351074219 -4.812831878662109 -2.5
9.527626991271973 -4.059345722198486 -2.5
9.823378562927246 -3.279531240463257 -2.5
10.222246170043945 -1.6612792015075684 -2.5
-9.875292778015137 9.765624781721272e-06 -2.5
-9.843280792236328 -0.7946386337280273 -2.5
-9.747411727905273 -1.5841015577316284 -2.5
-9.588339805603027 -2.3633105754852295 -2.5
-9.085078239440918 -3.870790958404541 -2.5
-8.744131088256836 -4.589257717132568 -2.5
-7.894736289978027 -5.932509422302246 -2.5
-6.84084939956665 -7.122079849243164 -2.5
-6.245595455169678 -7.649453163146973 -2.5
-3.501826047897339 -9.23355484008789 -2.5
-1.9753124713897705 -9.675722122192383 -2.5
-1.190332055091858 -9.803300857543945 -2.5
0.3976367115974426 -9.867294311523438 -2.5
2.7474803924560547 -9.4854097366333 -2.5
3.501835823059082 -9.233564376831055 -2.5
4.937655925750732 -8.552255630493164 -2.5
5.609814167022705 -8.127206802368164 -2.5
6.245595455169678 -7.649453163146973 -2.5
7.894736289978027 -5.932509422302246 -2.5
8.346503257751465 -5.278007507324219 -2.5
9.085067749023438 -3.870790958404541 -2.5
9.36708927154541 -3.127187490463257 -2.5
9.588349342346191 -2.3633105754852295 -2.5
9.747421264648438 -1.5841015577316284 -2.5
-9.434609413146973 9.765624781721272e-06 -2.5
-9.404004096984863 -0.75916987657547 -2.5
-9.31241226196289 -1.5133984088897705 -2.5
-9.160429954528809 -2.2578320503234863 -2.5
-8.949052810668945 -2.987626791000366 -2.5
-8.353925704956055 -4.384462833404541 -2.5
-7.974013328552246 -5.042470455169678 -2.5
-7.542421817779541 -5.667773246765137 -2.5
-6.535595417022705 -6.804257869720459 -2.5
-5.966875076293945 -7.308075904846191 -2.5
-5.359453201293945 -7.764511585235596 -2.5
-2.624872922897339 -9.062089920043945 -2.5
-1.1372168064117432 -9.365800857543945 -2.5
-0.3798925578594208 -9.426933288574219 -2.5
0.37990233302116394 -9.426933288574219 -2.5
1.1372168064117432 -9.36581039428711 -2.5
1.8871581554412842 -9.243935585021973 -2.5
2.6248631477355957 -9.062108993530273 -2.5
3.3455467224121094 -8.821503639221191 -2.5
4.717304706573486 -8.170605659484863 -2.5
6.535575866699219 -6.804257869720459 -2.5
7.542411804199219 -5.667763710021973 -2.5
7.974032878875732 -5.042460918426514 -2.5
8.353925704956055 -4.384462833404541 -2.5
8.679648399353027 -3.6980466842651367 -2.5
9.1604585647583 -2.2578320503234863 -2.5
-9.0 -0.7265527248382568 -2.5
-8.912343978881836 -1.448388695716858 -2.5
-8.306747436523438 -3.5391697883605957 -2.5
-7.631454944610596 -4.825829982757568 -2.5
-6.758505821228027 -5.987509727478027 -2.5
-3.201835870742798 -8.442509651184082 -2.5
-1.806093692779541 -8.846806526184082 -2.5
-1.0883495807647705 -8.963427543640137 -2.5
-0.3635839819908142 -9.021952629089355 -2.5
0.36357420682907104 -9.021943092346191 -2.5
1.8060839176177979 -8.846806526184082 -2.5
2.512099504470825 -8.672782897949219 -2.5
3.2018260955810547 -8.442519187927246 -2.5
6.254794597625732 -6.511933326721191 -2.5
6.758505821228027 -5.987519264221191 -2.5
7.63146448135376 -4.825829982757568 -2.5
7.995028972625732 -4.196113109588623 -2.5
9.0 -0.7265625 -2.5
-8.543075561523438 -1.3883788585662842 -2.5
-8.209716796875 -2.740790843963623 -2.5
-7.962568283081055 -3.392529249191284 -2.5
-7.663759708404541 -4.02224588394165 -2.5
-6.478486061096191 -5.739423751831055 -2.5
-5.473896503448486 -6.704316139221191 -2.5
-4.916689395904541 -7.123046875 -2.5
-4.327568054199219 -7.495575904846191 -2.5
-3.06915020942688 -8.092695236206055 -2.5
-0.3485058546066284 -8.648124694824219 -2.5
1.7312499284744263 -8.480243682861328 -2.5
3.06915020942688 -8.092714309692383 -2.5
4.327578067779541 -7.495585918426514 -2.5
5.47390604019165 -6.704335689544678 -2.5
6.91930627822876 -5.199511528015137 -2.5
7.663759708404541 -4.02224588394165 -2.5
7.962568283081055 -3.392529249191284 -2.5
8.40365219116211 -2.0713086128234863 -2.5
8.627089500427246 -0.6964452862739563 -2.5
-8.30868148803711 9.765624781721272e-06 -2.5
-8.28173828125 -0.6685742139816284 -2.5
-8.20107364654541 -1.3327832221984863 -2.5
-8.067235946655273 -1.9883984327316284 -2.5
-7.643808364868164 -3.256718635559082 -2.5
-7.356972694396973 -3.861220598220825 -2.5
-6.642314434051514 -4.991366863250732 -2.5
-6.219130516052246 -5.509657859802246 -2.5
-5.254785060882568 -6.435937404632568 -2.5
-3.5618650913238525 -7.50646448135376 -2.5
-2.9462890625 -7.768740177154541 -2.5
-2.3116209506988525 -7.980634689331055 -2.5
-1.6619335412979126 -8.140751838684082 -2.5
-1.001503825187683 -8.248095512390137 -2.5
3.5618748664855957 -7.506484031677246 -2.5
4.719872951507568 -6.837900161743164 -2.5
5.254785060882568 -6.435937404632568 -2.5
5.755624771118164 -5.992246150970459 -2.5
7.022411823272705 -4.44070291519165 -2.5
8.20108413696289 -1.3328124284744263 -2.5
8.28173828125 -0.6685742139816284 -2.5
-7.98681640625 9.765624781721272e-06 -2.5
-7.754716396331787 -1.9113574028015137 -2.5
-7.071972370147705 -3.7116503715515137 -2.5
-3.993408203125 -6.91677713394165 -2.5
-2.832167863845825 -7.46780252456665 -2.5
-1.597558617591858 -7.825400352478027 -2.5
-0.9627050757408142 -7.928564071655273 -2.5
0.962695300579071 -7.92858362197876 -2.5
1.5975780487060547 -7.825409889221191 -2.5
2.832158088684082 -7.467812538146973 -2.5
5.532665729522705 -5.760097503662109 -2.5
6.75036096572876 -4.268671989440918 -2.5
7.575780868530273 -2.529169797897339 -2.5
7.754735946655273 -1.9113574028015137 -2.5
7.960917949676514 -0.6426757574081421 -2.5
-7.686953067779541 9.765624781721272e-06 -2.5
-7.587421894073486 -1.2330760955810547 -2.5
-7.463603496551514 -1.8396190404891968 -2.5
-7.071845531463623 -3.0130271911621094 -2.5
-6.806464672088623 -3.5722949504852295 -2.5
-5.753769397735596 -5.097382545471191 -2.5
-3.8434765338897705 -6.65709924697876 -2.5
-2.725830078125 -7.187431335449219 -2.5
-2.1386327743530273 -7.383456707000732 -2.5
-1.53759765625 -7.53161096572876 -2.5
0.30952146649360657 -7.680732250213623 -2.5
0.9265527129173279 -7.630927562713623 -2.5
1.5375878810882568 -7.53161096572876 -2.5
2.1386523246765137 -7.383456707000732 -2.5
3.295341730117798 -6.944804668426514 -2.5
3.843496084213257 -6.65709924697876 -2.5
4.36669921875 -6.326250076293945 -2.5
4.861591815948486 -5.954355239868164 -2.5
5.324941158294678 -5.543867111206055 -2.5
5.75377893447876 -5.097402095794678 -2.5
6.145302772521973 -4.617880821228027 -2.5
6.49694299697876 -4.108417987823486 -2.5
6.806464672088623 -3.5723047256469727 -2.5
7.071855545043945 -3.0130369663238525 -2.5
7.29137659072876 -2.434199094772339 -2.5
7.463603496551514 -1.8396093845367432 -2.5
7.587411880493164 -1.2330760955810547 -2.5
7.662040710449219 -0.6185449361801147 -2.5
-7.382851600646973 -0.595996081829071 -2.5
-7.025693416595459 -2.345517635345459 -2.5
-6.814159870147705 -2.9032421112060547 -2.5
-6.558456897735596 -3.442138671875 -2.5
-5.921367168426514 -4.449618816375732 -2.5
-5.130937576293945 -5.341855525970459 -2.5
-4.684443473815918 -5.737382888793945 -2.5
-3.703437328338623 -6.414531230926514 -2.5
-2.0607128143310547 -7.114433288574219 -2.5
-1.4815527200698853 -7.257177352905273 -2.5
-0.8927831649780273 -7.352860927581787 -2.5
-0.2982519567012787 -7.400859355926514 -2.5
0.2982519567012787 -7.400859355926514 -2.5
0.8927929401397705 -7.352860927581787 -2.5
3.70342755317688 -6.414540767669678 -2.5
5.130927562713623 -5.341845512390137 -2.5
5.544130802154541 -4.911669731140137 -2.5
5.921367168426514 -4.449618816375732 -2.5
6.260214805603027 -3.9587206840515137 -2.5
6.558456897735596 -3.442148447036743 -2.5
6.814179420471191 -2.9032421112060547 -2.5
7.025702953338623 -2.345517635345459 -2.5
7.191640377044678 -1.7725781202316284 -2.5
7.310966491699219 -1.1881444454193115 -2.5
7.382861137390137 -0.5960156321525574 -2.5
-7.144589900970459 0.0 -2.5
-6.57287073135376 -2.8004393577575684 -2.5
-5.711689472198486 -4.292060375213623 -2.5
-5.347802639007568 -4.737734317779541 -2.5
-4.949228286743164 -5.152685642242432 -2.5
-4.518544673919678 -5.534218788146973 -2.5
-3.0628416538238525 -6.454794883728027 -2.5
-1.429101586341858 -7.000195026397705 -2.5
-0.28767576813697815 -7.138779163360596 -2.5
0.2876855432987213 -7.13878870010376 -2.5
2.533515453338623 -6.68029260635376 -2.5
3.0628318786621094 -6.454775333404541 -2.5
3.5723047256469727 -6.187382698059082 -2.5
4.058583736419678 -5.8798828125 -2.5
4.518564224243164 -5.534228324890137 -2.5
5.347802639007568 -4.737734317779541 -2.5
5.71169900894165 -4.292050838470459 -2.5
6.326220512390137 -3.320253849029541 -2.5
6.572880744934082 -2.800429582595825 -2.5
6.776904106140137 -2.262460947036743 -2.5
6.936982154846191 -1.709804654121399 -2.5
7.121416091918945 -0.574902355670929 -2.5
-6.876035213470459 -0.5550976395606995 -2.5
-6.543388366699219 -2.1844921112060547 -2.5
-6.346396446228027 -2.7039451599121094 -2.5
-5.163544654846191 -4.57449197769165 -2.5
-4.778691291809082 -4.975146293640137 -2.5
-4.362871170043945 -5.34353494644165 -2.5
-3.91875958442688 -5.677285194396973 -2.5
-0.2777734398841858 -6.892812252044678 -2.5
0.2777734398841858 -6.892812252044678 -2.5
1.9192675352096558 -6.626054763793945 -2.5
2.446220636367798 -6.450117111206055 -2.5
4.362861156463623 -5.34353494644165 -2.5
4.778700828552246 -4.975146293640137 -2.5
5.163525104522705 -4.57449197769165 -2.5
5.514882564544678 -4.144160270690918 -2.5
5.830478191375732 -3.686962842941284 -2.5
6.346396446228027 -2.703935384750366 -2.5
6.876035213470459 -0.5551074147224426 -2.5
-6.666845321655273 0.0 -2.5
-6.645224571228027 -0.5364550948143005 -2.5
-6.580507755279541 -1.0694433450698853 -2.5
-6.133359432220459 -2.613173723220825 -2.5
-5.634746074676514 -3.5631933212280273 -2.5
-4.990185260772705 -4.420917987823486 -2.5
-3.787187337875366 -5.486699104309082 -2.5
-3.3334178924560547 -5.773652076721191 -2.5
-2.364081859588623 -6.233593463897705 -2.5
-1.854833960533142 -6.403623104095459 -2.5
-1.3335448503494263 -6.53209924697876 -2.5
-0.8035937547683716 -6.618232250213623 -2.5
-0.2684570252895355 -6.661425590515137 -2.5
0.2684570252895355 -6.661425590515137 -2.5
0.8035937547683716 -6.618222713470459 -2.5
1.3335448503494263 -6.532089710235596 -2.5
2.3641111850738525 -6.233583927154541 -2.5
2.858027219772339 -6.023163795471191 -2.5
3.333437442779541 -5.773652076721191 -2.5
3.7871971130371094 -5.486699104309082 -2.5
4.618290901184082 -4.80813455581665 -2.5
5.329755783081055 -4.005048751831055 -2.5
5.634765625 -3.563183546066284 -2.5
6.323750019073486 -2.1111717224121094 -2.5
6.473114967346191 -1.5954687595367432 -2.5
6.580517292022705 -1.069433569908142 -2.5
-6.448564529418945 9.765624781721272e-06 -2.5
-6.427646160125732 -0.5188964605331421 -2.5
-6.261171817779541 -1.54324209690094 -2.5
-5.155253887176514 -3.873915910720825 -2.5
-4.078359127044678 -4.995078086853027 -2.5
-3.663203001022339 -5.307060241699219 -2.5
-3.2242772579193115 -5.584619045257568 -2.5
-2.286689519882202 -6.029511451721191 -2.5
-1.7940917015075684 -6.193945407867432 -2.5
-1.289882779121399 -6.318242073059082 -2.5
-0.7772851586341858 -6.401542663574219 -2.5
-0.2596679627895355 -6.443339824676514 -2.5
0.7772851586341858 -6.401542663574219 -2.5
1.289882779121399 -6.318242073059082 -2.5
1.7941112518310547 -6.193954944610596 -2.5
2.286699056625366 -6.029501914978027 -2.5
2.7644433975219727 -5.82595682144165 -2.5
3.2242870330810547 -5.584619045257568 -2.5
3.663203001022339 -5.307070255279541 -2.5
4.467080116271973 -4.650712966918945 -2.5
4.826816082000732 -4.276191234588623 -2.5
5.155263423919678 -3.873906135559082 -2.5
5.709921836853027 -2.9967870712280273 -2.5
-6.242421627044678 9.765624781721272e-06 -2.5
-6.061025142669678 -1.493896484375 -2.5
-5.921162128448486 -1.9767675399780273 -2.5
-5.527382850646973 -2.9009861946105957 -2.5
-4.990468502044678 -3.7500877380371094 -2.5
-4.672519207000732 -4.139492034912109 -2.5
-4.324277400970459 -4.502040863037109 -2.5
-3.1212010383605957 -5.406074047088623 -2.5
-2.2135839462280273 -5.836748123168945 -2.5
-0.25135740637779236 -6.237343788146973 -2.5
1.736757755279541 -5.995947360992432 -2.5
2.2135937213897705 -5.836767673492432 -2.5
3.5461132526397705 -5.137392520904541 -2.5
4.324277400970459 -4.502050876617432 -2.5
4.672509670257568 -4.139492034912109 -2.5
4.990448951721191 -3.7500877380371094 -2.5
5.276034832000732 -3.336357355117798 -2.5
5.742909908294678 -2.4468164443969727 -2.5
6.061025142669678 -1.4939062595367432 -2.5
-5.969062328338623 -0.9700585603713989 -2.5
-5.871640682220459 -1.4472265243530273 -2.5
-5.563446998596191 -2.370361328125 -2.5
-5.354697227478027 -2.81036114692688 -2.5
-5.111181735992432 -3.232109308242798 -2.5
-4.834531307220459 -3.6329100131988525 -2.5
-3.824638605117798 -4.684326171875 -2.5
-3.435292959213257 -4.976884841918945 -2.5
-3.023691415786743 -5.237177848815918 -2.5
-2.1444334983825684 -5.654394626617432 -2.5
-1.2096288204193115 -5.92516565322876 -2.5
-0.7289257645606995 -6.003261566162109 -2.5
-0.2434960901737213 -6.042460918426514 -2.5
0.7289355397224426 -6.003281116485596 -2.5
1.2096288204193115 -5.925156116485596 -2.5
1.6824902296066284 -5.808613300323486 -2.5
3.023681640625 -5.237187385559082 -2.5
3.824638605117798 -4.684326171875 -2.5
4.526542663574219 -4.010136604309082 -2.5
4.834531307220459 -3.6329100131988525 -2.5
5.354687213897705 -2.8103418350219727 -2.5
5.563466548919678 -2.370361328125 -2.5
5.736152172088623 -1.9150195121765137 -2.5
-5.843505859375 -0.4717382788658142 -2.5
-5.786601543426514 -0.9404101371765137 -2.5
-5.69216775894165 -1.4029979705810547 -2.5
-5.393398284912109 -2.297910213470459 -2.5
-4.954931735992432 -3.13330078125 -2.5
-4.686738014221191 -3.521855354309082 -2.5
-4.388154029846191 -3.887568235397339 -2.5
-4.061103343963623 -4.228046894073486 -2.5
-3.707714796066284 -4.541122913360596 -2.5
-2.5132129192352295 -5.296484470367432 -2.5
-2.0788769721984863 -5.481543064117432 -2.5
-1.631044864654541 -5.631054401397705 -2.5
-0.23606444895267487 -5.857763767242432 -2.5
2.9312596321105957 -5.077089786529541 -2.5
4.954951286315918 -3.133310556411743 -2.5
5.190996170043945 -2.724443197250366 -2.5
5.393398284912109 -2.297910213470459 -2.5
5.843495845794678 -0.471748024225235 -2.5
-5.687021255493164 9.765624781721272e-06 -2.5
-5.66857385635376 -0.4576074182987213 -2.5
-5.613388538360596 -0.9122558236122131 -2.5
-3.9395408630371094 -4.101484298706055 -2.5
-2.843515634536743 -4.925107479095459 -2.5
-2.43798828125 -5.137939453125 -2.5
-2.0166406631469727 -5.317451000213623 -2.5
-1.137539029121399 -5.572080135345459 -2.5
-0.22899413108825684 -5.682412147521973 -2.5
0.6855077743530273 -5.645546913146973 -2.5
1.1375585794448853 -5.572089672088623 -2.5
2.0166406631469727 -5.317461013793945 -2.5
2.43798828125 -5.137948989868164 -2.5
3.59673810005188 -4.405185222625732 -2.5
4.546454906463623 -3.416435480117798 -2.5
4.806611061096191 -3.0395116806030273 -2.5
5.035605430603027 -2.642890453338623 -2.5
5.231943130493164 -2.229120969772339 -2.5
5.52175760269165 -1.3609960079193115 -2.5
5.613379001617432 -0.9122655987739563 -2.5
5.668593406677246 -0.4576171636581421 -2.5
-5.502255916595459 -0.4441796839237213 -2.5
-5.448671817779541 -0.8854784965515137 -2.5
-5.236064434051514 -1.748046875 -2.5
-4.887851238250732 -2.5653319358825684 -2.5
-4.665585994720459 -2.950331926345825 -2.5
-4.131904125213623 -3.6605467796325684 -2.5
-3.4911913871765137 -4.275937557220459 -2.5
-1.9574706554412842 -5.161435604095459 -2.5
-1.5358006954193115 -5.302206993103027 -2.5
-1.104160189628601 -5.408593654632568 -2.5
-0.22227539122104645 -5.515673637390137 -2.5
0.22226561605930328 -5.515673637390137 -2.5
1.1041796207427979 -5.408593654632568 -2.5
4.413056373596191 -3.316171884536743 -2.5
4.665585994720459 -2.950331926345825 -2.5
4.887861251831055 -2.5653417110443115 -2.5
5.078437328338623 -2.163710832595825 -2.5
5.236083984375 -1.748046875 -2.5
5.359755516052246 -1.3210644721984863 -2.5
5.448681354522705 -0.8854882717132568 -2.5
5.502265453338623 -0.4441894292831421 -2.5
-5.361269474029541 0.0 -2.5
-5.291835784912109 -0.8599902391433716 -2.5
-4.531289100646973 -2.865410089492798 -2.5
-4.286035060882568 -3.2207422256469727 -2.5
-4.012959003448486 -3.55517578125 -2.5
-3.713876962661743 -3.8665428161621094 -2.5
-3.3907127380371094 -4.15286111831665 -2.5
-3.045536994934082 -4.412226676940918 -2.5
-2.6806347370147705 -4.642988204956055 -2.5
-1.0724023580551147 -5.252919673919678 -2.5
-0.21586912870407104 -5.356914043426514 -2.5
0.2158789038658142 -5.356914043426514 -2.5
0.6462304592132568 -5.322167873382568 -2.5
1.0723828077316284 -5.2529296875 -2.5
1.4915918111801147 -5.149589538574219 -2.5
1.9011328220367432 -5.012870788574219 -2.5
2.6806445121765137 -4.642988204956055 -2.5
3.0455565452575684 -4.412226676940918 -2.5
3.7138965129852295 -3.8665428161621094 -2.5
4.01296854019165 -3.55517578125 -2.5
4.286035060882568 -3.2207324504852295 -2.5
4.53127908706665 -2.865419864654541 -2.5
4.932265281677246 -2.1014256477355957 -2.5
5.291835784912109 -0.85999995470047 -2.5
5.343886375427246 -0.431396484375 -2.5
