ply
format ascii 1.0
element vertex 752
property float x
property float y
property float z
end_header
-16.675111770629883 -17.360624313354492 6.450016498565674
-16.664886474609375 -17.350000381469727 6.161171913146973
-16.65474510192871 -17.339447021484375 5.8743157386779785
19.3328857421875 -10.146674156188965 5.334684371948242
-16.644681930541992 -17.328948974609375 5.589354515075684
-16.634662628173828 -17.31853485107422 5.306201457977295
6.3890380859375 -16.846532821655273 3.981262683868408
-16.61735725402832 -17.300512313842773 4.745694637298584
-16.61113739013672 -17.294036865234375 4.193983554840088
-16.608041763305664 -17.29082489013672 3.919916868209839
-16.601898193359375 -17.284423828125 3.374992609024048
6.383002758026123 -16.830610275268555 2.5348668098449707
6.381303787231445 -16.82613754272461 2.128650426864624
-16.592758178710938 -17.274911880493164 2.5645270347595215
6.380458831787109 -16.823911666870117 1.926442265510559
-0.9979442954063416 -24.763700485229492 2.0991296768188477
6.37877893447876 -16.819477081298828 1.5235775709152222
-16.5806884765625 -17.262338638305664 1.493909239768982
-16.577680587768555 -17.259193420410156 1.227586030960083
-12.002304077148438 -25.29432487487793 1.4361742734909058
-0.9490429759025574 -23.550321578979492 1.209031343460083
6.376269340515137 -16.812856674194336 0.9223806262016296
-0.9988671541213989 -24.786678314208984 0.997007429599762
6.375434398651123 -16.810659408569336 0.722607433795929
-16.57168960571289 -17.252954483032227 0.6960717439651489
-0.9988720417022705 -24.786678314208984 0.7217687964439392
-16.568695068359375 -17.249858856201172 0.4307488799095154
-0.9988671541213989 -24.786678314208984 0.44672179222106934
6.373769283294678 -16.806264877319336 0.3237023949623108
-7.680287837982178 -16.185869216918945 0.12408202886581421
-0.9988671541213989 -24.786678314208984 0.17178252339363098
-16.562713623046875 -17.243633270263672 -0.09935973584651947
-0.9988720417022705 -24.786678314208984 -0.10308868438005447
-16.559730529785156 -17.24052619934082 -0.36427170038223267
-0.9988720417022705 -24.786678314208984 -0.3780097961425781
6.371274471282959 -16.799692153930664 -0.2737879753112793
-7.680287837982178 -16.185869216918945 -0.4716174304485321
-0.9988671541213989 -24.786678314208984 -0.6530238389968872
6.370439529418945 -16.79749870300293 -0.4729156494140625
-16.553754806518555 -17.234277725219727 -0.8941468596458435
-7.680287837982178 -16.185869216918945 -0.6703543066978455
6.369609355926514 -16.795307159423828 -0.6721115112304688
-20.70118522644043 -13.090643882751465 -1.1883817911148071
-16.550762176513672 -17.231185913085938 -1.1592390537261963
-0.9988720417022705 -24.786678314208984 -1.2036105394363403
6.368779182434082 -16.793109893798828 -0.8714190721511841
-20.374340057373047 -12.883959770202637 -1.4375344514846802
-16.547773361206055 -17.22807502746582 -1.4245202541351318
-0.9988671541213989 -24.786678314208984 -1.4793120622634888
6.36794900894165 -16.790912628173828 -1.0708889961242676
24.856386184692383 -15.718232154846191 -1.7537708282470703
-20.20697784423828 -12.778129577636719 -1.6917932033538818
-16.544780731201172 -17.224956512451172 -1.690056324005127
-11.854218482971191 -20.532089233398438 -1.6776549816131592
-7.680287837982178 -16.185869216918945 -1.267744779586792
25.08378791809082 -15.862035751342773 -2.1000959873199463
-20.180742263793945 -12.761537551879883 -1.9557369947433472
-22.913095474243164 -17.21806526184082 -2.347599983215332
-18.0540771484375 -15.994516372680664 -1.9756265878677368
-15.814213752746582 -16.46431541442871 -1.869883418083191
-18.16573143005371 -22.24898338317871 -2.352651834487915
-11.94054126739502 -20.6816349029541 -1.9560580253601074
-7.68029260635376 -16.185869216918945 -1.4674369096755981
-10.26241683959961 -27.059755325317383 -2.3704588413238525
-5.887743949890137 -20.3267822265625 -1.7333669662475586
0.8226855397224426 -20.415067672729492 -1.6735210418701172
1.8987401723861694 -15.637490272521973 -1.290246844291687
5.801547527313232 -28.417850494384766 -2.3756680488586426
8.064306259155273 -27.841190338134766 -2.3741607666015625
6.366279125213623 -16.78651237487793 -1.4705132246017456
12.40025806427002 -26.133026123046875 -2.369262456893921
21.496171951293945 -19.043970108032227 -2.3522918224334717
24.224267959594727 -15.318510055541992 -2.347599983215332
25.37834930419922 -13.319580078125 -2.347599983215332
27.186317443847656 -9.076123237609863 -2.347599983215332
28.92292022705078 -7.128876686096191 -2.439926862716675
-26.86016273498535 0.0 -2.5
-26.773061752319336 -2.1613426208496094 -2.5
-20.164159774780273 -15.152372360229492 -2.347599983215332
-15.95201587677002 -19.53768539428711 -2.347599983215332
-14.328173637390137 -20.757925033569336 -2.347599983215332
-12.121538162231445 -20.995101928710938 -2.2564139366149902
-7.680287837982178 -16.185869216918945 -1.6674898862838745
-8.983647346496582 -23.687929153442383 -2.3579764366149902
-5.076894283294678 -24.86825180053711 -2.3623459339141846
1.8987352848052979 -15.637490272521973 -1.46614408493042
5.077187538146973 -24.869686126708984 -2.362482786178589
5.316904067993164 -18.356054306030273 -1.7787096500396729
6.365444183349609 -16.784311294555664 -1.6707662343978882
10.856093406677246 -22.87876319885254 -2.3570001125335693
14.352797508239746 -20.79361343383789 -2.3516364097595215
15.9580659866333 -19.54509735107422 -2.3484904766082764
18.879497528076172 -16.72579002380371 -2.347599983215332
20.164140701293945 -15.152358055114746 -2.347599983215332
22.333642959594727 -11.721596717834473 -2.347599983215332
17.44857406616211 -7.434135437011719 -1.765278935432434
25.47783088684082 -8.50576114654541 -2.5
26.773046493530273 -2.1613574028015137 -2.5
-23.899845123291016 -1.9293993711471558 -2.5
-23.667091369628906 -3.8462841510772705 -2.5
-23.280818939208984 -5.738232135772705 -2.5
-22.743600845336914 -7.592915058135986 -2.5
-22.058868408203125 -9.398407936096191 -2.5
-20.265600204467773 -12.81520938873291 -2.5
-7.4708251953125 -15.744433403015137 -1.817010760307312
-7.986435413360596 -21.058490753173828 -2.3482420444488525
-5.953251838684082 -20.552959442138672 -2.23101806640625
-4.512421607971191 -22.103271484375 -2.352109909057617
-2.7204980850219727 -22.405298233032227 -2.353226900100708
0.9090087413787842 -22.55691909790039 -2.3537867069244385
1.8770946264266968 -15.459233283996582 -1.623681902885437
4.974467754364014 -17.173847198486328 -1.8642181158065796
9.6524019241333 -20.342021942138672 -2.347599983215332
11.257948875427246 -19.49933624267578 -2.347599983215332
16.853384017944336 -14.930800437927246 -2.347599983215332
17.36261749267578 -7.397509574890137 -1.9677584171295166
23.280818939208984 -5.738222599029541 -2.5
23.66706085205078 -3.8462743759155273 -2.5
-21.019813537597656 -5.18093729019165 -2.5
-20.534770965576172 -6.855512619018555 -2.5
-19.169145584106445 -10.060731887817383 -2.5
-18.29743194580078 -11.570600509643555 -2.5
-14.143085479736328 -14.724515914916992 -2.3576979637145996
-12.857099533081055 -15.747084617614746 -2.347599983215332
-10.164594650268555 -17.605581283569336 -2.347599983215332
8.714961051940918 -18.36640167236328 -2.347599983215332
10.164589881896973 -17.605581283569336 -2.347599983215332
17.294925689697266 -7.368671894073486 -2.1709249019622803
21.578691482543945 -1.7420165538787842 -2.5
-19.72798728942871 9.765624781721272e-06 -2.5
-19.664012908935547 -1.5874462127685547 -2.5
-19.472515106201172 -3.164604425430298 -2.5
-19.154726028442383 -4.721235275268555 -2.5
-18.71271514892578 -6.247231483459473 -2.5
-16.67389678955078 -10.5439453125 -2.5
-15.771395683288574 -11.851435661315918 -2.5
-13.66604995727539 -14.227875709533691 -2.5
-12.014677047729492 -14.715316772460938 -2.4073898792266846
-5.15408182144165 -17.793949127197266 -2.347599983215332
-3.705556631088257 -18.150976181030273 -2.347599983215332
-2.232988119125366 -18.390296936035156 -2.347599983215332
0.617138683795929 -15.31423282623291 -1.942248821258545
1.8770898580551147 -15.459233283996582 -1.9734374284744263
3.7055468559265137 -18.150970458984375 -2.347599983215332
4.877905368804932 -16.84046745300293 -2.221804141998291
7.94167947769165 -16.73674774169922 -2.347599983215332
10.523608207702637 -15.246064186096191 -2.347599983215332
13.080184936523438 -13.617924690246582 -2.3928256034851074
14.736733436584473 -13.055614471435547 -2.4949421882629395
16.67389678955078 -10.543940544128418 -2.5
17.4682559967041 -9.168051719665527 -2.5
18.149335861206055 -7.732705116271973 -2.5
18.712709426879883 -6.247216701507568 -2.5
19.154720306396484 -4.72122049331665 -2.5
19.664003372192383 -1.5874462127685547 -2.5
-17.183740615844727 -5.736772537231445 -2.5
-16.666406631469727 -7.100883483886719 -2.5
-16.04097557067871 -8.418950080871582 -2.5
-14.482748985290527 -10.88308048248291 -2.5
-13.560063362121582 -12.01317310333252 -2.5
-12.549443244934082 -13.065346717834473 -2.5
-11.45742130279541 -14.032793045043945 -2.5
-7.292788028717041 -15.36922836303711 -2.347599983215332
-4.732958793640137 -16.340044021606445 -2.347599983215332
-3.402783155441284 -16.66789436340332 -2.347599983215332
-0.6849951148033142 -16.997905731201172 -2.347599983215332
0.6165869235992432 -15.300468444824219 -2.113166093826294
1.8770946264266968 -15.459233283996582 -2.1490304470062256
3.402783155441284 -16.66790008544922 -2.347599983215332
4.732954025268555 -16.340044021606445 -2.347599983215332
6.032431602478027 -15.90621566772461 -2.347599983215332
7.292778015136719 -15.369233131408691 -2.347599983215332
8.505849838256836 -14.732563018798828 -2.347599983215332
9.808462142944336 -14.210014343261719 -2.3827569484710693
11.381049156188965 -13.9392671585083 -2.4833381175994873
13.560043334960938 -12.01317310333252 -2.5
16.040966033935547 -8.418950080871582 -2.5
16.66639518737793 -7.100873947143555 -2.5
17.183744430541992 -5.736782073974609 -2.5
17.589628219604492 -4.335464000701904 -2.5
-16.526933670043945 -2.6858885288238525 -2.5
-15.882084846496582 -5.302211761474609 -2.5
-15.403915405273438 -6.562997817993164 -2.5
-14.151655197143555 -8.948979377746582 -2.5
-13.3856782913208 -10.058686256408691 -2.5
-11.598808288574219 -12.07564926147461 -2.5
-10.589516639709473 -12.969794273376465 -2.5
-8.358935356140137 -14.478095054626465 -2.49613356590271
-5.585698127746582 -14.728281021118164 -2.3519065380096436
-4.374433517456055 -15.102279663085938 -2.347599983215332
-1.8952099084854126 -15.60842227935791 -2.347599983215332
-0.6331005692481995 -15.710302352905273 -2.347599983215332
0.6160693168640137 -15.2876558303833 -2.284442901611328
3.14501953125 -15.405306816101074 -2.347599983215332
9.511401176452637 -13.779638290405273 -2.4999642372131348
10.589506149291992 -12.969799041748047 -2.5
11.598803520202637 -12.075644493103027 -2.5
12.53287124633789 -11.103163719177246 -2.5
13.3856782913208 -10.05868148803711 -2.5
14.151659965515137 -8.948969841003418 -2.5
14.8258638381958 -7.781210899353027 -2.5
15.403910636901855 -6.56298303604126 -2.5
15.882060050964355 -5.302202224731445 -2.5
16.257205963134766 -4.007050514221191 -2.5
-15.510634422302246 -1.2521435022354126 -2.5
-15.359575271606445 -2.4961767196655273 -2.5
-15.108915328979492 -3.7240283489227295 -2.5
-14.760263442993164 -4.927695274353027 -2.5
-14.315888404846191 -6.099428653717041 -2.5
-13.778661727905273 -7.231601238250732 -2.5
-13.152074813842773 -8.316874504089355 -2.5
-12.440199851989746 -9.348207473754883 -2.5
-9.841543197631836 -12.05370044708252 -2.5
-4.259541034698486 -14.7056245803833 -2.4596757888793945
-3.003955125808716 -14.71432113647461 -2.412719488143921
-1.787329077720642 -14.719965934753418 -2.3822364807128906
-0.28272947669029236 -7.015727519989014 -1.1280407905578613
0.5933056473731995 -14.722739219665527 -2.3672330379486084
3.00341796875 -14.711698532104492 -2.4122891426086426
7.78054666519165 -13.476303100585938 -2.5
8.839706420898438 -12.806528091430664 -2.5
9.841537475585938 -12.05370044708252 -2.5
10.779545783996582 -11.222700119018555 -2.5
11.647631645202637 -10.318910598754883 -2.5
12.440195083618164 -9.348197937011719 -2.5
14.315878868103027 -6.099418640136719 -2.5
15.108905792236328 -3.724013566970825 -2.5
-14.531059265136719 4.882812390860636e-06 -2.5
-14.342890739440918 -2.3309521675109863 -2.5
-14.108813285827637 -3.4775242805480957 -2.5
-13.368281364440918 -5.695683479309082 -2.5
-10.066015243530273 -10.479833602905273 -2.5
-9.190102577209473 -11.255829811096191 -2.5
-8.254590034484863 -11.958823204040527 -2.5
-6.229355335235596 -13.12808609008789 -2.5
-4.042802810668945 -13.9573335647583 -2.5
-0.2666601538658142 -6.617084980010986 -1.1393622159957886
0.2800341844558716 -6.948974609375 -1.1965091228485107
1.7496337890625 -14.409506797790527 -2.4972963333129883
4.042792797088623 -13.957347869873047 -2.5
5.152778148651123 -13.586776733398438 -2.5
6.229345798492432 -13.128090858459473 -2.5
8.2545747756958 -11.958818435668945 -2.5
9.19009780883789 -11.25582504272461 -2.5
11.616747856140137 -8.729418754577637 -2.5
12.281498908996582 -7.76635217666626 -2.5
12.86661148071289 -6.752910137176514 -2.5
13.368270874023438 -5.695683479309082 -2.5
13.78323745727539 -4.601518630981445 -2.5
14.342880249023438 -2.330947160720825 -2.5
14.483930587768555 -1.1692626476287842 -2.5
-13.625673294067383 4.882812390860636e-06 -2.5
-12.924448013305664 -4.3148193359375 -2.5
-12.535341262817383 -5.340805530548096 -2.5
-9.438838005065918 -9.826865196228027 -2.5
-8.617494583129883 -10.554511070251465 -2.5
-7.740268230438232 -11.213706016540527 -2.5
-6.812846660614014 -11.8001708984375 -2.5
-5.841220378875732 -12.310121536254883 -2.5
-0.8065429329872131 -6.642441272735596 -1.2276878356933594
0.26371094584465027 -6.54394006729126 -1.201637864112854
1.6423925161361694 -13.526328086853027 -2.5
3.790898323059082 -13.087709426879883 -2.5
4.831728458404541 -12.740219116210938 -2.5
5.841210842132568 -12.310126304626465 -2.5
7.740258693695068 -11.213706016540527 -2.5
8.617485046386719 -10.554511070251465 -2.5
10.892949104309082 -8.185517311096191 -2.5
11.516274452209473 -7.282455921173096 -2.5
12.06493091583252 -6.332158088684082 -2.5
13.229736328125 -3.2608397006988525 -2.5
13.449223518371582 -2.1857128143310547 -2.5
13.5814790725708 -1.0964062213897705 -2.5
-12.781865119934082 -1.0318603515625 -2.5
-12.450824737548828 -3.0688672065734863 -2.5
-12.163515090942383 -4.060776233673096 -2.5
-11.797314643859863 -5.026362419128418 -2.5
-10.838252067565918 -6.853696346282959 -2.5
-10.25161075592041 -7.703588485717773 -2.5
-9.598490715026855 -8.503515243530273 -2.5
-8.110136985778809 -9.93310546875 -2.5
-6.411733150482178 -11.105420112609863 -2.5
-5.497319221496582 -11.58535099029541 -2.5
-4.547260761260986 -11.990131378173828 -2.5
-3.5677196979522705 -12.317157745361328 -2.5
-0.25941893458366394 -6.43737268447876 -1.2560192346572876
2.565014600753784 -12.56429672241211 -2.5
4.547255992889404 -11.990131378173828 -2.5
5.497309684753418 -11.585355758666992 -2.5
7.2845458984375 -10.55349063873291 -2.5
8.883105278015137 -9.248305320739746 -2.5
9.598481178283691 -8.503524780273438 -2.5
10.838241577148438 -6.853696346282959 -2.5
11.354589462280273 -5.9593505859375 -2.5
12.163500785827637 -4.060771465301514 -2.5
12.450819969177246 -3.068857431411743 -2.5
12.657387733459473 -2.0570263862609863 -2.5
-12.107519149780273 4.882812390860636e-06 -2.5
-12.068251609802246 -0.9742528796195984 -2.5
-11.950727462768555 -1.9421825408935547 -2.5
-10.720673561096191 -5.626635551452637 -2.5
-10.233154296875 -6.471049785614014 -2.5
-9.6792573928833 -7.273490905761719 -2.5
-9.062602043151855 -8.028764724731445 -2.5
-8.387167930603027 -8.731972694396973 -2.5
-7.657338619232178 -9.3785400390625 -2.5
-6.877856254577637 -9.964282035827637 -2.5
-6.053759574890137 -10.4854097366333 -2.5
-5.190400123596191 -10.9385347366333 -2.5
-1.412329077720642 -6.918027400970459 -1.4579217433929443
0.8084765672683716 -6.658422470092773 -1.3849509954452515
3.368520498275757 -11.62948226928711 -2.5
6.053754806518555 -10.4854097366333 -2.5
6.877851486206055 -9.964286804199219 -2.5
7.657338619232178 -9.378544807434082 -2.5
8.387163162231445 -8.731963157653809 -2.5
9.062592506408691 -8.02877426147461 -2.5
9.6792573928833 -7.273486137390137 -2.5
11.13866138458252 -4.745732307434082 -2.5
11.484418869018555 -3.834057569503784 -2.5
11.755693435668945 -2.89751935005188 -2.5
11.950722694396973 -1.9421825408935547 -2.5
12.068246841430664 -0.9742528796195984 -2.5
-11.464516639709473 0.0 -2.5
-11.427338600158691 -0.9225097298622131 -2.5
-11.13138198852539 -2.743647336959839 -2.5
-10.547119140625 -4.493705749511719 -2.5
-9.689697265625 -6.127397537231445 -2.5
-9.165228843688965 -6.887221336364746 -2.5
-8.581313133239746 -7.602377891540527 -2.5
-7.250683307647705 -8.880463600158691 -2.5
-6.512592792510986 -9.435102462768555 -2.5
-5.732265472412109 -9.928559303283691 -2.5
-0.7697119116783142 -6.339130878448486 -1.3924908638000488
-0.256103515625 -6.355068206787109 -1.3869378566741943
0.7782177329063416 -6.409199237823486 -1.4078813791275024
2.2931981086730957 -11.232827186584473 -2.5
7.250673770904541 -8.880477905273438 -2.5
10.151318550109863 -5.327817440032959 -2.5
10.547114372253418 -4.493696212768555 -2.5
11.13137149810791 -2.7436375617980957 -2.5
11.316054344177246 -1.8390380144119263 -2.5
11.427338600158691 -0.9225048422813416 -2.5
-10.848407745361328 -0.8757714629173279 -2.5
-10.74276351928711 -1.7458691596984863 -2.5
-10.567445755004883 -2.6046483516693115 -2.5
-9.637045860290527 -5.057905197143555 -2.5
-8.146567344665527 -7.217231273651123 -2.5
-6.18264627456665 -8.957104682922363 -2.5
-4.665761470794678 -9.832890510559082 -2.5
-1.90310537815094 -6.570273399353027 -1.5712367296218872
0.25389647483825684 -6.300498008728027 -1.4484070539474487
0.764892578125 -6.299482345581055 -1.4576263427734375
5.441845417022705 -9.425565719604492 -2.5
6.883339881896973 -8.430571556091309 -2.5
8.14657211303711 -7.217236042022705 -2.5
8.700898170471191 -6.538295745849609 -2.5
9.1987886428833 -5.816962718963623 -2.5
10.012778282165527 -4.266039848327637 -2.5
10.323583602905273 -3.4465136528015137 -2.5
10.742758750915527 -1.7458691596984863 -2.5
-10.222250938415527 -1.6612744331359863 -2.5
-9.823383331298828 -3.2795214653015137 -2.5
-9.170092582702637 -4.812831878662109 -2.5
-8.753090858459473 -5.535117149353027 -2.5
-8.279315948486328 -6.221498966217041 -2.5
-7.751845359802246 -6.867534160614014 -2.5
-6.54983377456665 -8.022085189819336 -2.5
-5.883090496063232 -8.523110389709473 -2.5
-4.439692497253418 -9.356454849243164 -2.5
-1.8211181163787842 -6.287221431732178 -1.5801054239273071
-1.2714208364486694 -6.22781229019165 -1.5343886613845825
-0.7581591606140137 -6.243999004364014 -1.5183581113815308
-0.2516455054283142 -6.244555473327637 -1.5086443424224854
1.3024462461471558 -6.379794597625732 -1.5718334913253784
3.6724119186401367 -9.683359146118164 -2.5
7.174096584320068 -7.469027996063232 -2.5
8.279315948486328 -6.221498966217041 -2.5
9.170092582702637 -4.812836647033691 -2.5
10.055419921875 -2.4784326553344727 -2.5
-9.8753023147583 9.765624781721272e-06 -2.5
-9.085078239440918 -3.87078595161438 -2.5
-8.3464937210083 -5.278007507324219 -2.5
-4.937655925750732 -8.552260398864746 -2.5
-3.501826047897339 -9.233564376831055 -2.5
-0.2491503804922104 -6.182631492614746 -1.5664459466934204
0.7482226490974426 -6.162187576293945 -1.5714577436447144
1.2731640338897705 -6.236371994018555 -1.611344814300537
3.501821279525757 -9.233569145202637 -2.5
4.233457088470459 -8.92184066772461 -2.5
4.937646389007568 -8.552255630493164 -2.5
5.609814167022705 -8.127216339111328 -2.5
6.245581150054932 -7.649462699890137 -2.5
7.894736289978027 -5.932514667510986 -2.5
9.085073471069336 -3.870790958404541 -2.5
9.588339805603027 -2.3633153438568115 -2.5
9.843276023864746 -0.794628918170929 -2.5
-9.404013633728027 -0.7591650485992432 -2.5
-9.312426567077637 -1.5134179592132568 -2.5
-8.679643630981445 -3.6980466842651367 -2.5
-8.353930473327637 -4.384472370147705 -2.5
-7.97402811050415 -5.042475700378418 -2.5
-7.061899185180664 -6.256293773651123 -2.5
-5.359467506408691 -7.76452112197876 -2.5
-0.7423925399780273 -6.114140510559082 -1.63203763961792
0.24631835520267487 -6.112368106842041 -1.6209826469421387
0.7422851324081421 -6.113256931304932 -1.631801724433899
1.2607617378234863 -6.175610065460205 -1.6701804399490356
3.3455467224121094 -8.821508407592773 -2.5
5.359457969665527 -7.76452112197876 -2.5
5.966869831085205 -7.308090686798096 -2.5
8.353920936584473 -4.384472370147705 -2.5
8.679638862609863 -3.6980466842651367 -2.5
9.160444259643555 -2.2578516006469727 -2.5
9.404013633728027 -0.75916987657547 -2.5
-9.029287338256836 4.882812390860636e-06 -2.5
-8.912353515625 -1.44839346408844 -2.5
-8.766908645629883 -2.1608495712280273 -2.5
-8.564604759216309 -2.8592772483825684 -2.5
-7.631459712982178 -4.82583475112915 -2.5
-6.758515357971191 -5.987514495849609 -2.5
-6.254804611206055 -6.511933326721191 -2.5
-5.710527420043945 -6.994115829467773 -2.5
-5.129213809967041 -7.430947303771973 -2.5
-4.514638423919678 -7.819584846496582 -2.5
-3.87078595161438 -8.15750503540039 -2.5
-2.3620409965515137 -6.228183269500732 -1.8442907333374023
-1.7542089223861694 -6.056215763092041 -1.7457536458969116
-1.2433397769927979 -6.090268611907959 -1.7210369110107422
0.7381151914596558 -6.078940391540527 -1.695481777191162
1.2543896436691284 -6.1444091796875 -1.7363371849060059
4.514638423919678 -7.819580078125 -2.5
6.758505821228027 -5.987524509429932 -2.5
7.631450176239014 -4.825844764709473 -2.5
8.306747436523438 -3.539174795150757 -2.5
8.766899108886719 -2.1608495712280273 -2.5
9.000004768371582 -0.7265625 -2.5
-8.655165672302246 4.882812390860636e-06 -2.5
-8.627089500427246 -0.6964452862739563 -2.5
-7.962563514709473 -3.392529249191284 -2.5
-7.315253734588623 -4.625888347625732 -2.5
-6.919301509857178 -5.199516296386719 -2.5
-5.995639324188232 -6.242114067077637 -2.5
-5.473916053771973 -6.704326152801514 -2.5
-3.710400342941284 -7.819501876831055 -2.5
2.408012628555298 -8.313427925109863 -2.5
3.710390567779541 -7.819501876831055 -2.5
4.916689395904541 -7.123051643371582 -2.5
6.478476524353027 -5.739433288574219 -2.5
6.919291973114014 -5.199516296386719 -2.5
7.315244197845459 -4.625888347625732 -2.5
7.663759708404541 -4.022250652313232 -2.5
8.40365219116211 -2.0713231563568115 -2.5
8.543066024780273 -1.3883837461471558 -2.5
8.627084732055664 -0.6964550614356995 -2.5
-8.28173828125 -0.6685693264007568 -2.5
-8.067240715026855 -1.9884033203125 -2.5
-7.643813133239746 -3.256723642349243 -2.5
-7.356972694396973 -3.8612353801727295 -2.5
-7.022417068481445 -4.44070291519165 -2.5
-6.642314434051514 -4.991372108459473 -2.5
-5.755629539489746 -5.992236137390137 -2.5
-5.25478982925415 -6.43594217300415 -2.5
-4.154340744018555 -7.195522308349609 -2.5
-3.5618700981140137 -7.506479263305664 -2.5
-0.7339062094688416 -6.044248104095459 -1.8320139646530151
0.24410155415534973 -6.057338714599609 -1.824074625968933
0.7332080006599426 -6.038510799407959 -1.8302727937698364
1.2462939023971558 -6.104741096496582 -1.8747445344924927
2.3116209506988525 -7.980629920959473 -2.5
2.946293830871582 -7.768744945526123 -2.5
5.254780292510986 -6.435946941375732 -2.5
5.755620002746582 -5.992240905761719 -2.5
6.219125747680664 -5.50967264175415 -2.5
7.35696268081665 -3.8612353801727295 -2.5
7.643813133239746 -3.256718635559082 -2.5
8.067231178283691 -1.9883984327316284 -2.5
8.20108413696289 -1.3328124284744263 -2.5
8.281728744506836 -0.6685693264007568 -2.5
-7.986821174621582 4.882812390860636e-06 -2.5
-7.960917949676514 -0.6426659822463989 -2.5
-7.883383750915527 -1.2811717987060547 -2.5
-7.575786113739014 -2.5291600227355957 -2.5
-7.347704887390137 -3.130556583404541 -2.5
-5.978168964385986 -5.296235084533691 -2.5
-5.532660961151123 -5.760107517242432 -2.5
-5.051225662231445 -6.186625957489014 -2.5
-3.423891544342041 -7.21569299697876 -2.5
-2.326245069503784 -6.133798599243164 -2.0534162521362305
-0.7326562404632568 -6.033955097198486 -1.902597427368164
2.2220654487609863 -7.671479225158691 -2.5
3.993403196334839 -6.91677713394165 -2.5
5.051215648651123 -6.186630725860596 -2.5
5.532651424407959 -5.760112285614014 -2.5
6.7503662109375 -4.2686767578125 -2.5
7.071972370147705 -3.7116503715515137 -2.5
7.347700119018555 -3.130561351776123 -2.5
7.575780868530273 -2.529169797897339 -2.5
7.754731178283691 -1.9113720655441284 -2.5
7.883378505706787 -1.2811766862869263 -2.5
-7.686972618103027 4.882812390860636e-06 -2.5
-7.587421894073486 -1.2330760955810547 -2.5
-7.463598251342773 -1.8396142721176147 -2.5
-7.291367053985596 -2.434213876724243 -2.5
-6.806469440460205 -3.5723094940185547 -2.5
-6.4969482421875 -4.108417987823486 -2.5
-6.14529275894165 -4.617880821228027 -2.5
-4.861586570739746 -5.954365253448486 -2.5
-4.36669921875 -6.326250076293945 -2.5
-3.29534649848938 -6.944789886474609 -2.5
-2.320200204849243 -6.117851257324219 -2.1279683113098145
-1.7493994235992432 -6.039618968963623 -2.044980525970459
-0.24303710460662842 -6.030829906463623 -1.962975263595581
0.24309080839157104 -6.032270431518555 -1.963442325592041
3.8434765338897705 -6.6571044921875 -2.5
4.366694450378418 -6.326244831085205 -2.5
5.753774166107178 -5.097402095794678 -2.5
6.496938228607178 -4.108422756195068 -2.5
6.806464672088623 -3.5723094940185547 -2.5
7.071850299835205 -3.0130321979522705 -2.5
7.463593482971191 -1.8396190404891968 -2.5
7.662035942077637 -0.6185449361801147 -2.5
-7.406879901885986 9.765624781721272e-06 -2.5
-7.19164514541626 -1.7725878953933716 -2.5
-7.025688171386719 -2.345517635345459 -2.5
-6.814169883728027 -2.903247117996216 -2.5
-5.921371936798096 -4.449624061584473 -2.5
-5.130922794342041 -5.341855525970459 -2.5
-4.207587718963623 -6.095736980438232 -2.5
-3.1752734184265137 -6.691742897033691 -2.5
-2.3167529106140137 -6.1087646484375 -2.205155372619629
-1.7503124475479126 -6.042788028717041 -2.123422861099243
-1.2307226657867432 -6.028476238250732 -2.0767266750335693
0.242919921875 -6.027973651885986 -2.036237955093384
2.060717821121216 -7.114433288574219 -2.5
2.6265087127685547 -6.925546646118164 -2.5
3.1752636432647705 -6.691742897033691 -2.5
4.207582950592041 -6.09573221206665 -2.5
4.684433460235596 -5.737397193908691 -2.5
5.130918025970459 -5.341860294342041 -2.5
5.921367168426514 -4.449624061584473 -2.5
6.260210037231445 -3.9587206840515137 -2.5
6.814169883728027 -2.903247117996216 -2.5
7.191640377044678 -1.7725830078125 -2.5
7.310952186584473 -1.1881444454193115 -2.5
7.382856369018555 -0.5960058569908142 -2.5
-6.776904106140137 -2.262460947036743 -2.5
-6.038535118103027 -3.818535089492798 -2.5
-5.34780740737915 -4.737739086151123 -2.5
-4.518564224243164 -5.534228324890137 -2.5
-4.058588981628418 -5.879887580871582 -2.5
-3.5722949504852295 -6.187392234802246 -2.5
-2.3110742568969727 -6.093798637390137 -2.2805089950561523
0.737988293170929 -6.077905178070068 -2.1423709392547607
1.2393505573272705 -6.070732116699219 -2.1680569648742676
2.533505916595459 -6.680312156677246 -2.5
4.058583736419678 -5.87987756729126 -2.5
4.518559455871582 -5.534233093261719 -2.5
4.949228286743164 -5.152695178985596 -2.5
6.038530349731445 -3.81853985786438 -2.5
6.5728759765625 -2.8004345893859863 -2.5
6.936977386474609 -1.7098193168640137 -2.5
-6.876039981842041 -0.5550927519798279 -2.5
-6.80908203125 -1.1065820455551147 -2.5
-6.543398380279541 -2.184501886367798 -2.5
-6.108242034912109 -3.2058544158935547 -2.5
-5.830468654632568 -3.686962842941284 -2.5
-5.514882564544678 -4.1441650390625 -2.5
-4.362875938415527 -5.343539714813232 -2.5
-3.9187498092651367 -5.677279949188232 -2.5
-3.449213743209839 -5.974199295043945 -2.5
-2.9572949409484863 -6.232378005981445 -2.5
-2.446215867996216 -6.450126647949219 -2.5
0.24263183772563934 -6.020922660827637 -2.183767318725586
0.7379248142242432 -6.077368259429932 -2.2186286449432373
1.379858374595642 -6.758998870849609 -2.5
2.4462060928344727 -6.450126647949219 -2.5
2.957289934158325 -6.232367992401123 -2.5
3.4492039680480957 -5.974199295043945 -2.5
3.9187400341033936 -5.677279949188232 -2.5
4.362861156463623 -5.343544960021973 -2.5
4.778691291809082 -4.975151062011719 -2.5
5.830468654632568 -3.686962842941284 -2.5
6.346391677856445 -2.7039403915405273 -2.5
6.80908203125 -1.1065820455551147 -2.5
-6.666845321655273 4.882812390860636e-06 -2.5
-6.473114967346191 -1.595483422279358 -2.5
-6.323744773864746 -2.1111717224121094 -2.5
-5.634746074676514 -3.5631980895996094 -2.5
-5.329760551452637 -4.005053520202637 -2.5
-4.618281364440918 -4.808144569396973 -2.5
-4.216401100158691 -5.164165019989014 -2.5
-2.8580322265625 -6.023154258728027 -2.5
-2.3640966415405273 -6.233598709106445 -2.5
-1.2286279201507568 -6.018202781677246 -2.3033156394958496
-0.7306494116783142 -6.017421722412109 -2.2730484008789062
0.24250487983226776 -6.017748832702637 -2.2584269046783447
1.8548290729522705 -6.403623104095459 -2.5
2.8580174446105957 -6.023159027099609 -2.5
3.7871971130371094 -5.486699104309082 -2.5
4.216411113739014 -5.164169788360596 -2.5
4.6182861328125 -4.808139324188232 -2.5
4.990195274353027 -4.420932292938232 -2.5
5.329755783081055 -4.005048751831055 -2.5
5.634741306304932 -3.5632030963897705 -2.5
6.645224571228027 -0.5364648103713989 -2.5
-4.826821327209473 -4.276186466217041 -2.5
-4.078369140625 -4.995092868804932 -2.5
-3.2242870330810547 -5.584619045257568 -2.5
-2.7644481658935547 -5.82595682144165 -2.5
-1.7472704648971558 -6.032260417938232 -2.434736490249634
-1.289882779121399 -6.318242073059082 -2.5
-0.7772900462150574 -6.401542663574219 -2.5
-0.25965818762779236 -6.443334579467773 -2.5
0.7374120950698853 -6.073163986206055 -2.371758222579956
2.286684513092041 -6.029506683349609 -2.5
3.663198232650757 -5.307060241699219 -2.5
4.078354358673096 -4.995092868804932 -2.5
4.46707010269165 -4.650722503662109 -2.5
5.450263500213623 -3.446533203125 -2.5
5.709917068481445 -2.9967968463897705 -2.5
5.932553768157959 -2.5276219844818115 -2.5
6.365048885345459 -1.034423828125 -2.5
-5.921166896820068 -1.976772427558899 -2.5
-5.742905139923096 -2.4468164443969727 -2.5
-5.276034832000732 -3.33636212348938 -2.5
-3.546098470687866 -5.137407302856445 -2.5
-2.676079034805298 -5.639711856842041 -2.5
-2.2135937213897705 -5.836757659912109 -2.5
-1.2486523389816284 -6.116264343261719 -2.5
-0.25136229395866394 -6.237358093261719 -2.5
0.7370898127555847 -6.070502758026123 -2.4490065574645996
1.2486425638198853 -6.116259574890137 -2.5
1.7367479801177979 -5.995961666107178 -2.5
2.2135937213897705 -5.836762428283691 -2.5
2.6760692596435547 -5.639721393585205 -2.5
3.546098470687866 -5.137412071228027 -2.5
5.276025295257568 -3.336367130279541 -2.5
5.742900371551514 -2.4468164443969727 -2.5
6.061025142669678 -1.4939160346984863 -2.5
6.161581993103027 -1.0013574361801147 -2.5
-6.047377586364746 4.882812390860636e-06 -2.5
-6.027768611907959 -0.4866113066673279 -2.5
-5.871650218963623 -1.4472362995147705 -2.5
-5.111186504364014 -3.23211407661438 -2.5
-4.834531307220459 -3.6329150199890137 -2.5
-4.526528358459473 -4.010151386260986 -2.5
-4.189165115356445 -4.361376762390137 -2.5
-3.8246335983276367 -4.684321403503418 -2.5
-3.435307502746582 -4.976889610290527 -2.5
-2.592470645904541 -5.463496208190918 -2.5
-2.1444334983825684 -5.654399394989014 -2.5
-0.7289355397224426 -6.003276348114014 -2.5
-0.24350585043430328 -6.04247522354126 -2.5
1.6824804544448853 -5.808613300323486 -2.5
2.144418954849243 -5.654394626617432 -2.5
2.592456102371216 -5.463510513305664 -2.5
3.435297727584839 -4.976889610290527 -2.5
4.189159870147705 -4.361386775970459 -2.5
5.354677677154541 -2.810351610183716 -2.5
5.563457012176514 -2.370371103286743 -2.5
5.871654987335205 -1.447241187095642 -2.5
-5.843510627746582 -0.47172850370407104 -2.5
-5.560815334320068 -1.8564794063568115 -2.5
-4.686748027801514 -3.521860361099243 -2.5
-4.388159275054932 -3.887563467025757 -2.5
-4.061113357543945 -4.228061199188232 -2.5
-3.707719564437866 -4.541132926940918 -2.5
-3.3302879333496094 -4.824755668640137 -2.5
-2.5132226943969727 -5.296489238739014 -2.5
-2.0788769721984863 -5.481547832489014 -2.5
-1.1726561784744263 -5.744038105010986 -2.5
-0.7066503763198853 -5.819770336151123 -2.5
-0.23605956137180328 -5.857768535614014 -2.5
0.7066406011581421 -5.819775104522705 -2.5
1.1726512908935547 -5.744042873382568 -2.5
2.9312596321105957 -5.077089786529541 -2.5
3.3302879333496094 -4.824755668640137 -2.5
3.707719564437866 -4.5411376953125 -2.5
4.061108112335205 -4.228066444396973 -2.5
4.388149261474609 -3.887568235397339 -2.5
4.686748027801514 -3.521860361099243 -2.5
5.692162990570068 -1.4029979705810547 -2.5
5.786601543426514 -0.9404199123382568 -2.5
5.843505859375 -0.4717333912849426 -2.5
-5.687031269073486 4.882812390860636e-06 -2.5
-5.6685791015625 -0.4576123058795929 -2.5
-5.231947898864746 -2.2291259765625 -2.5
-4.806621074676514 -3.0395214557647705 -2.5
-4.546450138092041 -3.416435480117798 -2.5
-4.256806373596191 -3.771191358566284 -2.5
-3.9395408630371094 -4.101493835449219 -2.5
-3.596733331680298 -4.405190467834473 -2.5
-2.43798828125 -5.137944221496582 -2.5
-1.5822362899780273 -5.462485313415527 -2.5
-1.1375585794448853 -5.572089672088623 -2.5
-0.685498058795929 -5.645551681518555 -2.5
0.6854931712150574 -5.645551681518555 -2.5
1.1375439167022705 -5.572089672088623 -2.5
1.5822265148162842 -5.462485313415527 -2.5
2.0166406631469727 -5.317455768585205 -2.5
2.43798828125 -5.137948989868164 -2.5
2.843505859375 -4.925107479095459 -2.5
3.230595588684082 -4.680322170257568 -2.5
3.5967283248901367 -4.405195236206055 -2.5
3.939531087875366 -4.101499080657959 -2.5
4.546450138092041 -3.416435480117798 -2.5
4.806606292724609 -3.0395214557647705 -2.5
5.521767616271973 -1.3609912395477295 -2.5
-5.520165920257568 4.882812390860636e-06 -2.5
-5.448676586151123 -0.8854931592941284 -2.5
-5.359750747680664 -1.3210644721984863 -2.5
-4.887861251831055 -2.5653417110443115 -2.5
-4.665580749511719 -2.9503369331359863 -2.5
-4.131899356842041 -3.6605420112609863 -2.5
-3.8239550590515137 -3.981147289276123 -2.5
-3.491201162338257 -4.275937557220459 -2.5
-3.135810375213623 -4.54299783706665 -2.5
-1.1041747331619263 -5.408593654632568 -2.5
-0.6653857231140137 -5.479911804199219 -2.5
-0.22227539122104645 -5.515683650970459 -2.5
1.1041747331619263 -5.40859842300415 -2.5
1.5357763767242432 -5.302206993103027 -2.5
1.9574755430221558 -5.161435604095459 -2.5
2.760082960128784 -4.780605316162109 -2.5
3.135805606842041 -4.54299783706665 -2.5
3.8239500522613525 -3.9811620712280273 -2.5
4.413051605224609 -3.3161914348602295 -2.5
5.078432559967041 -2.1637158393859863 -2.5
5.236064434051514 -1.7480566501617432 -2.5
5.359745979309082 -1.3210644721984863 -2.5
5.448671817779541 -0.885498046875 -2.5
5.502255916595459 -0.4441894292831421 -2.5
-5.361274242401123 4.882812390860636e-06 -2.5
-5.291845798492432 -0.8600097298622131 -2.5
-4.932265281677246 -2.101435422897339 -2.5
-4.747172832489014 -2.491508722305298 -2.5
-4.531289100646973 -2.86541485786438 -2.5
-4.01296854019165 -3.555180549621582 -2.5
-2.6806395053863525 -4.642992973327637 -2.5
-2.29833984375 -4.843637466430664 -2.5
-1.0723974704742432 -5.252914905548096 -2.5
-0.2158837914466858 -5.356918811798096 -2.5
1.9011279344558716 -5.012870788574219 -2.5
2.298330068588257 -4.843637466430664 -2.5
3.390702962875366 -4.152865886688232 -2.5
4.531293869018555 -2.86541485786438 -2.5
4.747172832489014 -2.491503953933716 -2.5
5.08535623550415 -1.6977490186691284 -2.5
5.20547342300415 -1.2830419540405273 -2.5
5.291840553283691 -0.8600048422813416 -2.5
5.343881607055664 -0.4314062297344208 -2.5
