ply
format ascii 1.0
element vertex 769
property float x
property float y
property float z
end_header
16.539011001586914 -17.21892547607422 6.114625930786133
16.52701187133789 -17.20643424987793 5.829252243041992
16.51822280883789 -17.197284698486328 5.546883583068848
16.509113311767578 -17.18779182434082 5.266144275665283
16.500059127807617 -17.178373336791992 4.987082481384277
-26.102636337280273 -13.69973087310791 5.15590238571167
16.473190307617188 -17.150394439697266 4.159149646759033
-3.5126914978027344 -17.206279754638672 2.6718053817749023
16.455503463745117 -17.131982803344727 3.6141130924224854
-3.5090532302856445 -17.1884708404541 2.4704654216766357
-3.5054380893707275 -17.170751571655273 2.27016544342041
16.437971115112305 -17.11372947692871 3.07389760017395
16.42926025390625 -17.104658126831055 2.805412530899048
16.420578002929688 -17.095619201660156 2.537909984588623
-3.4946861267089844 -17.118101119995117 1.6749542951583862
16.411928176879883 -17.086620330810547 2.2713279724121094
3.0673539638519287 -25.26190948486328 2.1553397178649902
7.227160930633545 -15.230941772460938 1.4278870820999146
16.403303146362305 -17.07763671875 2.005589485168457
6.025327682495117 -15.887495040893555 1.2496824264526367
7.176614284515381 -15.124408721923828 1.2312241792678833
16.39470672607422 -17.06868553161621 1.7406294345855713
6.025330066680908 -15.887490272521973 1.0605180263519287
7.17661190032959 -15.124408721923828 1.0448542833328247
-3.480557680130005 -17.04889678955078 0.8925877213478088
3.0660760402679443 -25.251420974731445 1.3048255443572998
6.025327682495117 -15.887495040893555 0.8716157078742981
16.377574920654297 -17.05084991455078 1.2127671241760254
-3.477057933807373 -17.03173828125 0.6986549496650696
6.025328636169434 -15.887495040893555 0.6829267740249634
-23.16689109802246 -17.408794403076172 0.8431944251060486
-3.473567485809326 -17.014623641967773 0.5052855014801025
6.025328636169434 -15.887495040893555 0.4944062829017639
16.36052131652832 -17.033100128173828 0.6872013807296753
-23.156322479248047 -17.400848388671875 0.5216474533081055
-3.4700803756713867 -16.99757194519043 0.3124265968799591
16.343523025512695 -17.015399932861328 0.16340439021587372
-23.135221481323242 -17.3850040435791 -0.1202615350484848
6.220864772796631 -16.40308952331543 -0.07290329039096832
16.335039138793945 -17.006567001342773 -0.09799361974000931
-3.45967960357666 -16.94662094116211 -0.26356154680252075
16.32656478881836 -16.99774932861328 -0.35914182662963867
-26.968740463256836 -6.647226333618164 -0.7311813235282898
-23.11415672302246 -17.369169235229492 -0.7611128091812134
-3.456223726272583 -16.92970085144043 -0.45485609769821167
6.220867156982422 -16.403085708618164 -0.4618116617202759
16.318096160888672 -16.988929748535156 -0.6201074123382568
-24.702714920043945 -15.621064186096191 -1.0936118364334106
-23.1036319732666 -17.36125946044922 -1.0813486576080322
6.220865726470947 -16.40308952331543 -0.6564162969589233
-24.702714920043945 -15.621064186096191 -1.4180954694747925
-18.75236701965332 -14.091493606567383 -1.1381088495254517
-3.4493327140808105 -16.895912170410156 -0.8366876244544983
1.1992107629776 -29.758148193359375 -1.4450182914733887
-19.92791175842285 -6.652919769287109 -1.2528433799743652
-18.08926010131836 -13.5931978225708 -1.3493438959121704
6.227639675140381 -16.42095184326172 -1.0472931861877441
17.341215133666992 -21.23908233642578 -1.6351025104522705
-17.8939266204834 -13.446415901184082 -1.5838671922683716
2.6481988430023193 -12.971708297729492 -0.9368376135826111
6.227644443511963 -16.42094612121582 -1.2427372932434082
8.47925090789795 -17.869667053222656 -1.3996288776397705
11.922931671142578 -20.651098251342773 -1.6873809099197388
16.667192459106445 -20.413555145263672 -1.864829182624817
16.28424072265625 -16.953676223754883 -1.6634390354156494
-18.6741886138916 -9.800976753234863 -1.7274373769760132
-21.453310012817383 -19.0059757232666 -2.347599983215332
-19.854406356811523 -20.67061996459961 -2.347599983215332
-18.16023063659668 -22.242250442504883 -2.3519394397735596
-9.772393226623535 -20.59490203857422 -1.8671667575836182
-10.261197090148926 -27.056556701660156 -2.37017822265625
-8.061004638671875 -27.829769134521484 -2.37318754196167
1.1688872575759888 -29.0056095123291 -2.3777284622192383
1.5676519870758057 -12.9107666015625 -1.0652655363082886
6.2170634269714355 -16.393047332763672 -1.4360461235046387
11.92375659942627 -20.652523040771484 -1.9533076286315918
16.353710174560547 -23.69243621826172 -2.3580124378204346
18.165822982788086 -22.249101638793945 -2.352660655975342
21.453304290771484 -19.0059814453125 -2.347599983215332
24.22426986694336 -15.318500518798828 -2.347599983215332
-26.5123291015625 -4.308681488037109 -2.5
-26.079647064208984 -6.428081035614014 -2.5
-19.094100952148438 -6.374545574188232 -1.873598575592041
-18.674030303955078 -9.800893783569336 -1.9629191160202026
-15.714645385742188 -9.937353134155273 -1.730540156364441
-12.628491401672363 -21.8731689453125 -2.3507840633392334
-7.055474281311035 -24.358314514160156 -2.36033296585083
-3.43557071685791 -16.828519821166992 -1.598615288734436
-2.5311968326568604 -20.846317291259766 -1.954514741897583
1.022839903831482 -25.381420135498047 -2.3642845153808594
1.5591607093811035 -12.84084415435791 -1.2039353847503662
7.055959701538086 -24.359960556030273 -2.360492467880249
14.328166007995605 -20.757915496826172 -2.347599983215332
15.952006340026855 -19.53767967224121 -2.347599983215332
22.686891555786133 -14.346332550048828 -2.4983439445495605
24.710798263549805 -10.528276443481445 -2.5
25.47783851623535 -8.505751609802246 -2.5
26.07964515686035 -6.428066253662109 -2.5
26.773061752319336 -2.1613426208496094 -2.5
-23.97760009765625 1.4648437172581907e-05 -2.5
-23.667091369628906 -3.8462841510772705 -2.5
-18.8911075592041 -8.048749923706055 -2.1409876346588135
-18.670452117919922 -9.799013137817383 -2.198481798171997
-16.8533878326416 -14.930805206298828 -2.347599983215332
-12.79049015045166 -18.53022003173828 -2.347599983215332
-11.257951736450195 -19.49933624267578 -2.347599983215332
-9.65239143371582 -20.341997146606445 -2.347599983215332
-2.7204887866973877 -22.40523338317871 -2.353219509124756
-0.9090197682380676 -22.55712890625 -2.3538079261779785
0.5251013040542603 -13.030195236206055 -1.3596845865249634
6.217065811157227 -16.393047332763672 -1.8279976844787598
9.652400016784668 -20.342021942138672 -2.347599983215332
12.790488243103027 -18.530214309692383 -2.347599983215332
15.485185623168945 -16.12178611755371 -2.330723762512207
16.853384017944336 -14.930800437927246 -2.347599983215332
20.265602111816406 -12.815199851989746 -2.5
21.23108673095703 -11.142929077148438 -2.5
22.74359893798828 -7.59292459487915 -2.5
23.89982032775879 -1.9293895959854126 -2.5
-21.648893356323242 1.4648437172581907e-05 -2.5
-21.578693389892578 -1.7420165538787842 -2.5
-21.368547439575195 -3.472734212875366 -2.5
-19.08627700805664 -8.131903648376465 -2.395782470703125
-15.858137130737305 -10.028085708618164 -2.166717052459717
-17.307050704956055 -13.00540542602539 -2.5
-16.20442771911621 -14.355874061584473 -2.5
-14.284956932067871 -14.872225761413574 -2.3813486099243164
-11.54828929901123 -16.730571746826172 -2.347599983215332
-8.714959144592285 -18.366395950317383 -2.347599983215332
-7.2088236808776855 -19.00811004638672 -2.347599983215332
-2.450413227081299 -20.180946350097656 -2.347599983215332
-0.8185723423957825 -20.31269073486328 -2.347599983215332
1.5357708930969238 -12.648207664489746 -1.4713342189788818
3.6610636711120605 -12.639448165893555 -1.5195916891098022
8.714961051940918 -18.366405487060547 -2.347599983215332
10.164592742919922 -17.605575561523438 -2.347599983215332
12.85708999633789 -15.747079849243164 -2.347599983215332
19.169164657592773 -10.060712814331055 -2.5
21.019813537597656 -5.180932521820068 -2.5
21.36854362487793 -3.472734212875366 -2.5
21.57869529724121 -1.7420116662979126 -2.5
-19.664011001586914 -1.587441325187683 -2.5
-19.472515106201172 -3.164599657058716 -2.5
-15.771392822265625 -11.85142993927002 -2.5
-13.666048049926758 -14.227861404418945 -2.5
-12.115248680114746 -14.838485717773438 -2.4275424480438232
-7.941679954528809 -16.73674774169922 -2.347599983215332
-4.640342712402344 -16.020336151123047 -2.1136019229888916
-3.2684130668640137 -16.009735107421875 -2.0706562995910645
-2.232985734939575 -18.39029312133789 -2.347599983215332
-0.7459374666213989 -18.510345458984375 -2.347599983215332
1.527539610862732 -12.580405235290527 -1.6059430837631226
2.567584753036499 -12.576849937438965 -1.6266568899154663
3.648895740509033 -12.59743595123291 -1.6620107889175415
6.494752883911133 -17.125253677368164 -2.32099986076355
7.941679954528809 -16.73674774169922 -2.347599983215332
9.26268196105957 -16.043437957763672 -2.347599983215332
9.195772171020508 -13.322367668151855 -2.0513863563537598
12.013595581054688 -14.713994026184082 -2.4071743488311768
13.666051864624023 -14.22787094116211 -2.5
15.771395683288574 -11.85142993927002 -2.5
17.468263626098633 -9.168046951293945 -2.5
18.71271514892578 -6.24722146987915 -2.5
19.154726028442383 -4.721225261688232 -2.5
19.66401481628418 -1.5874462127685547 -2.5
-18.116058349609375 1.4648437172581907e-05 -2.5
-18.057310104370117 -1.4577343463897705 -2.5
-17.88145637512207 -2.906020402908325 -2.5
-17.589630126953125 -4.335468769073486 -2.5
-17.183740615844727 -5.736777305603027 -2.5
-16.666399002075195 -7.100873947143555 -2.5
-14.482748985290527 -10.883075714111328 -2.5
-12.549434661865234 -13.065346717834473 -2.5
-11.457414627075195 -14.032787322998047 -2.5
-10.215757369995117 -14.800077438354492 -2.481698513031006
-8.542277336120605 -14.795634269714355 -2.357651710510254
-7.292784214019775 -15.369233131408691 -2.347599983215332
-5.918256759643555 -15.6051607131958 -2.3031678199768066
-4.613631725311279 -15.928095817565918 -2.2884140014648438
-3.249598979949951 -15.917563438415527 -2.241917133331299
-2.050534725189209 -16.88766098022461 -2.347599983215332
-0.6849914193153381 -16.997909545898438 -2.347599983215332
1.5265215635299683 -12.572026252746582 -1.747671365737915
2.566387176513672 -12.570985794067383 -1.7705669403076172
3.645266532897949 -12.584921836853027 -1.8080947399139404
7.292782306671143 -15.369223594665527 -2.347599983215332
13.560060501098633 -12.01317310333252 -2.5
15.311508178710938 -9.682416915893555 -2.5
17.18374252319336 -5.736767292022705 -2.5
17.58963394165039 -4.335458755493164 -2.5
18.05731201171875 -1.4577343463897705 -2.5
-16.743759155273438 1.4648437172581907e-05 -2.5
-16.689464569091797 -1.3473095893859863 -2.5
-15.88206958770752 -5.302202224731445 -2.5
-14.825861930847168 -7.781215667724609 -2.5
-13.385673522949219 -10.058676719665527 -2.5
-12.532879829406738 -11.103168487548828 -2.5
-9.511541366577148 -13.779838562011719 -2.5
-3.1450188159942627 -15.405306816101074 -2.347599983215332
-1.8952056169509888 -15.60842227935791 -2.347599983215332
1.5272918939590454 -12.578364372253418 -1.8918613195419312
3.6392180919647217 -12.5640230178833 -1.9530364274978638
5.585257053375244 -14.727118492126465 -2.3517208099365234
6.979778289794922 -14.709579467773438 -2.430989980697632
8.35886287689209 -14.477972984313965 -2.4961130619049072
10.589509010314941 -12.969799041748047 -2.5
13.3856782913208 -10.058676719665527 -2.5
15.403918266296387 -6.56298303604126 -2.5
15.882097244262695 -5.302211761474609 -2.5
16.25721549987793 -4.007050514221191 -2.5
16.689464569091797 -1.3473095893859863 -2.5
-15.561088562011719 1.4648437172581907e-05 -2.5
-15.359577178955078 -2.4961814880371094 -2.5
-11.647636413574219 -10.318910598754883 -2.5
-10.779542922973633 -11.222700119018555 -2.5
-9.841535568237305 -12.053706169128418 -2.5
-6.6709184646606445 -14.058676719665527 -2.5
-5.50881814956665 -14.525580406188965 -2.4958252906799316
-4.264898777008057 -14.724135398864746 -2.462772846221924
-3.0056915283203125 -14.7228364944458 -2.414116382598877
-1.7871874570846558 -14.718793869018555 -2.382047414779663
-0.5932543873786926 -14.721440315246582 -2.3670246601104736
5.507780075073242 -14.5228271484375 -2.4953529834747314
8.83970832824707 -12.806523323059082 -2.5
9.841537475585938 -12.053690910339355 -2.5
12.440204620361328 -9.348193168640137 -2.5
13.778656959533691 -7.231591701507568 -2.5
14.31588363647461 -6.099423885345459 -2.5
15.10891056060791 -3.724013566970825 -2.5
15.359577178955078 -2.4961767196655273 -2.5
15.510631561279297 -1.2521483898162842 -2.5
-14.53105640411377 9.765624781721272e-06 -2.5
-13.78323745727539 -4.601523399353027 -2.5
-12.866612434387207 -6.752914905548096 -2.5
-12.281500816345215 -7.766366958618164 -2.5
-10.87664794921875 -9.635873794555664 -2.5
-10.06601333618164 -10.479833602905273 -2.5
-7.265531063079834 -12.58426284790039 -2.5
-5.152782917022705 -13.586776733398438 -2.5
-4.042793273925781 -13.957343101501465 -2.5
-2.9065849781036377 -14.23739242553711 -2.5
-1.7496179342269897 -14.409394264221191 -2.4972755908966064
-0.5841259360313416 -14.49501895904541 -2.4958243370056152
1.5258623361587524 -12.566601753234863 -2.1779048442840576
3.6384832859039307 -12.561484336853027 -2.249978542327881
5.152782440185547 -13.586771965026855 -2.5
6.229351043701172 -13.12808609008789 -2.5
7.265527725219727 -12.584257125854492 -2.5
8.254583358764648 -11.958823204040527 -2.5
9.190093994140625 -11.255820274353027 -2.5
10.06601333618164 -10.479838371276855 -2.5
13.78323745727539 -4.601518630981445 -2.5
14.108808517456055 -3.4775097370147705 -2.5
14.342883110046387 -2.330947160720825 -2.5
14.48393726348877 -1.1692626476287842 -2.5
-13.625675201416016 9.765624781721272e-06 -2.5
-13.581487655639648 -1.096411108970642 -2.5
-13.449223518371582 -2.1857128143310547 -2.5
-13.229732513427734 -3.2608447074890137 -2.5
-12.535341262817383 -5.340805530548096 -2.5
-12.064936637878418 -6.332079887390137 -2.5
-11.516279220581055 -7.282455921173096 -2.5
-10.198959350585938 -9.035492897033691 -2.5
-9.438831329345703 -9.826874732971191 -2.5
-8.617491722106934 -10.554516792297363 -2.5
-7.740265846252441 -11.213706016540527 -2.5
-4.831727504730225 -12.74022388458252 -2.5
-2.725486993789673 -13.350302696228027 -2.5
-1.6423944234848022 -13.526323318481445 -2.5
0.5066558718681335 -12.572558403015137 -2.308649778366089
1.6423944234848022 -13.526317596435547 -2.5
2.7254889011383057 -13.350312232971191 -2.5
3.7909038066864014 -13.087709426879883 -2.5
4.831732749938965 -12.740219116210938 -2.5
5.8411688804626465 -12.3101167678833 -2.5
6.812836170196533 -11.800175666809082 -2.5
7.740267753601074 -11.213706016540527 -2.5
8.617491722106934 -10.554511070251465 -2.5
12.535341262817383 -5.340805530548096 -2.5
12.924448013305664 -4.314809322357178 -2.5
13.449220657348633 -2.185717821121216 -2.5
13.581486701965332 -1.0964159965515137 -2.5
-12.82344913482666 1.4648437172581907e-05 -2.5
-12.450819969177246 -3.068862199783325 -2.5
-12.163509368896484 -4.060771465301514 -2.5
-10.25161075592041 -7.703583717346191 -2.5
-9.598485946655273 -8.503520011901855 -2.5
-7.28455114364624 -10.55349063873291 -2.5
-6.411726951599121 -11.105429649353027 -2.5
-2.5650224685668945 -12.564291954040527 -2.5
-0.5163476467132568 -12.8130464553833 -2.5
0.5163488388061523 -12.8130464553833 -2.5
5.497312545776367 -11.58535099029541 -2.5
7.28455114364624 -10.553485870361328 -2.5
9.59848690032959 -8.503515243530273 -2.5
10.251618385314941 -7.703588485717773 -2.5
10.838252067565918 -6.853691101074219 -2.5
11.354598999023438 -5.95934534072876 -2.5
11.797311782836914 -5.026362419128418 -2.5
12.163508415222168 -4.060771465301514 -2.5
12.450822830200195 -3.068862199783325 -2.5
12.657384872436523 -2.0570263862609863 -2.5
-12.107511520385742 1.4648437172581907e-05 -2.5
-11.950723648071289 -1.9421825408935547 -2.5
-11.138664245605469 -4.745741844177246 -2.5
-10.720670700073242 -5.626655101776123 -2.5
-10.233148574829102 -6.471054553985596 -2.5
-9.6792631149292 -7.273496150970459 -2.5
-9.062602043151855 -8.028764724731445 -2.5
-7.657336235046387 -9.378544807434082 -2.5
-6.0537590980529785 -10.4854097366333 -2.5
-4.293381690979004 -11.320722579956055 -2.5
-3.3685264587402344 -11.62948226928711 -2.5
-2.421818256378174 -11.86282730102539 -2.5
-0.4875195324420929 -12.097695350646973 -2.5
2.4218194484710693 -11.862821578979492 -2.5
3.368525981903076 -11.62948226928711 -2.5
4.2933831214904785 -11.320717811584473 -2.5
6.0537590980529785 -10.4854097366333 -2.5
6.8778557777404785 -9.964286804199219 -2.5
8.38715648651123 -8.73196792602539 -2.5
9.062602996826172 -8.028769493103027 -2.5
10.233148574829102 -6.471054553985596 -2.5
11.138664245605469 -4.745732307434082 -2.5
11.950722694396973 -1.9421825408935547 -2.5
12.068256378173828 -0.9742528796195984 -2.5
-11.427339553833008 -0.9225097298622131 -2.5
-8.581305503845215 -7.602382659912109 -2.5
-7.941745281219482 -8.268237113952637 -2.5
-5.732255935668945 -9.928559303283691 -2.5
-3.189628839492798 -11.01186466217041 -2.5
-2.293203115463257 -11.232827186584473 -2.5
-0.4616302251815796 -11.455214500427246 -2.5
0.4616290032863617 -11.455214500427246 -2.5
1.3818963766098022 -11.380922317504883 -2.5
3.1896331310272217 -11.01187515258789 -2.5
4.065371513366699 -10.71950626373291 -2.5
4.9147491455078125 -10.357626914978027 -2.5
6.512587070465088 -9.435097694396973 -2.5
7.941749572753906 -8.268237113952637 -2.5
9.16522216796875 -6.887211799621582 -2.5
10.547114372253418 -4.493691444396973 -2.5
11.131376266479492 -2.7436375617980957 -2.5
11.316057205200195 -1.8390331268310547 -2.5
11.42734146118164 -0.92249995470047 -2.5
-10.883708000183105 4.882812390860636e-06 -2.5
-10.5674409866333 -2.6046483516693115 -2.5
-10.323588371276855 -3.4465136528015137 -2.5
-9.637039184570312 -5.057905197143555 -2.5
-9.198793411254883 -5.816972732543945 -2.5
-8.146563529968262 -7.217231273651123 -2.5
-6.883345127105713 -8.430571556091309 -2.5
-6.182648658752441 -8.957109451293945 -2.5
-5.441853046417236 -9.425551414489746 -2.5
-3.859412670135498 -10.176435470581055 -2.5
-3.02803635597229 -10.453989028930664 -2.5
-2.1770219802856445 -10.663744926452637 -2.5
-0.4382403492927551 -10.874882698059082 -2.5
3.0280375480651855 -10.453984260559082 -2.5
3.8594133853912354 -10.176430702209473 -2.5
5.4418559074401855 -9.42556095123291 -2.5
6.8833465576171875 -8.43056583404541 -2.5
8.146566390991211 -7.217231273651123 -2.5
9.637041091918945 -5.057905197143555 -2.5
10.323588371276855 -3.4465184211730957 -2.5
10.848407745361328 -0.8757714629173279 -2.5
-10.322772979736328 -0.8333349227905273 -2.5
-9.823381423950195 -3.2795214653015137 -2.5
-9.170096397399902 -4.812836647033691 -2.5
-8.753084182739258 -5.535117149353027 -2.5
-8.279312133789062 -6.221498966217041 -2.5
-7.751842021942139 -6.867534160614014 -2.5
-5.883080959320068 -8.523115158081055 -2.5
-5.178179740905762 -8.968867301940918 -2.5
-3.672415018081665 -9.683359146118164 -2.5
-2.8813226222991943 -9.947465896606445 -2.5
-2.071539878845215 -10.147065162658691 -2.5
-0.41700559854507446 -10.3479585647583 -2.5
0.4170098900794983 -10.3479585647583 -2.5
1.2483221292495728 -10.280844688415527 -2.5
2.0715410709381104 -10.147055625915527 -2.5
2.881321430206299 -9.947461128234863 -2.5
4.4396891593933105 -9.356454849243164 -2.5
5.883081436157227 -8.52310562133789 -2.5
6.5498270988464355 -8.022079467773438 -2.5
7.751842498779297 -6.867534160614014 -2.5
8.753087997436523 -5.535121917724609 -2.5
9.52763557434082 -4.059335708618164 -2.5
-9.843279838562012 -0.794628918170929 -2.5
-9.58834171295166 -2.3633153438568115 -2.5
-9.367082595825195 -3.127197265625 -2.5
-9.085074424743652 -3.8707714080810547 -2.5
-8.346502304077148 -5.278017520904541 -2.5
-7.391768455505371 -6.548534870147705 -2.5
-6.245585918426514 -7.649462699890137 -2.5
-4.937652587890625 -8.552260398864746 -2.5
-4.233465194702148 -8.921845436096191 -2.5
-2.747485399246216 -9.485404968261719 -2.5
-1.9753167629241943 -9.675726890563965 -2.5
-1.1903362274169922 -9.803300857543945 -2.5
-0.3976373076438904 -9.867294311523438 -2.5
0.3976379334926605 -9.867294311523438 -2.5
1.1903350353240967 -9.803290367126465 -2.5
4.23346471786499 -8.92184066772461 -2.5
4.937653064727783 -8.552250862121582 -2.5
5.609813690185547 -8.127202033996582 -2.5
6.840859889984131 -7.122089862823486 -2.5
7.894740581512451 -5.932504653930664 -2.5
9.085077285766602 -3.8707761764526367 -2.5
9.367084503173828 -3.1271824836730957 -2.5
9.843280792236328 -0.794628918170929 -2.5
-9.434603691101074 4.882812390860636e-06 -2.5
-9.404009819030762 -0.7591650485992432 -2.5
-9.31242561340332 -1.5134179592132568 -2.5
-9.160446166992188 -2.2578516006469727 -2.5
-8.94906234741211 -2.9876365661621094 -2.5
-8.67963981628418 -3.6980419158935547 -2.5
-7.97402811050415 -5.042470455169678 -2.5
-7.061898231506348 -6.256293773651123 -2.5
-5.966867446899414 -7.308090686798096 -2.5
-5.3594651222229 -7.7645263671875 -2.5
-4.7172980308532715 -8.170599937438965 -2.5
-4.044541358947754 -8.523695945739746 -2.5
-3.3455560207366943 -8.821508407592773 -2.5
0.3798931837081909 -9.426947593688965 -2.5
1.1372162103652954 -9.365805625915527 -2.5
1.887164831161499 -9.243926048278809 -2.5
2.6248748302459717 -9.06209945678711 -2.5
3.345553398132324 -8.821503639221191 -2.5
4.7173004150390625 -8.170595169067383 -2.5
5.966867923736572 -7.308080673217773 -2.5
6.5355753898620605 -6.804252624511719 -2.5
7.061896324157715 -6.256298542022705 -2.5
8.949063301086426 -2.9876317977905273 -2.5
9.16044807434082 -2.2578465938568115 -2.5
9.312424659729004 -1.5134179592132568 -2.5
9.404006958007812 -0.7591601610183716 -2.5
-9.02928352355957 4.882812390860636e-06 -2.5
-8.766901016235352 -2.1608543395996094 -2.5
-8.56459903717041 -2.8592772483825684 -2.5
-7.995028018951416 -4.196108341217041 -2.5
-7.6314520835876465 -4.825844764709473 -2.5
-7.218388557434082 -5.424267292022705 -2.5
-6.254798412322998 -6.511938095092773 -2.5
-3.8707804679870605 -8.157500267028809 -2.5
0.36357298493385315 -9.021957397460938 -2.5
1.0883599519729614 -8.9634370803833 -2.5
6.254798889160156 -6.511938095092773 -2.5
7.218391418457031 -5.424262523651123 -2.5
7.6314544677734375 -4.825844764709473 -2.5
7.995030879974365 -4.196113109588623 -2.5
8.30675220489502 -3.5391697883605957 -2.5
8.56459903717041 -2.8592772483825684 -2.5
8.91235065460205 -1.4483983516693115 -2.5
8.999998092651367 -0.7265527248382568 -2.5
-8.655158042907715 0.0 -2.5
-8.627087593078613 -0.6964501738548279 -2.5
-8.209722518920898 -2.7408103942871094 -2.5
-7.642723083496094 -4.011206150054932 -2.4931387901306152
-6.47847318649292 -5.739433288574219 -2.5
-5.99563455581665 -6.242114067077637 -2.5
-4.916687965393066 -7.123051643371582 -2.5
-4.327578544616699 -7.495580673217773 -2.5
-3.069157123565674 -8.092704772949219 -2.5
-2.4080145359039307 -8.313432693481445 -2.5
-1.73125422000885 -8.480234146118164 -2.5
1.043263554573059 -8.592050552368164 -2.5
3.0691583156585693 -8.092704772949219 -2.5
3.710397243499756 -7.819497108459473 -2.5
4.327578544616699 -7.495571136474609 -2.5
4.916689872741699 -7.123046875 -2.5
5.473911762237549 -6.704320907592773 -2.5
6.9193010330200195 -5.199506759643555 -2.5
7.663760185241699 -4.02224588394165 -2.5
7.96256160736084 -3.392534017562866 -2.5
8.209733009338379 -2.740800619125366 -2.5
8.543070793151855 -1.3883837461471558 -2.5
-8.30867862701416 4.882812390860636e-06 -2.5
-8.201083183288574 -1.3328075408935547 -2.5
-8.067238807678223 -1.9883984327316284 -2.5
-7.356969356536865 -3.8612353801727295 -2.5
-4.154338836669922 -7.195527076721191 -2.5
-3.56186580657959 -7.506479263305664 -2.5
-1.0014996528625488 -8.248095512390137 -2.5
-0.3345562815666199 -8.3019380569458 -2.5
0.3345580995082855 -8.3019380569458 -2.5
1.6619513034820557 -8.140756607055664 -2.5
2.3116228580474854 -7.980624675750732 -2.5
3.5618646144866943 -7.506474494934082 -2.5
4.154338836669922 -7.195522308349609 -2.5
7.022413730621338 -4.44070291519165 -2.5
7.356966972351074 -3.8612303733825684 -2.5
8.201080322265625 -1.3328075408935547 -2.5
8.28173542022705 -0.6685693264007568 -2.5
-7.986817359924316 9.765624781721272e-06 -2.5
-7.960914134979248 -0.6426659822463989 -2.5
-7.88338565826416 -1.2811766862869263 -2.5
-7.7547287940979 -1.9113671779632568 -2.5
-6.3849992752075195 -4.798012733459473 -2.5
-5.051220417022705 -6.186630725860596 -2.5
-4.537027359008789 -6.573012351989746 -2.5
-3.423884868621826 -7.215683460235596 -2.5
-2.832162380218506 -7.467797756195068 -2.5
-2.2220726013183594 -7.671474456787109 -2.5
-1.5975695848464966 -7.825405120849609 -2.5
-0.3215954601764679 -7.980336666107178 -2.5
2.2220733165740967 -7.671469688415527 -2.5
2.832162380218506 -7.467797756195068 -2.5
3.4238836765289307 -7.215688228607178 -2.5
3.993406295776367 -6.916772365570068 -2.5
5.0512213706970215 -6.186625957489014 -2.5
7.071971893310547 -3.7116503715515137 -2.5
7.347705364227295 -3.130556583404541 -2.5
7.575784206390381 -2.529165029525757 -2.5
7.960914611816406 -0.6426708698272705 -2.5
-7.662038326263428 -0.6185400485992432 -2.5
-7.071848392486572 -3.0130224227905273 -2.5
-5.753771781921387 -5.097397327423096 -2.5
-5.324946403503418 -5.543857097625732 -2.5
-4.8615851402282715 -5.954360008239746 -2.5
-4.366694927215576 -6.326244831085205 -2.5
-2.1386499404907227 -7.383466720581055 -2.5
-1.5375921726226807 -7.5316162109375 -2.5
-0.926562488079071 -7.630912780761719 -2.5
1.5375933647155762 -7.531606197357178 -2.5
2.7258355617523193 -7.187431335449219 -2.5
3.295342445373535 -6.944789886474609 -2.5
4.8615827560424805 -5.954360008239746 -2.5
5.324944496154785 -5.543857097625732 -2.5
5.7537760734558105 -5.097402095794678 -2.5
6.496944904327393 -4.108417987823486 -2.5
6.8064703941345215 -3.5723047256469727 -2.5
7.463593006134033 -1.8396093845367432 -2.5
7.58742094039917 -1.2330760955810547 -2.5
-7.406874656677246 4.882812390860636e-06 -2.5
-7.382856369018555 -0.5960009694099426 -2.5
-7.1916422843933105 -1.7725781202316284 -2.5
-6.260215759277344 -3.9587206840515137 -2.5
-5.544122695922852 -4.911660194396973 -2.5
-4.684442520141602 -5.737397193908691 -2.5
-4.207584857940674 -6.095736980438232 -2.5
-3.175269603729248 -6.691742897033691 -2.5
-2.6265130043029785 -6.925541877746582 -2.5
-2.0607213973999023 -7.114438533782959 -2.5
-1.481566071510315 -7.257182598114014 -2.5
1.4815679788589478 -7.257177352905273 -2.5
2.626514196395874 -6.925541877746582 -2.5
3.703436851501465 -6.414521217346191 -2.5
4.684441566467285 -5.737402439117432 -2.5
5.544122695922852 -4.911660194396973 -2.5
5.921372413635254 -4.449618816375732 -2.5
6.558462142944336 -3.442138671875 -2.5
6.814174175262451 -2.9032373428344727 -2.5
7.025692462921143 -2.345512628555298 -2.5
7.191644668579102 -1.7725781202316284 -2.5
-7.144588947296143 9.765624781721272e-06 -2.5
-6.776904106140137 -2.262455940246582 -2.5
-6.038533687591553 -3.818544864654541 -2.5
-5.711689472198486 -4.292055606842041 -2.5
-5.347800254821777 -4.737743854522705 -2.5
-4.518560886383057 -5.534233093261719 -2.5
-3.0628302097320557 -6.454784870147705 -2.5
-0.8611853122711182 -7.092494964599609 -2.5
1.4291057586669922 -7.000195026397705 -2.5
1.9877532720565796 -6.862504959106445 -2.5
3.06282901763916 -6.454775333404541 -2.5
3.5722930431365967 -6.187392234802246 -2.5
4.058590412139893 -5.879872798919678 -2.5
5.711691379547119 -4.292050838470459 -2.5
6.038534641265869 -3.818535089492798 -2.5
6.572876453399658 -2.8004345893859863 -2.5
6.936980247497559 -1.7098095417022705 -2.5
7.121419906616211 -0.5748925805091858 -2.5
-6.898412704467773 0.0 -2.5
-6.876039981842041 -0.5550927519798279 -2.5
-6.697954177856445 -1.6508984565734863 -2.5
-6.346395015716553 -2.7039403915405273 -2.5
-6.108238220214844 -3.2058544158935547 -2.5
-5.514883995056152 -4.1441650390625 -2.5
-5.163531303405762 -4.574487209320068 -2.5
-4.3628668785095215 -5.343539714813232 -2.5
-3.918743848800659 -5.677279949188232 -2.5
-3.4492058753967285 -5.974194049835205 -2.5
-2.446208953857422 -6.450121879577637 -2.5
-1.3798601627349854 -6.758998870849609 -2.5
-0.8315117955207825 -6.848114967346191 -2.5
1.3798614740371704 -6.758989334106445 -2.5
1.9192620515823364 -6.626044750213623 -2.5
2.957294225692749 -6.232363224029541 -2.5
3.4492034912109375 -5.974189281463623 -2.5
5.16353178024292 -4.574487209320068 -2.5
5.83046817779541 -3.686957836151123 -2.5
6.543395042419434 -2.184501886367798 -2.5
6.876041889190674 -0.5550878643989563 -2.5
-6.645223140716553 -0.5364550948143005 -2.5
-6.580508232116699 -1.0694384574890137 -2.5
-5.63474702835083 -3.5632030963897705 -2.5
-5.329756736755371 -4.005048751831055 -2.5
-4.618281841278076 -4.808144569396973 -2.5
-4.216415882110596 -5.164165019989014 -2.5
-3.333421468734741 -5.773652076721191 -2.5
-2.3640947341918945 -6.233608245849609 -2.5
-1.3335399627685547 -6.532114028930664 -2.5
1.8548345565795898 -6.403617858886719 -2.5
2.8580217361450195 -6.023163795471191 -2.5
4.2164130210876465 -5.164165019989014 -2.5
4.618281841278076 -4.808144569396973 -2.5
5.329758644104004 -4.005048751831055 -2.5
5.634744167327881 -3.5631933212280273 -2.5
6.133359909057617 -2.613173723220825 -2.5
6.3237433433532715 -2.1111717224121094 -2.5
6.473113059997559 -1.5954785346984863 -2.5
6.580504417419434 -1.069433569908142 -2.5
6.645223617553711 -0.536450207233429 -2.5
-6.448564529418945 4.882812390860636e-06 -2.5
-6.427653789520264 -0.5188866853713989 -2.5
-6.365057468414307 -1.0344189405441284 -2.5
-6.261178970336914 -1.543237328529358 -2.5
-4.467074871063232 -4.650722503662109 -2.5
-4.078362464904785 -4.995092868804932 -2.5
-3.224282741546631 -5.584619045257568 -2.5
-2.7644500732421875 -5.825961589813232 -2.5
-2.286691188812256 -6.029516696929932 -2.5
-1.2898796796798706 -6.3182373046875 -2.5
-0.7772887945175171 -6.401542663574219 -2.5
1.7941045761108398 -6.19396448135376 -2.5
2.2866899967193604 -6.029501914978027 -2.5
2.7644476890563965 -5.825952053070068 -2.5
3.22428035736084 -5.584619045257568 -2.5
5.155256748199463 -3.8739209175109863 -2.5
5.45026159286499 -3.446537971496582 -2.5
5.7099199295043945 -2.9967918395996094 -2.5
6.2611823081970215 -1.543237328529358 -2.5
-6.222177505493164 -0.5023046731948853 -2.5
-6.161581993103027 -1.0013574361801147 -2.5
-6.061025142669678 -1.4939160346984863 -2.5
-5.921163082122803 -1.976772427558899 -2.5
-5.527388572692871 -2.900991201400757 -2.5
-5.27603006362915 -3.33636212348938 -2.5
-4.32427453994751 -4.502050876617432 -2.5
-3.947988271713257 -4.835405349731445 -2.5
-3.121210813522339 -5.406093597412109 -2.5
-1.736751675605774 -5.995952129364014 -2.5
-1.2486462593078613 -6.116264343261719 -2.5
0.25135740637779236 -6.237353324890137 -2.5
1.2486443519592285 -6.116259574890137 -2.5
2.2135918140411377 -5.836762428283691 -2.5
3.1212103366851807 -5.406088829040527 -2.5
3.9479899406433105 -4.835405349731445 -2.5
4.324274063110352 -4.502045631408691 -2.5
4.672517776489258 -4.139487266540527 -2.5
4.9904584884643555 -3.7500829696655273 -2.5
6.061028480529785 -1.4939111471176147 -2.5
6.1615824699401855 -1.0013574361801147 -2.5
6.222179412841797 -0.5022997856140137 -2.5
-6.027765274047852 -0.4866113066673279 -2.5
-5.111178398132324 -3.23211407661438 -2.5
-4.189162731170654 -4.361386775970459 -2.5
-3.8246335983276367 -4.684326171875 -2.5
-3.4353020191192627 -4.976894378662109 -2.5
-2.592463970184326 -5.463505744934082 -2.5
-2.1444268226623535 -5.654394626617432 -2.5
-1.6824859380722046 -5.808608055114746 -2.5
0.7289324998855591 -6.003285884857178 -2.5
2.5924627780914307 -5.4635009765625 -2.5
3.4353020191192627 -4.976884841918945 -2.5
3.824631929397583 -4.684321403503418 -2.5
4.834529399871826 -3.6329100131988525 -2.5
5.563464641571045 -2.370366096496582 -2.5
5.736155033111572 -1.915004849433899 -2.5
5.871649742126465 -1.447231411933899 -2.5
5.969061851501465 -0.9700683355331421 -2.5
6.027766704559326 -0.4866064488887787 -2.5
-5.862521648406982 4.882812390860636e-06 -2.5
-5.843508243560791 -0.4717333912849426 -2.5
-5.393394470214844 -2.297910213470459 -2.5
-5.191000938415527 -2.7244482040405273 -2.5
-4.686746120452881 -3.521865129470825 -2.5
-4.388155937194824 -3.887568235397339 -2.5
-4.061107635498047 -4.228061199188232 -2.5
-3.707721471786499 -4.541132926940918 -2.5
-2.5132172107696533 -5.296494007110596 -2.5
-1.6310558319091797 -5.631049633026123 -2.5
-0.7066479325294495 -5.819775104522705 -2.5
-0.23605956137180328 -5.857763767242432 -2.5
0.23606017231941223 -5.857763767242432 -2.5
0.7066497802734375 -5.819775104522705 -2.5
1.6310564279556274 -5.631049633026123 -2.5
3.707721471786499 -4.5411376953125 -2.5
4.388158321380615 -3.887568235397339 -2.5
4.686748504638672 -3.521855354309082 -2.5
4.954941749572754 -3.133315324783325 -2.5
5.19100284576416 -2.7244482040405273 -2.5
5.393396377563477 -2.297905206680298 -2.5
5.692163467407227 -1.402993083000183 -2.5
5.843510150909424 -0.4717333912849426 -2.5
-5.68702507019043 4.882812390860636e-06 -2.5
-5.668581962585449 -0.4576171636581421 -2.5
-5.521767616271973 -1.3609960079193115 -2.5
-5.394349098205566 -1.8008935451507568 -2.5
-5.231944561004639 -2.229120969772339 -2.5
-5.035608291625977 -2.642890453338623 -2.5
-4.806614398956299 -3.0395214557647705 -2.5
-4.546448230743408 -3.416435480117798 -2.5
-3.939537763595581 -4.101493835449219 -2.5
-3.596730947494507 -4.405195236206055 -2.5
-2.8435137271881104 -4.925102233886719 -2.5
-2.437990665435791 -5.137944221496582 -2.5
-2.0166449546813965 -5.317455768585205 -2.5
-1.582230806350708 -5.462485313415527 -2.5
-1.1375524997711182 -5.572089672088623 -2.5
-0.6854943633079529 -5.645556449890137 -2.5
0.6854956150054932 -5.645556449890137 -2.5
1.1375519037246704 -5.572084903717041 -2.5
2.437981605529785 -5.137939453125 -2.5
3.596731424331665 -4.405200004577637 -2.5
4.256796360015869 -3.771186351776123 -2.5
4.806614398956299 -3.0395164489746094 -2.5
5.035609722137451 -2.642885684967041 -2.5
5.2319464683532715 -2.229120969772339 -2.5
5.521766662597656 -1.3609912395477295 -2.5
5.613377094268799 -0.9122607111930847 -2.5
-5.359750747680664 -1.3210595846176147 -2.5
-5.23607063293457 -1.7480517625808716 -2.5
-5.078431129455566 -2.163710832595825 -2.5
-4.887858867645264 -2.5653417110443115 -2.5
-4.665582656860352 -2.9503417015075684 -2.5
-4.413051128387451 -3.3161864280700684 -2.5
-3.491199254989624 -4.275937557220459 -2.5
-3.135807514190674 -4.543002605438232 -2.5
-2.7600817680358887 -4.780590534210205 -2.5
-1.9574743509292603 -5.161440372467041 -2.5
-1.5358043909072876 -5.302211761474609 -2.5
-1.1041735410690308 -5.40859842300415 -2.5
-0.6653814315795898 -5.479911804199219 -2.5
-0.2222735583782196 -5.515683650970459 -2.5
0.2222747802734375 -5.515683650970459 -2.5
0.6653826832771301 -5.479911804199219 -2.5
1.1041754484176636 -5.408588886260986 -2.5
1.5357805490493774 -5.302206993103027 -2.5
2.366448402404785 -4.987187385559082 -2.5
2.7600810527801514 -4.780595779418945 -2.5
4.665582656860352 -2.9503369331359863 -2.5
4.887856960296631 -2.5653369426727295 -2.5
5.448672294616699 -0.8854882717132568 -2.5
-5.361270427703857 4.882812390860636e-06 -2.5
-5.205479145050049 -1.2830419540405273 -2.5
-5.085358619689941 -1.6977441310882568 -2.5
-4.531290054321289 -2.865410089492798 -2.5
-4.286027431488037 -3.2207372188568115 -2.5
-4.012966156005859 -3.555180549621582 -2.5
-3.3907084465026855 -4.152865886688232 -2.5
-3.0455479621887207 -4.412236213684082 -2.5
-2.680635929107666 -4.642988204956055 -2.5
-2.2983336448669434 -4.843637466430664 -2.5
-1.0723931789398193 -5.252924919128418 -2.5
0.2158776819705963 -5.356923580169678 -2.5
1.072371244430542 -5.252919673919678 -2.5
1.4915984869003296 -5.149589538574219 -2.5
2.2983343601226807 -4.843632698059082 -2.5
2.680634021759033 -4.642988204956055 -2.5
3.39070987701416 -4.152865886688232 -2.5
3.713881254196167 -3.8665575981140137 -2.5
4.012966632843018 -3.55517578125 -2.5
4.28602933883667 -3.2207372188568115 -2.5
4.531289577484131 -2.86541485786438 -2.5
4.93225622177124 -2.101430654525757 -2.5
5.291841506958008 -0.85999995470047 -2.5
5.3438849449157715 -0.431396484375 -2.5
