ply
format ascii 1.0
element vertex 722
property float x
property float y
property float z
end_header
2.059814453125 -16.963905334472656 4.376489162445068
16.765668869018555 -17.454931259155273 6.198465347290039
10.033320426940918 -7.53954553604126 3.066453695297241
9.875946998596191 -6.245170593261719 2.854984760284424
2.0618650913238525 -16.980741500854492 3.979074001312256
10.233471870422363 -12.53372573852539 3.763969659805298
16.748199462890625 -17.436742782592773 5.624144554138184
9.839296340942383 -10.243793487548828 2.809967517852783
-1.1844823360443115 -29.3928165435791 5.144948482513428
16.705427169799805 -17.392215728759766 4.21780252456665
16.68862533569336 -17.37471580505371 3.665285587310791
16.680280685424805 -17.36603546142578 3.390953302383423
16.66368865966797 -17.348758697509766 2.8454675674438477
16.647218704223633 -17.33161163330078 2.3038487434387207
-1.1967138051986694 -29.69637107849121 2.5172557830810547
16.639022827148438 -17.323076248168945 2.0344057083129883
-1.1956151723861694 -29.66899871826172 2.1838293075561523
16.630849838256836 -17.3145694732666 1.76569664478302
-1.1944042444229126 -29.63892936706543 1.8513845205307007
16.622699737548828 -17.306089401245117 1.4976857900619507
-11.638197898864746 -24.527015686035156 1.3926080465316772
16.61456298828125 -17.297616958618164 1.230267882347107
16.606449127197266 -17.289169311523438 0.9635140895843506
16.59835433959961 -17.280731201171875 0.6972164511680603
16.59026527404785 -17.272319793701172 0.43130889534950256
16.549957275390625 -17.230350494384766 -0.89394211769104
16.541908264160156 -17.22197151184082 -1.158618450164795
-8.202255249023438 -17.285917282104492 -1.1409777402877808
16.533857345581055 -17.21358299255371 -1.423322081565857
-25.411298751831055 -13.336874961853027 -2.350647449493408
-24.22431182861328 -15.318530082702637 -2.347599983215332
-17.886205673217773 -15.845809936523438 -1.957260251045227
-17.39889144897461 -18.11417007446289 -2.0572586059570312
-17.207260131835938 -21.075023651123047 -2.228510618209839
-16.3565616607666 -23.696577072143555 -2.358424663543701
-8.084970474243164 -17.03874397277832 -1.5447595119476318
-10.26504898071289 -27.066722869873047 -2.371068000793457
-5.802787780761719 -28.423919677734375 -2.37617564201355
-3.4989843368530273 -28.816722869873047 -2.377664566040039
3.498906135559082 -28.816137313842773 -2.377615213394165
5.802558422088623 -28.42279815673828 -2.376081943511963
5.901718616485596 -20.37508773803711 -1.7374883890151978
10.264384269714355 -27.06495475769043 -2.3709146976470947
12.390088081359863 -26.11158561706543 -2.3673181533813477
14.424936294555664 -24.98472023010254 -2.3630425930023193
16.354875564575195 -23.694129943847656 -2.3581812381744385
18.070005416870117 -16.00862693786621 -1.9773690700531006
22.913089752197266 -17.218061447143555 -2.347599983215332
-26.86015510559082 4.882812390860636e-06 -2.5
-26.512313842773438 -4.308676719665527 -2.5
-22.167919158935547 -14.018158912658691 -2.4411933422088623
-20.16414451599121 -15.152382850646973 -2.347599983215332
-17.781967163085938 -15.753461837768555 -2.2111284732818604
-14.32815933227539 -20.757925033569336 -2.347599983215332
-12.631684303283691 -21.878700256347656 -2.3513784408569336
-8.085234642028809 -17.039291381835938 -1.755410075187683
-5.932578086853027 -20.481552124023438 -1.9846723079681396
-5.077685356140137 -24.872095108032227 -2.362712860107422
-3.061518430709839 -25.213851928710938 -2.3640081882476807
3.0614843368530273 -25.213579177856445 -2.363981246948242
5.077582836151123 -24.87163543701172 -2.3626670837402344
5.941303730010986 -20.511747360229492 -1.9875991344451904
10.847119331359863 -22.859832763671875 -2.3550503253936768
12.631523132324219 -21.8784122467041 -2.3513476848602295
15.952013969421387 -19.537675857543945 -2.347599983215332
15.834928512573242 -16.48592185974121 -2.1275863647460938
22.687084197998047 -14.346454620361328 -2.4983654022216797
23.78348731994629 -12.48253345489502 -2.5
24.710798263549805 -10.528281211853027 -2.5
26.07964515686035 -6.428081035614014 -2.5
26.512319564819336 -4.308676719665527 -2.5
26.773056030273438 -2.1613426208496094 -2.5
-23.899808883666992 -1.929384708404541 -2.5
-23.667070388793945 -3.8462791442871094 -2.5
-23.280818939208984 -5.738227367401123 -2.5
-12.790483474731445 -18.530223846435547 -2.347599983215332
-8.085566520690918 -17.039989471435547 -1.9665266275405884
-2.7206640243530273 -22.406644821166992 -2.353367567062378
-0.9090771079063416 -22.55841827392578 -2.35394287109375
6.024936199188232 -20.800477981567383 -2.2578887939453125
7.986489295959473 -21.058631896972656 -2.3482561111450195
11.257944107055664 -19.49933624267578 -2.347599983215332
12.790483474731445 -18.530223846435547 -2.347599983215332
14.240073204040527 -17.440921783447266 -2.347599983215332
16.85338592529297 -14.930805206298828 -2.347599983215332
20.265594482421875 -12.815195083618164 -2.5
21.231081008911133 -11.142924308776855 -2.5
22.05887222290039 -9.398398399353027 -2.5
22.743595123291016 -7.592929363250732 -2.5
23.89981460571289 -1.9293944835662842 -2.5
-21.019804000854492 -5.18093729019165 -2.5
-20.534770965576172 -6.855502605438232 -2.5
-18.297426223754883 -11.570605278015137 -2.5
-17.30706024169922 -13.005399703979492 -2.5
-16.189769744873047 -14.3428955078125 -2.497738838195801
-14.143129348754883 -14.724550247192383 -2.357703924179077
-12.857084274291992 -15.747089385986328 -2.347599983215332
-11.548291206359863 -16.7305850982666 -2.347599983215332
-10.16458511352539 -17.605566024780273 -2.347599983215332
-8.085907936096191 -17.04069709777832 -2.178147554397583
-4.066357135772705 -19.9183349609375 -2.347599983215332
-2.4504148960113525 -20.180946350097656 -2.347599983215332
0.6417577862739563 -15.924643516540527 -1.840462565422058
4.066357135772705 -19.9183349609375 -2.347599983215332
5.655927658081055 -19.52653694152832 -2.347599983215332
7.208818435668945 -19.00810432434082 -2.347599983215332
10.164594650268555 -17.605575561523438 -2.347599983215332
11.548291206359863 -16.730571746826172 -2.347599983215332
16.193824768066406 -14.346484184265137 -2.4983649253845215
17.307052612304688 -13.005399703979492 -2.5
20.53476333618164 -6.855512619018555 -2.5
-18.14934539794922 -7.732705116271973 -2.5
-17.46826171875 -9.16805648803711 -2.5
-16.67389678955078 -10.543935775756836 -2.5
-13.666054725646973 -14.22787094116211 -2.5
-10.523603439331055 -15.246068954467773 -2.347599983215332
-9.262680053710938 -16.043437957763672 -2.347599983215332
-6.569184303283691 -17.321514129638672 -2.347599983215332
-5.15408182144165 -17.7939395904541 -2.347599983215332
-2.2329931259155273 -18.39029312133789 -2.347599983215332
0.6417577862739563 -15.924643516540527 -2.019667863845825
3.7055468559265137 -18.150976181030273 -2.347599983215332
5.154077053070068 -17.7939453125 -2.347599983215332
9.262690544128418 -16.043432235717773 -2.347599983215332
12.014941215515137 -14.7156343460083 -2.407442808151245
14.7666015625 -13.08206558227539 -2.5
15.771390914916992 -11.851435661315918 -2.5
16.673891067504883 -10.543935775756836 -2.5
17.46826171875 -9.168042182922363 -2.5
19.47250747680664 -3.164599657058716 -2.5
19.664005279541016 -1.587441325187683 -2.5
-18.11605453491211 4.882812390860636e-06 -2.5
-18.057310104370117 -1.457739233970642 -2.5
-17.881450653076172 -2.906020402908325 -2.5
-17.589637756347656 -4.335468769073486 -2.5
-16.04098129272461 -8.4189453125 -2.5
-15.311503410339355 -9.682416915893555 -2.5
-14.48275375366211 -10.883075714111328 -2.5
-12.549433708190918 -13.065326690673828 -2.5
-10.149819374084473 -14.704550743103027 -2.4656805992126465
-8.505854606628418 -14.73256778717041 -2.347599983215332
-6.032431602478027 -15.906206130981445 -2.347599983215332
-4.732963562011719 -16.340038299560547 -2.347599983215332
-2.050537109375 -16.887664794921875 -2.347599983215332
-0.6849951148033142 -16.997905731201172 -2.347599983215332
1.9201269149780273 -15.813603401184082 -2.1982944011688232
3.402778148651123 -16.667905807495117 -2.347599983215332
6.032431602478027 -15.906210899353027 -2.347599983215332
8.505849838256836 -14.732563018798828 -2.347599983215332
11.457411766052246 -14.032782554626465 -2.5
13.560053825378418 -12.013158798217773 -2.5
15.311508178710938 -9.682412147521973 -2.5
16.04096794128418 -8.4189453125 -2.5
16.66639518737793 -7.100878715515137 -2.5
18.05730628967285 -1.4577441215515137 -2.5
-16.743755340576172 0.0 -2.5
-16.689462661743164 -1.3473193645477295 -2.5
-16.526933670043945 -2.6858885288238525 -2.5
-15.882064819335938 -5.302211761474609 -2.5
-15.403915405273438 -6.56298303604126 -2.5
-14.825859069824219 -7.781220436096191 -2.5
-13.385683059692383 -10.058676719665527 -2.5
-11.598822593688965 -12.075629234313965 -2.5
-10.58951187133789 -12.969799041748047 -2.5
-8.358930587768555 -14.478090286254883 -2.4961345195770264
-4.374438285827637 -15.102274894714355 -2.347599983215332
-3.145024299621582 -15.405302047729492 -2.347599983215332
-0.6331005692481995 -15.710302352905273 -2.347599983215332
0.6331152319908142 -15.710302352905273 -2.347599983215332
1.895205020904541 -15.60842227935791 -2.347599983215332
4.374433517456055 -15.10228443145752 -2.347599983215332
5.585707664489746 -14.728310585021973 -2.3519113063812256
9.511528015136719 -13.779838562011719 -2.5
14.151650428771973 -8.948974609375 -2.5
16.257211685180664 -4.007050514221191 -2.5
16.68946075439453 -1.3473193645477295 -2.5
-15.5106201171875 -1.2521435022354126 -2.5
-15.108905792236328 -3.7240233421325684 -2.5
-14.315888404846191 -6.099418640136719 -2.5
-13.152079582214355 -8.316874504089355 -2.5
-11.6476411819458 -10.318915367126465 -2.5
-10.779555320739746 -11.22269058227539 -2.5
-9.841532707214355 -12.053695678710938 -2.5
-7.780551433563232 -13.476298332214355 -2.5
-6.670903205871582 -14.058671951293945 -2.5
-0.5933007597923279 -14.7227783203125 -2.3672401905059814
1.787329077720642 -14.720004081726074 -2.3822429180145264
5.507826805114746 -14.522944450378418 -2.4953742027282715
7.780541896820068 -13.476293563842773 -2.5
12.440195083618164 -9.348197937011719 -2.5
13.152074813842773 -8.316864967346191 -2.5
14.31588363647461 -6.099418640136719 -2.5
14.760258674621582 -4.927695274353027 -2.5
15.359569549560547 -2.4961767196655273 -2.5
15.510615348815918 -1.2521435022354126 -2.5
-14.4839448928833 -1.1692626476287842 -2.5
-14.342880249023438 -2.3309521675109863 -2.5
-14.108808517456055 -3.4775195121765137 -2.5
-13.78323745727539 -4.601518630981445 -2.5
-13.36827564239502 -5.6956787109375 -2.5
-12.866621017456055 -6.752904891967773 -2.5
-11.616743087768555 -8.729418754577637 -2.5
-10.876649856567383 -9.635873794555664 -2.5
-10.066020011901855 -10.479828834533691 -2.5
-9.19009780883789 -11.255829811096191 -2.5
-7.265522480010986 -12.584257125854492 -2.5
-6.229350566864014 -13.128080368041992 -2.5
-5.152778148651123 -13.586771965026855 -2.5
-2.9065916538238525 -14.237387657165527 -2.5
-1.7496386766433716 -14.409516334533691 -2.4972968101501465
-0.5841357111930847 -14.495136260986328 -2.495845317840576
4.042792797088623 -13.957338333129883 -2.5
5.152768611907959 -13.586771965026855 -2.5
6.229345798492432 -13.128080368041992 -2.5
7.265527248382568 -12.584257125854492 -2.5
10.06600570678711 -10.479838371276855 -2.5
10.8766450881958 -9.635873794555664 -2.5
11.616743087768555 -8.729409217834473 -2.5
12.281498908996582 -7.766347408294678 -2.5
13.783231735229492 -4.601518630981445 -2.5
14.483935356140137 -1.1692675352096558 -2.5
-13.625673294067383 9.765624781721272e-06 -2.5
-13.581488609313965 -1.096411108970642 -2.5
-13.449223518371582 -2.1857128143310547 -2.5
-13.229741096496582 -3.2608397006988525 -2.5
-12.064936637878418 -6.332162857055664 -2.5
-11.516279220581055 -7.282455921173096 -2.5
-10.8929443359375 -8.18551254272461 -2.5
-8.617494583129883 -10.554526329040527 -2.5
-6.812841415405273 -11.800175666809082 -2.5
-3.790903329849243 -13.087699890136719 -2.5
-1.6424022912979126 -13.526323318481445 -2.5
-0.5486523509025574 -13.6146240234375 -2.5
0.5486474633216858 -13.6146240234375 -2.5
1.6423925161361694 -13.526323318481445 -2.5
2.7254881858825684 -13.35030746459961 -2.5
4.831728458404541 -12.74022388458252 -2.5
7.74026346206665 -11.213701248168945 -2.5
11.516279220581055 -7.282455921173096 -2.5
12.064936637878418 -6.332158088684082 -2.5
12.924443244934082 -4.314814567565918 -2.5
13.229731559753418 -3.2608397006988525 -2.5
13.581488609313965 -1.0964062213897705 -2.5
-12.82345199584961 4.882812390860636e-06 -2.5
-12.781865119934082 -1.0318554639816284 -2.5
-12.657387733459473 -2.0570311546325684 -2.5
-12.163515090942383 -4.060771465301514 -2.5
-11.797314643859863 -5.0263671875 -2.5
-11.354598999023438 -5.95934534072876 -2.5
-7.284555435180664 -10.55349063873291 -2.5
-4.547265529632568 -11.990126609802246 -2.5
-2.565019369125366 -12.564287185668945 -2.5
-1.5457030534744263 -12.72994613647461 -2.5
1.545693278312683 -12.72994613647461 -2.5
2.565014600753784 -12.56429672241211 -2.5
3.567704916000366 -12.317152976989746 -2.5
4.547250747680664 -11.99013614654541 -2.5
5.497309684753418 -11.585346221923828 -2.5
6.411718368530273 -11.105424880981445 -2.5
7.284550666809082 -10.55349063873291 -2.5
8.110126495361328 -9.933100700378418 -2.5
8.883105278015137 -9.248310089111328 -2.5
9.598481178283691 -8.503524780273438 -2.5
10.838247299194336 -6.853691101074219 -2.5
11.354598999023438 -5.95934534072876 -2.5
12.163505554199219 -4.060776233673096 -2.5
12.450819969177246 -3.068857431411743 -2.5
12.781865119934082 -1.0318554639816284 -2.5
-12.068251609802246 -0.9742528796195984 -2.5
-11.950727462768555 -1.9421874284744263 -2.5
-11.755688667297363 -2.89751935005188 -2.5
-9.679262161254883 -7.273496150970459 -2.5
-5.190390586853027 -10.938544273376465 -2.5
-3.368535041809082 -11.62948226928711 -2.5
-2.421816349029541 -11.862821578979492 -2.5
-0.4875146448612213 -12.09769058227539 -2.5
0.4875146448612213 -12.09769058227539 -2.5
2.421811580657959 -11.862821578979492 -2.5
3.368520498275757 -11.62948226928711 -2.5
7.657333850860596 -9.3785400390625 -2.5
8.387158393859863 -8.73196792602539 -2.5
9.062592506408691 -8.028764724731445 -2.5
9.6792573928833 -7.273496150970459 -2.5
11.484418869018555 -3.834057569503784 -2.5
11.755688667297363 -2.89751935005188 -2.5
-11.464516639709473 4.882812390860636e-06 -2.5
-11.316054344177246 -1.8390429019927979 -2.5
-11.131376266479492 -2.7436375617980957 -2.5
-10.87451171875 -3.630439281463623 -2.5
-10.547114372253418 -4.493705749511719 -2.5
-10.151323318481445 -5.327826976776123 -2.5
-7.941747665405273 -8.268237113952637 -2.5
-6.512587547302246 -9.435102462768555 -2.5
-5.732255935668945 -9.928564071655273 -2.5
-4.065371036529541 -10.719491958618164 -2.5
-3.189628839492798 -11.01186466217041 -2.5
-1.3818944692611694 -11.380922317504883 -2.5
2.2931981086730957 -11.232816696166992 -2.5
3.189624071121216 -11.011869430541992 -2.5
4.065366268157959 -10.71950626373291 -2.5
4.914751052856445 -10.357611656188965 -2.5
7.250673770904541 -8.880468368530273 -2.5
9.1652193069458 -6.887211799621582 -2.5
10.151312828063965 -5.327817440032959 -2.5
10.547119140625 -4.493691444396973 -2.5
11.427338600158691 -0.9225097298622131 -2.5
-10.883706092834473 4.882812390860636e-06 -2.5
-10.84841251373291 -0.8757763504981995 -2.5
-10.742753982543945 -1.7458642721176147 -2.5
-10.567436218261719 -2.6046483516693115 -2.5
-10.323588371276855 -3.4465184211730957 -2.5
-10.01278305053711 -4.266039848327637 -2.5
-9.637036323547363 -5.057909965515137 -2.5
-9.198798179626465 -5.816947937011719 -2.5
-7.539409160614014 -7.849350452423096 -2.5
-5.441845417022705 -9.42556095123291 -2.5
-3.8594138622283936 -10.176435470581055 -2.5
-3.0280418395996094 -10.453984260559082 -2.5
-2.1770215034484863 -10.663740158081055 -2.5
-1.3118896484375 -10.804349899291992 -2.5
-0.4382421672344208 -10.874873161315918 -2.5
0.4382373094558716 -10.874873161315918 -2.5
1.3118847608566284 -10.80434513092041 -2.5
3.8594090938568115 -10.176430702209473 -2.5
5.441850662231445 -9.42556095123291 -2.5
6.18264627456665 -8.957104682922363 -2.5
6.883344650268555 -8.430571556091309 -2.5
8.700888633728027 -6.538295745849609 -2.5
10.01278305053711 -4.266039848327637 -2.5
10.742753982543945 -1.7458691596984863 -2.5
-10.35635757446289 0.0 -2.5
-10.322772979736328 -0.8333398103713989 -2.5
-10.055415153503418 -2.4784374237060547 -2.5
-9.823373794555664 -3.2795164585113525 -2.5
-9.170097351074219 -4.812841892242432 -2.5
-8.753095626831055 -5.535121917724609 -2.5
-8.279315948486328 -6.221498966217041 -2.5
-7.174116134643555 -7.469027996063232 -2.5
-5.88308572769165 -8.523110389709473 -2.5
-5.178178787231445 -8.968867301940918 -2.5
-3.672426700592041 -9.683354377746582 -2.5
-1.2483203411102295 -10.28084945678711 -2.5
1.248315453529358 -10.28084945678711 -2.5
3.6724119186401367 -9.683368682861328 -2.5
4.439682483673096 -9.356454849243164 -2.5
6.549824237823486 -8.022079467773438 -2.5
7.174091815948486 -7.469027996063232 -2.5
7.751840591430664 -6.867538928985596 -2.5
8.279311180114746 -6.221498966217041 -2.5
9.170092582702637 -4.812831878662109 -2.5
9.527631759643555 -4.059345722198486 -2.5
9.823378562927246 -3.2795214653015137 -2.5
10.222241401672363 -1.6612792015075684 -2.5
10.322772979736328 -0.8333349227905273 -2.5
-9.8753023147583 0.0 -2.5
-9.843276023864746 -0.794628918170929 -2.5
-9.588339805603027 -2.3633203506469727 -2.5
-9.085078239440918 -3.87078595161438 -2.5
-8.744145393371582 -4.589282035827637 -2.5
-8.346508979797363 -5.278012752532959 -2.5
-7.391762733459473 -6.548530101776123 -2.5
-6.245585918426514 -7.649453163146973 -2.5
-5.609814167022705 -8.127211570739746 -2.5
-4.233466625213623 -8.921845436096191 -2.5
-2.747490167617798 -9.485404968261719 -2.5
-1.1903369426727295 -9.803296089172363 -2.5
1.190332055091858 -9.803296089172363 -2.5
1.975307583808899 -9.675732612609863 -2.5
2.7474756240844727 -9.485404968261719 -2.5
3.5018310546875 -9.233569145202637 -2.5
4.937646389007568 -8.552255630493164 -2.5
6.245585918426514 -7.649457931518555 -2.5
6.840854167938232 -7.122094631195068 -2.5
7.391767501831055 -6.548534870147705 -2.5
8.346498489379883 -5.278007507324219 -2.5
9.367074966430664 -3.127187490463257 -2.5
9.747416496276855 -1.5841064453125 -2.5
9.843280792236328 -0.7946240305900574 -2.5
-9.43460464477539 4.882812390860636e-06 -2.5
-9.312431335449219 -1.5134228467941284 -2.5
-9.160449028015137 -2.2578563690185547 -2.5
-8.94906234741211 -2.9876317977905273 -2.5
-7.974032878875732 -5.042470455169678 -2.5
-6.535581111907959 -6.804252624511719 -2.5
-5.966869831085205 -7.308090686798096 -2.5
-4.717299461364746 -8.170610427856445 -2.5
-3.3455615043640137 -8.82149887084961 -2.5
-2.6248779296875 -9.062104225158691 -2.5
-1.8871679306030273 -9.24393081665039 -2.5
-1.1372216939926147 -9.365805625915527 -2.5
2.6248631477355957 -9.062104225158691 -2.5
3.3455467224121094 -8.82149887084961 -2.5
4.717294692993164 -8.170605659484863 -2.5
5.966865062713623 -7.308085918426514 -2.5
7.061894416809082 -6.256293773651123 -2.5
7.542417049407959 -5.667768478393555 -2.5
7.97402811050415 -5.042470455169678 -2.5
8.94906234741211 -2.9876317977905273 -2.5
9.160449028015137 -2.2578516006469727 -2.5
-9.029287338256836 0.0 -2.5
-8.912353515625 -1.448403239250183 -2.5
-8.306747436523438 -3.539174795150757 -2.5
-7.995019435882568 -4.196098327636719 -2.5
-6.758510589599609 -5.987519264221191 -2.5
-5.129218578338623 -7.430952072143555 -2.5
-4.514638423919678 -7.819584846496582 -2.5
-2.5121045112609863 -8.6727876663208 -2.5
-1.0883642435073853 -8.963441848754883 -2.5
-0.36357420682907104 -9.021952629089355 -2.5
0.36357420682907104 -9.021952629089355 -2.5
1.0883642435073853 -8.963432312011719 -2.5
1.8060888051986694 -8.846796989440918 -2.5
5.129213809967041 -7.430947303771973 -2.5
6.254794597625732 -6.511938095092773 -2.5
7.631450176239014 -4.825839519500732 -2.5
7.995019435882568 -4.196103572845459 -2.5
8.564594268798828 -2.8592724800109863 -2.5
8.766899108886719 -2.160844564437866 -2.5
-8.627089500427246 -0.6964501738548279 -2.5
-8.543075561523438 -1.3883886337280273 -2.5
-8.403647422790527 -2.0713231563568115 -2.5
-6.919301509857178 -5.199511528015137 -2.5
-5.99563455581665 -6.242114067077637 -2.5
-4.916689395904541 -7.12304162979126 -2.5
-4.327578067779541 -7.495580673217773 -2.5
-2.408027172088623 -8.313427925109863 -2.5
-1.0432714223861694 -8.592045783996582 -2.5
-0.3485107421875 -8.648134231567383 -2.5
1.0432616472244263 -8.592050552368164 -2.5
4.327573299407959 -7.495580673217773 -2.5
4.916684627532959 -7.123046875 -2.5
5.47390604019165 -6.704326152801514 -2.5
7.962563514709473 -3.392524242401123 -2.5
8.209726333618164 -2.7408056259155273 -2.5
8.403647422790527 -2.0713133811950684 -2.5
8.543075561523438 -1.3883788585662842 -2.5
-8.201079368591309 -1.3327977657318115 -2.5
-8.067240715026855 -1.9884033203125 -2.5
-7.643818378448486 -3.256723642349243 -2.5
-6.642319202423096 -4.991376876831055 -2.5
-5.755629539489746 -5.992236137390137 -2.5
-5.25478982925415 -6.435946941375732 -2.5
-4.154345512390137 -7.195522308349609 -2.5
-2.946303606033325 -7.768744945526123 -2.5
-1.6619579792022705 -8.140761375427246 -2.5
-1.0015087127685547 -8.248095512390137 -2.5
-0.3345654308795929 -8.3019380569458 -2.5
1.001499056816101 -8.248100280761719 -2.5
2.946293830871582 -7.768744945526123 -2.5
4.154330730438232 -7.195527076721191 -2.5
4.719858169555664 -6.837904930114746 -2.5
5.755615234375 -5.992240905761719 -2.5
7.35696268081665 -3.8612256050109863 -2.5
7.643813133239746 -3.256718635559082 -2.5
7.881073951721191 -2.6310887336730957 -2.5
8.067235946655273 -1.9883984327316284 -2.5
8.201079368591309 -1.332802653312683 -2.5
-7.960917949676514 -0.6426708698272705 -2.5
-7.883388519287109 -1.2811766862869263 -2.5
-7.575786113739014 -2.529165029525757 -2.5
-7.071972370147705 -3.7116551399230957 -2.5
-5.978217601776123 -5.296235084533691 -2.5
-3.993417978286743 -6.916781902313232 -2.5
-3.423881769180298 -7.21569299697876 -2.5
-2.2220752239227295 -7.671474456787109 -2.5
-0.9627148509025574 -7.92858362197876 -2.5
-0.32160642743110657 -7.980336666107178 -2.5
0.9627050757408142 -7.928574085235596 -2.5
1.5975682735443115 -7.825400352478027 -2.5
2.8321533203125 -7.467797756195068 -2.5
3.993403196334839 -6.916781902313232 -2.5
4.537031173706055 -6.573017597198486 -2.5
5.051220417022705 -6.186621189117432 -2.5
5.532660961151123 -5.760112285614014 -2.5
5.978217601776123 -5.296235084533691 -2.5
6.384999752044678 -4.798012733459473 -2.5
7.071972370147705 -3.7116453647613525 -2.5
7.347704887390137 -3.130556583404541 -2.5
7.883383750915527 -1.2811766862869263 -2.5
7.960912704467773 -0.6426708698272705 -2.5
-7.686967372894287 4.882812390860636e-06 -2.5
-7.662035942077637 -0.6185400485992432 -2.5
-7.071845531463623 -3.0130321979522705 -2.5
-4.36669921875 -6.326244831085205 -2.5
-3.8434813022613525 -6.6571044921875 -2.5
-3.29534649848938 -6.944789886474609 -2.5
-1.53759765625 -7.5316162109375 -2.5
-0.9265673756599426 -7.630918025970459 -2.5
-0.30953124165534973 -7.680727481842041 -2.5
1.5375927686691284 -7.53161096572876 -2.5
2.1386425495147705 -7.383466720581055 -2.5
2.725830078125 -7.187436580657959 -2.5
5.324941158294678 -5.543857097625732 -2.5
6.145287990570068 -4.617876052856445 -2.5
6.49694299697876 -4.108417987823486 -2.5
7.071850299835205 -3.0130271911621094 -2.5
7.291362285614014 -2.434208869934082 -2.5
7.463593482971191 -1.8396044969558716 -2.5
7.587421894073486 -1.233071208000183 -2.5
-7.406869888305664 9.765624781721272e-06 -2.5
-7.382856369018555 -0.5960058569908142 -2.5
-7.19164514541626 -1.7725830078125 -2.5
-6.814179420471191 -2.903247117996216 -2.5
-6.260219573974609 -3.9587254524230957 -2.5
-5.130922794342041 -5.341850280761719 -2.5
-4.684443473815918 -5.737407207489014 -2.5
-3.703437328338623 -6.414535999298096 -2.5
-2.060722589492798 -7.114438533782959 -2.5
-1.4815673828125 -7.257182598114014 -2.5
-0.8928027153015137 -7.352866172790527 -2.5
-0.2982421815395355 -7.400864124298096 -2.5
3.1752684116363525 -6.691747665405273 -2.5
3.703437328338623 -6.414540767669678 -2.5
4.684438228607178 -5.737402439117432 -2.5
6.558456897735596 -3.442138671875 -2.5
6.814169883728027 -2.9032323360443115 -2.5
7.382856369018555 -0.5960058569908142 -2.5
-7.144594669342041 0.0 -2.5
-7.052065372467041 -1.1460741758346558 -2.5
-6.936982154846191 -1.7098095417022705 -2.5
-6.572880744934082 -2.800429582595825 -2.5
-6.038539886474609 -3.81853985786438 -2.5
-5.711684226989746 -4.292050838470459 -2.5
-4.949233055114746 -5.152695178985596 -2.5
-4.518564224243164 -5.534238338470459 -2.5
-4.058588981628418 -5.87987756729126 -2.5
-1.9877538681030273 -6.862504959106445 -2.5
-1.42910635471344 -7.000200271606445 -2.5
-0.8611913919448853 -7.092494964599609 -2.5
-0.2876855432987213 -7.138798713684082 -2.5
0.2876855432987213 -7.1387939453125 -2.5
1.429101586341858 -7.000195026397705 -2.5
1.9877538681030273 -6.862504959106445 -2.5
2.533500909805298 -6.680307388305664 -2.5
3.0628271102905273 -6.454784870147705 -2.5
3.5722949504852295 -6.187402248382568 -2.5
4.058583736419678 -5.87987756729126 -2.5
5.347797870635986 -4.737739086151123 -2.5
5.711689472198486 -4.292050838470459 -2.5
6.326215744018555 -3.320253849029541 -2.5
6.57287073135376 -2.8004345893859863 -2.5
-6.876044750213623 -0.5550878643989563 -2.5
-6.697954177856445 -1.6509032249450684 -2.5
-6.108246803283691 -3.2058544158935547 -2.5
-4.778700828552246 -4.975146293640137 -2.5
-3.9187450408935547 -5.67727518081665 -2.5
-2.957289934158325 -6.232367992401123 -2.5
-1.9192675352096558 -6.626049518585205 -2.5
0.2777636647224426 -6.892812252044678 -2.5
1.3798632621765137 -6.758994102478027 -2.5
1.9192577600479126 -6.626049518585205 -2.5
2.4462108612060547 -6.450126647949219 -2.5
3.9187400341033936 -5.67727518081665 -2.5
4.362861156463623 -5.343549728393555 -2.5
5.163530349731445 -4.574496746063232 -2.5
5.514882564544678 -4.144155025482178 -2.5
5.830463886260986 -3.686962842941284 -2.5
6.108232498168945 -3.2058446407318115 -2.5
6.346396446228027 -2.7039403915405273 -2.5
6.697948932647705 -1.6508984565734863 -2.5
6.876039981842041 -0.5550927519798279 -2.5
-6.666840553283691 4.882812390860636e-06 -2.5
-6.323740005493164 -2.1111717224121094 -2.5
-5.634746074676514 -3.5632030963897705 -2.5
-5.329760551452637 -4.005048751831055 -2.5
-3.3334226608276367 -5.773652076721191 -2.5
-2.858022451400757 -6.023163795471191 -2.5
-2.3641014099121094 -6.233608245849609 -2.5
-1.854833960533142 -6.403623104095459 -2.5
-1.3335448503494263 -6.532109260559082 -2.5
-0.80360347032547 -6.618227481842041 -2.5
-0.26845213770866394 -6.661435604095459 -2.5
0.2684423625469208 -6.661430358886719 -2.5
0.8035986423492432 -6.618227481842041 -2.5
2.364091634750366 -6.233613014221191 -2.5
2.858022451400757 -6.023159027099609 -2.5
4.618276119232178 -4.808149337768555 -2.5
5.329760551452637 -4.005043983459473 -2.5
5.634746074676514 -3.5631980895996094 -2.5
5.90319299697876 -3.0982275009155273 -2.5
6.323740005493164 -2.1111669540405273 -2.5
6.473114967346191 -1.5954785346984863 -2.5
-6.427651405334473 -0.5188866853713989 -2.5
-6.365063190460205 -1.034423828125 -2.5
-6.261181354522705 -1.5432469844818115 -2.5
-5.932553768157959 -2.5276122093200684 -2.5
-5.450258731842041 -3.446533203125 -2.5
-5.155263423919678 -3.8739256858825684 -2.5
-4.826816082000732 -4.276186466217041 -2.5
-4.467074871063232 -4.650717735290527 -2.5
-4.078364372253418 -4.995092868804932 -2.5
-3.663198232650757 -5.307065486907959 -2.5
-0.25965818762779236 -6.443329811096191 -2.5
1.7941014766693115 -6.193959712982178 -2.5
2.286689519882202 -6.029506683349609 -2.5
3.2242822647094727 -5.584619045257568 -2.5
3.6631932258605957 -5.307065486907959 -2.5
4.078359127044678 -4.995092868804932 -2.5
4.467074871063232 -4.650727272033691 -2.5
4.826816082000732 -4.276191234588623 -2.5
5.155258655548096 -3.873911142349243 -2.5
5.450258731842041 -3.446533203125 -2.5
5.709921836853027 -2.9967870712280273 -2.5
-6.242421627044678 4.882812390860636e-06 -2.5
-6.161586761474609 -1.0013574361801147 -2.5
-5.92117166519165 -1.976772427558899 -2.5
-5.742900371551514 -2.4468164443969727 -2.5
-5.527387619018555 -2.900991201400757 -2.5
-3.5461034774780273 -5.137407302856445 -2.5
-2.2135984897613525 -5.836762428283691 -2.5
-0.7524462938308716 -6.196908950805664 -2.5
-0.25135740637779236 -6.237358093261719 -2.5
0.2513525187969208 -6.237358093261719 -2.5
1.2486376762390137 -6.116269588470459 -2.5
2.676074266433716 -5.639721393585205 -2.5
3.121206045150757 -5.406093597412109 -2.5
3.9479832649230957 -4.835414886474609 -2.5
4.67251443862915 -4.139492034912109 -2.5
5.527392387390137 -2.9009861946105957 -2.5
5.921156883239746 -1.9767773151397705 -2.5
6.161577224731445 -1.0013525485992432 -2.5
6.222172737121582 -0.5022997856140137 -2.5
-6.047377586364746 0.0 -2.5
-5.736156940460205 -1.915004849433899 -2.5
-5.563461780548096 -2.370366096496582 -2.5
-5.354692459106445 -2.810356378555298 -2.5
-4.834536075592041 -3.6329100131988525 -2.5
-4.526528358459473 -4.010156154632568 -2.5
-4.189169883728027 -4.361376762390137 -2.5
-3.435302734375 -4.976889610290527 -2.5
-3.023686408996582 -5.237172603607178 -2.5
-2.592465877532959 -5.463505744934082 -2.5
-2.1444287300109863 -5.654394626617432 -2.5
0.728930652141571 -6.003276348114014 -2.5
1.209633708000183 -5.925160884857178 -2.5
1.6824853420257568 -5.808613300323486 -2.5
2.592460870742798 -5.463505744934082 -2.5
3.023681640625 -5.237177848815918 -2.5
4.189159870147705 -4.361391544342041 -2.5
4.526523113250732 -4.010146617889404 -2.5
4.834531307220459 -3.6329150199890137 -2.5
5.354682445526123 -2.8103466033935547 -2.5
5.563461780548096 -2.370366096496582 -2.5
5.736156940460205 -1.915004849433899 -2.5
-5.862519264221191 0.0 -2.5
-5.786596775054932 -0.9404199123382568 -2.5
-5.692162990570068 -1.4030028581619263 -2.5
-5.560815334320068 -1.8564696311950684 -2.5
-5.393403053283691 -2.297910213470459 -2.5
-4.686748027801514 -3.521860361099243 -2.5
-3.3302929401397705 -4.824760437011719 -2.5
-1.6310546398162842 -5.631044864654541 -2.5
-1.1726659536361694 -5.744038105010986 -2.5
-0.23606444895267487 -5.857763767242432 -2.5
0.7066454887390137 -5.819765567779541 -2.5
2.078871965408325 -5.481552600860596 -2.5
2.5132079124450684 -5.296494007110596 -2.5
4.388159275054932 -3.887568235397339 -2.5
4.686743259429932 -3.521860361099243 -2.5
5.191005706787109 -2.724433422088623 -2.5
-5.668583869934082 -0.4576123058795929 -2.5
-5.613379001617432 -0.9122655987739563 -2.5
-5.394350528717041 -1.8008935451507568 -2.5
-5.231943130493164 -2.229120969772339 -2.5
-5.035614967346191 -2.642895460128784 -2.5
-3.230600595474243 -4.68032693862915 -2.5
-2.43798828125 -5.137948989868164 -2.5
-2.016650438308716 -5.317461013793945 -2.5
-1.1375536918640137 -5.572089672088623 -2.5
-0.22899413108825684 -5.682412147521973 -2.5
0.6854882836341858 -5.645551681518555 -2.5
1.137548804283142 -5.572094440460205 -2.5
2.437983274459839 -5.137944221496582 -2.5
3.2305908203125 -4.68032693862915 -2.5
3.5967283248901367 -4.405195236206055 -2.5
3.9395360946655273 -4.101493835449219 -2.5
4.256792068481445 -3.771196126937866 -2.5
4.546450138092041 -3.416435480117798 -2.5
5.035605430603027 -2.642885684967041 -2.5
5.231943130493164 -2.2291111946105957 -2.5
-5.236069202423096 -1.7480517625808716 -2.5
-4.887861251831055 -2.5653417110443115 -2.5
-4.665585994720459 -2.9503417015075684 -2.5
-3.491201162338257 -4.275947093963623 -2.5
-2.760077953338623 -4.780595779418945 -2.5
-2.366445302963257 -4.987187385559082 -2.5
-1.9574755430221558 -5.161435604095459 -2.5
-1.1041796207427979 -5.40859842300415 -2.5
-0.6653857231140137 -5.479917049407959 -2.5
0.22227050364017487 -5.515688419342041 -2.5
1.5358006954193115 -5.302206993103027 -2.5
1.9574755430221558 -5.161445140838623 -2.5
3.4911961555480957 -4.275942325592041 -2.5
3.8239452838897705 -3.981157064437866 -2.5
4.131894588470459 -3.6605467796325684 -2.5
4.665575981140137 -2.9503369331359863 -2.5
4.887856483459473 -2.5653467178344727 -2.5
5.078432559967041 -2.163706064224243 -2.5
5.236069202423096 -1.7480517625808716 -2.5
5.359755516052246 -1.3210644721984863 -2.5
5.448676586151123 -0.8854931592941284 -2.5
5.502255916595459 -0.4441845715045929 -2.5
-5.361274242401123 0.0 -2.5
-5.291840553283691 -0.8600097298622131 -2.5
-5.205483436584473 -1.2830370664596558 -2.5
-5.085361003875732 -1.6977343559265137 -2.5
-4.747168064117432 -2.491508722305298 -2.5
-4.531293869018555 -2.865419864654541 -2.5
-4.012963771820068 -3.555180549621582 -2.5
-3.3907079696655273 -4.15286111831665 -2.5
-3.0455517768859863 -4.412236213684082 -2.5
-2.6806347370147705 -4.642992973327637 -2.5
-1.0723974704742432 -5.252914905548096 -2.5
-0.6462353467941284 -5.322177410125732 -2.5
-0.2158789038658142 -5.356918811798096 -2.5
2.298330068588257 -4.843642234802246 -2.5
2.6806297302246094 -4.642992973327637 -2.5
3.713881731033325 -3.8665575981140137 -2.5
4.286025524139404 -3.2207372188568115 -2.5
4.531293869018555 -2.86541485786438 -2.5
4.747168064117432 -2.491503953933716 -2.5
5.08535623550415 -1.6977441310882568 -2.5
