ply
format ascii 1.0
element vertex 763
property float x
property float y
property float z
end_header
2.084301710128784 -17.165740966796875 4.633333206176758
4.380622386932373 -15.123661994934082 4.218942165374756
-4.755727291107178 -10.022543907165527 2.841136932373047
2.082692861557007 -17.15250015258789 4.425136566162109
2.0810911655426025 -17.139354705810547 4.218451499938965
2.07794189453125 -17.11333465576172 3.809271812438965
2.076371908187866 -17.100448608398438 3.6066722869873047
-4.82571268081665 -12.724370002746582 2.6922454833984375
-17.533647537231445 -1.4648437172581907e-05 3.2672526836395264
2.070207357406616 -17.049657821655273 2.8080906867980957
2.0686888694763184 -17.037128448486328 2.6111247539520264
2.064164876937866 -16.99989128112793 2.0256412029266357
2.062673330307007 -16.987586975097656 1.8321505784988403
2.059702157974243 -16.963109970092773 1.4473031759262085
2.0567455291748047 -16.938798904418945 1.064982533454895
-1.2040477991104126 -29.878074645996094 1.533887267112732
2.0552759170532227 -16.926694869995117 0.8746588230133057
11.805521965026855 -24.879638671875 1.4126299619674683
2.047976016998291 -16.8665771484375 -0.07060638070106506
19.892250061035156 -6.641005516052246 -0.08714888989925385
2.046525716781616 -16.8546085357666 -0.25871947407722473
19.575546264648438 -6.53527307510376 -0.3144783079624176
2.0450756549835205 -16.842660903930664 -0.44662901759147644
19.339962005615234 -6.456625938415527 -0.5367361307144165
19.12718963623047 -6.385595798492432 -0.7545166015625
2.04217529296875 -16.818784713745117 -0.8220300078392029
19.65144920349121 -10.313861846923828 -1.0768181085586548
18.93428611755371 -6.32119607925415 -0.9685214161872864
17.4360294342041 -15.446971893310547 -1.3891171216964722
24.378021240234375 -15.415741920471191 -1.7200194597244263
18.667728424072266 -6.23220682144165 -1.1736172437667847
-22.71000862121582 -17.06546401977539 -2.010098934173584
-14.315351486206055 -20.73933982849121 -1.7832156419754028
9.741852760314941 -20.530609130859375 -1.6080416440963745
-24.224306106567383 -15.318530082702637 -2.347599983215332
-21.453310012817383 -19.005990982055664 -2.347599983215332
-19.85440444946289 -20.670623779296875 -2.347599983215332
-18.166704177856445 -22.25017547607422 -2.3527743816375732
-14.425517082214355 -24.985721588134766 -2.3631367683410645
-1.1691454648971558 -29.012041091918945 -2.3782548904418945
10.26388931274414 -27.063671112060547 -2.3708009719848633
12.38958740234375 -26.11052703857422 -2.3672218322753906
14.424477577209473 -24.983915328979492 -2.3629674911499023
17.387420654296875 -15.403925895690918 -1.9026930332183838
22.913095474243164 -17.21807098388672 -2.347599983215332
24.224267959594727 -15.318510055541992 -2.347599983215332
18.252187728881836 -9.579477310180664 -1.6884005069732666
18.071453094482422 -7.699516296386719 -1.608949899673462
-26.86016082763672 9.765624781721272e-06 -2.5
-26.5123233795166 -4.308686256408691 -2.5
-23.783491134643555 -12.48253345489502 -2.5
-22.687089920043945 -14.34645938873291 -2.4983654022216797
-20.16415023803711 -15.152377128601074 -2.347599983215332
-18.879501342773438 -16.72579002380371 -2.347599983215332
-17.47242546081543 -18.190711975097656 -2.347599983215332
-12.980791091918945 -15.89858341217041 -1.9103373289108276
-12.030927658081055 -17.429813385009766 -1.9712116718292236
-12.63158130645752 -21.8785343170166 -2.3513598442077637
-10.847216606140137 -22.86006736755371 -2.355074644088745
-8.984501838684082 -23.690160751342773 -2.35819935798645
-7.056704044342041 -24.362504959106445 -2.3607399463653564
-1.0229638814926147 -25.384531021118164 -2.364575147628784
1.0229443311691284 -25.38423728942871 -2.3645474910736084
2.036376953125 -16.77106475830078 -1.5724259614944458
5.07742166519165 -24.870819091796875 -2.3625900745391846
10.84695053100586 -22.85947608947754 -2.3550143241882324
12.631425857543945 -21.878246307373047 -2.351329803466797
14.328164100646973 -20.757915496826172 -2.347599983215332
15.952013969421387 -19.53767967224121 -2.347599983215332
20.16415023803711 -15.152377128601074 -2.347599983215332
18.011878967285156 -11.390028953552246 -1.9835180044174194
18.13138198852539 -9.516074180603027 -1.9058785438537598
18.00975227355957 -7.673227310180664 -1.8220516443252563
18.32487678527832 -6.117743968963623 -1.798119068145752
-23.899818420410156 -1.929443359375 -2.5
-22.743593215942383 -7.59292459487915 -2.5
-22.05887222290039 -9.398407936096191 -2.5
-20.265609741210938 -12.815199851989746 -2.5
-19.150415420532227 -14.39061450958252 -2.497617244720459
-16.853378295898438 -14.930805206298828 -2.347599983215332
-15.59731388092041 -16.238510131835938 -2.347599983215332
-12.99608325958252 -15.917319297790527 -2.1425206661224365
-11.9384126663208 -17.295801162719727 -2.191210985183716
-7.986484050750732 -21.058612823486328 -2.3482558727264404
-6.272070407867432 -21.653676986694336 -2.3505043983459473
-4.512592792510986 -22.10407257080078 -2.352199077606201
-2.720634698867798 -22.4063663482666 -2.353339672088623
0.9090576171875 -22.558027267456055 -2.3539018630981445
2.034929037094116 -16.75911521911621 -1.7602092027664185
4.454882621765137 -15.380033493041992 -1.6695009469985962
7.986476898193359 -21.058612823486328 -2.348253011703491
9.652384757995605 -20.34200096130371 -2.347599983215332
11.257946968078613 -19.499324798583984 -2.347599983215332
14.240068435668945 -17.44093132019043 -2.347599983215332
16.8533878326416 -14.930800437927246 -2.347599983215332
19.150421142578125 -14.390604972839355 -2.497616767883301
18.099838256835938 -9.499521255493164 -2.1312904357910156
23.280818939208984 -5.738217830657959 -2.5
23.667064666748047 -3.8462743759155273 -2.5
-21.578691482543945 -1.7420116662979126 -2.5
-21.01980972290039 -5.180932521820068 -2.5
-19.916542053222656 -8.485644340515137 -2.5
-19.16914939880371 -10.060747146606445 -2.5
-16.193822860717773 -14.346484184265137 -2.4983649253845215
-10.164594650268555 -17.6055908203125 -2.347599983215332
-7.208823204040527 -19.00811004638672 -2.347599983215332
-5.655942440032959 -19.526527404785156 -2.347599983215332
-4.066357135772705 -19.9183349609375 -2.347599983215332
-0.8185741901397705 -20.31269073486328 -2.347599983215332
0.8185693025588989 -20.312685012817383 -2.347599983215332
3.2664549350738525 -16.00008773803711 -1.8857909440994263
4.44875955581665 -15.358915328979492 -1.846551775932312
8.71496295928955 -18.366405487060547 -2.347599983215332
14.143083572387695 -14.724535942077637 -2.357698917388916
16.193822860717773 -14.346479415893555 -2.4983649253845215
18.29741859436035 -11.570595741271973 -2.5
18.23090362548828 -9.568305015563965 -2.3776369094848633
21.019813537597656 -5.180927753448486 -2.5
21.368541717529297 -3.472734212875366 -2.5
21.578693389892578 -1.7420116662979126 -2.5
-19.727983474731445 9.765624781721272e-06 -2.5
-19.66400909423828 -1.5874462127685547 -2.5
-19.154720306396484 -4.721225261688232 -2.5
-18.149351119995117 -7.732709884643555 -2.5
-17.468252182006836 -9.168051719665527 -2.5
-15.771395683288574 -11.851425170898438 -2.5
-13.666054725646973 -14.227861404418945 -2.5
-12.014697074890137 -14.715341567993164 -2.4073939323425293
-7.941674709320068 -16.73674201965332 -2.347599983215332
-6.569184303283691 -17.321502685546875 -2.347599983215332
-5.154086589813232 -17.793935775756836 -2.347599983215332
-2.232988119125366 -18.390287399291992 -2.347599983215332
-0.7459374666213989 -18.51033592224121 -2.347599983215332
0.7459276914596558 -18.510345458984375 -2.347599983215332
1.9326684474945068 -15.916850090026855 -2.0318539142608643
4.445239067077637 -15.346757888793945 -2.024747610092163
6.569179534912109 -17.321514129638672 -2.347599983215332
7.94167947769165 -16.73674774169922 -2.347599983215332
9.262685775756836 -16.043426513671875 -2.347599983215332
13.666044235229492 -14.227875709533691 -2.5
15.77138900756836 -11.85142993927002 -2.5
16.673891067504883 -10.543940544128418 -2.5
17.468259811401367 -9.168046951293945 -2.5
18.712711334228516 -6.247216701507568 -2.5
19.154720306396484 -4.72122049331665 -2.5
19.472509384155273 -3.1645946502685547 -2.5
19.664011001586914 -1.5874364376068115 -2.5
-18.116058349609375 9.765624781721272e-06 -2.5
-17.881454467773438 -2.9060254096984863 -2.5
-16.666406631469727 -7.100888729095459 -2.5
-16.04097557067871 -8.4189453125 -2.5
-14.48275375366211 -10.88308048248291 -2.5
-11.457411766052246 -14.032782554626465 -2.5
-10.14981460571289 -14.704545974731445 -2.4656784534454346
-6.032431602478027 -15.906206130981445 -2.347599983215332
-4.574775218963623 -15.79393482208252 -2.2691397666931152
-3.402783155441284 -16.66789436340332 -2.347599983215332
-0.6849951148033142 -16.997894287109375 -2.347599983215332
0.6849902272224426 -16.997894287109375 -2.347599983215332
1.9231714010238647 -15.838676452636719 -2.201777219772339
3.247807502746582 -15.9087495803833 -2.2406768798828125
8.505846977233887 -14.73256778717041 -2.347599983215332
10.149811744689941 -14.704530715942383 -2.4656789302825928
11.457411766052246 -14.0327730178833 -2.5
13.56005573272705 -12.013163566589355 -2.5
16.040966033935547 -8.4189453125 -2.5
17.183732986450195 -5.736772537231445 -2.5
17.589635848999023 -4.335453987121582 -2.5
18.057310104370117 -1.4577343463897705 -2.5
-16.689462661743164 -1.3473193645477295 -2.5
-16.526933670043945 -2.6858935356140137 -2.5
-16.25721549987793 -4.007055759429932 -2.5
-15.88206958770752 -5.302211761474609 -2.5
-15.40392017364502 -6.562993049621582 -2.5
-14.8258638381958 -7.781210899353027 -2.5
-13.385673522949219 -10.05868148803711 -2.5
-12.532885551452637 -11.10317325592041 -2.5
-11.5988130569458 -12.075639724731445 -2.5
-9.511548042297363 -13.779829025268555 -2.5
-4.374433517456055 -15.102274894714355 -2.347599983215332
-1.8952099084854126 -15.608417510986328 -2.347599983215332
0.6331005692481995 -15.710302352905273 -2.347599983215332
1.895205020904541 -15.608417510986328 -2.347599983215332
3.145012140274048 -15.405306816101074 -2.347599983215332
4.374428749084473 -15.102274894714355 -2.347599983215332
6.980410099029541 -14.710922241210938 -2.431210517883301
8.358932495117188 -14.478099822998047 -2.496134042739868
10.589506149291992 -12.969804763793945 -2.5
11.598798751831055 -12.075639724731445 -2.5
12.532877922058105 -11.103158950805664 -2.5
15.403913497924805 -6.562978267669678 -2.5
15.882060050964355 -5.302211761474609 -2.5
16.25720977783203 -4.007050514221191 -2.5
16.526927947998047 -2.6858935356140137 -2.5
16.68946075439453 -1.3473095893859863 -2.5
-14.76025390625 -4.927690505981445 -2.5
-14.31588363647461 -6.099423885345459 -2.5
-13.778666496276855 -7.23159646987915 -2.5
-13.152079582214355 -8.316879272460938 -2.5
-12.440199851989746 -9.348207473754883 -2.5
-10.779555320739746 -11.222695350646973 -2.5
-8.839716911315918 -12.8065185546875 -2.5
-7.78054666519165 -13.476293563842773 -2.5
-5.507832050323486 -14.52293872833252 -2.4953742027282715
4.259538650512695 -14.705644607543945 -2.4596800804138184
5.507822036743164 -14.52294921875 -2.4953739643096924
7.780539512634277 -13.476298332214355 -2.5
9.841535568237305 -12.05370044708252 -2.5
10.779536247253418 -11.222695350646973 -2.5
11.647636413574219 -10.3189058303833 -2.5
13.15207290649414 -8.316869735717773 -2.5
13.77865982055664 -7.231591701507568 -2.5
14.315885543823242 -6.099413871765137 -2.5
14.760255813598633 -4.927695274353027 -2.5
15.51061725616455 -1.2521435022354126 -2.5
-14.531059265136719 0.0 -2.5
-14.483940124511719 -1.1692626476287842 -2.5
-14.108808517456055 -3.4775145053863525 -2.5
-13.783242225646973 -4.601528167724609 -2.5
-11.616747856140137 -8.729423522949219 -2.5
-10.876654624938965 -9.635878562927246 -2.5
-10.066024780273438 -10.479828834533691 -2.5
-9.190093040466309 -11.255829811096191 -2.5
-5.152788162231445 -13.586771965026855 -2.5
-4.042797565460205 -13.9573335647583 -2.5
-2.9065818786621094 -14.237387657165527 -2.5
-1.749599575996399 -14.409502029418945 -2.4972968101501465
4.042790412902832 -13.957338333129883 -2.5
7.265527248382568 -12.584267616271973 -2.5
9.190093040466309 -11.255834579467773 -2.5
10.06600284576416 -10.479833602905273 -2.5
10.87664794921875 -9.6358642578125 -2.5
12.281494140625 -7.766357421875 -2.5
14.108805656433105 -3.4775097370147705 -2.5
14.342880249023438 -2.330942392349243 -2.5
14.483932495117188 -1.1692626476287842 -2.5
-13.229736328125 -3.2608447074890137 -2.5
-12.535346031188965 -5.340810298919678 -2.5
-12.06494140625 -6.332162857055664 -2.5
-10.8929443359375 -8.185517311096191 -2.5
-10.198959350585938 -9.035497665405273 -2.5
-7.740273475646973 -11.213706016540527 -2.5
-5.841220378875732 -12.310111999511719 -2.5
-4.831733226776123 -12.740229606628418 -2.5
-2.7254931926727295 -13.350302696228027 -2.5
-1.642397403717041 -13.526323318481445 -2.5
-0.548657238483429 -13.61461353302002 -2.5
0.5486474633216858 -13.61461353302002 -2.5
1.6423901319503784 -13.526328086853027 -2.5
3.790900707244873 -13.0877046585083 -2.5
5.84121561050415 -12.310121536254883 -2.5
7.740265846252441 -11.213706016540527 -2.5
9.438827514648438 -9.826879501342773 -2.5
10.198959350585938 -9.035492897033691 -2.5
10.89294147491455 -8.18551254272461 -2.5
11.516276359558105 -7.282460689544678 -2.5
12.06493091583252 -6.332158088684082 -2.5
12.53533935546875 -5.340795993804932 -2.5
12.924440383911133 -4.314804553985596 -2.5
13.229731559753418 -3.2608494758605957 -2.5
13.449220657348633 -2.1857080459594727 -2.5
13.581486701965332 -1.0964062213897705 -2.5
-12.781865119934082 -1.0318652391433716 -2.5
-11.797314643859863 -5.026362419128418 -2.5
-11.35460376739502 -5.9593505859375 -2.5
-10.838252067565918 -6.853701114654541 -2.5
-9.598490715026855 -8.503520011901855 -2.5
-8.11013126373291 -9.93310546875 -2.5
-4.547260761260986 -11.990131378173828 -2.5
-2.5650291442871094 -12.564291954040527 -2.5
1.5456957817077637 -12.729950904846191 -2.5
2.565019369125366 -12.564291954040527 -2.5
3.567704916000366 -12.317152976989746 -2.5
4.547255992889404 -11.990131378173828 -2.5
5.497312068939209 -11.58535099029541 -2.5
9.598481178283691 -8.503524780273438 -2.5
10.25161075592041 -7.703583717346191 -2.5
11.354598999023438 -5.9593505859375 -2.5
11.797304153442383 -5.026357173919678 -2.5
12.450815200805664 -3.068857431411743 -2.5
12.657387733459473 -2.057021379470825 -2.5
-12.107514381408691 0.0 -2.5
-12.068246841430664 -0.9742431640625 -2.5
-11.755688667297363 -2.897524356842041 -2.5
-11.484418869018555 -3.834062337875366 -2.5
-11.138656616210938 -4.745737075805664 -2.5
-10.720673561096191 -5.626645565032959 -2.5
-9.679262161254883 -7.273496150970459 -2.5
-9.062602043151855 -8.028759956359863 -2.5
-8.387177467346191 -8.731963157653809 -2.5
-7.657338619232178 -9.3785400390625 -2.5
-6.053759574890137 -10.485404968261719 -2.5
-2.421821117401123 -11.86282730102539 -2.5
-0.4875195324420929 -12.09769058227539 -2.5
3.3685178756713867 -11.629487037658691 -2.5
-11.464516639709473 0.0 -2.5
-11.427343368530273 -0.9225146174430847 -2.5
-11.316054344177246 -1.8390429019927979 -2.5
-10.547119140625 -4.493700981140137 -2.5
-10.151323318481445 -5.327822208404541 -2.5
-9.165228843688965 -6.887216567993164 -2.5
-7.941752910614014 -8.268232345581055 -2.5
-6.512582778930664 -9.435102462768555 -2.5
-4.914745807647705 -10.357622146606445 -2.5
-4.065371036529541 -10.719496726989746 -2.5
-3.189638614654541 -11.01186466217041 -2.5
-2.293203115463257 -11.23282241821289 -2.5
0.46162596344947815 -11.455209732055664 -2.5
1.3818944692611694 -11.380927085876465 -2.5
2.2931957244873047 -11.23281192779541 -2.5
3.1896214485168457 -11.01186466217041 -2.5
4.065371036529541 -10.71950626373291 -2.5
7.250678539276123 -8.880477905273438 -2.5
7.941738128662109 -8.268241882324219 -2.5
8.581308364868164 -7.602382659912109 -2.5
9.689692497253418 -6.127392292022705 -2.5
11.13137435913086 -2.7436327934265137 -2.5
11.316044807434082 -1.8390331268310547 -2.5
-10.848407745361328 -0.875781238079071 -2.5
-10.74276351928711 -1.7458739280700684 -2.5
-10.01278305053711 -4.266044616699219 -2.5
-8.700898170471191 -6.538295745849609 -2.5
-7.539409160614014 -7.849345684051514 -2.5
-6.883349418640137 -8.43056583404541 -2.5
-6.182656288146973 -8.957104682922363 -2.5
-1.3118896484375 -10.80434513092041 -2.5
0.4382421672344208 -10.874873161315918 -2.5
3.8594114780426025 -10.176435470581055 -2.5
5.441850662231445 -9.42556095123291 -2.5
9.19879150390625 -5.816967487335205 -2.5
10.01278018951416 -4.266039848327637 -2.5
10.567439079284668 -2.6046483516693115 -2.5
10.742755889892578 -1.7458691596984863 -2.5
-10.322772979736328 -0.8333398103713989 -2.5
-10.055419921875 -2.478447198867798 -2.5
-9.823378562927246 -3.2795164585113525 -2.5
-9.527636528015137 -4.059335708618164 -2.5
-9.1701021194458 -4.812831878662109 -2.5
-7.751845359802246 -6.867528915405273 -2.5
-7.17410135269165 -7.46902322769165 -2.5
-6.549824237823486 -8.022079467773438 -2.5
-5.88308572769165 -8.523110389709473 -2.5
-4.439692497253418 -9.356454849243164 -2.5
-2.8813183307647705 -9.947461128234863 -2.5
-2.071542978286743 -10.14706039428711 -2.5
-1.2483251094818115 -10.280844688415527 -2.5
1.248315453529358 -10.28084945678711 -2.5
3.6724071502685547 -9.683363914489746 -2.5
5.178175926208496 -8.968862533569336 -2.5
5.883076190948486 -8.523119926452637 -2.5
7.174089431762695 -7.469033241271973 -2.5
7.751840591430664 -6.867534160614014 -2.5
8.279311180114746 -6.221498966217041 -2.5
8.753083229064941 -5.535121917724609 -2.5
9.527631759643555 -4.059345722198486 -2.5
9.823378562927246 -3.2795214653015137 -2.5
10.222241401672363 -1.6612792015075684 -2.5
-9.875297546386719 4.882812390860636e-06 -2.5
-9.747416496276855 -1.5841113328933716 -2.5
-9.36708927154541 -3.127187490463257 -2.5
-9.085078239440918 -3.87078595161438 -2.5
-7.894741058349609 -5.932504653930664 -2.5
-6.245590686798096 -7.649453163146973 -2.5
-4.937646389007568 -8.552265167236328 -2.5
-4.233461856842041 -8.921845436096191 -2.5
-3.501835823059082 -9.233564376831055 -2.5
-1.9753222465515137 -9.675726890563965 -2.5
1.190334439277649 -9.803290367126465 -2.5
1.9753124713897705 -9.675722122192383 -2.5
4.233461856842041 -8.921845436096191 -2.5
4.937648773193359 -8.552260398864746 -2.5
5.609809398651123 -8.127206802368164 -2.5
6.245585918426514 -7.649457931518555 -2.5
7.894736289978027 -5.932514667510986 -2.5
8.346501350402832 -5.278017520904541 -2.5
9.085073471069336 -3.870790958404541 -2.5
9.367079734802246 -3.127192258834839 -2.5
9.588339805603027 -2.3633203506469727 -2.5
9.747414588928223 -1.5841162204742432 -2.5
9.843278884887695 -0.7946337461471558 -2.5
-9.404008865356445 -0.7591650485992432 -2.5
-9.312426567077637 -1.5134179592132568 -2.5
-9.160444259643555 -2.2578516006469727 -2.5
-8.353925704956055 -4.384477615356445 -2.5
-7.97402811050415 -5.042470455169678 -2.5
-7.542421817779541 -5.667763710021973 -2.5
-7.061903953552246 -6.256293773651123 -2.5
-6.535575866699219 -6.804247856140137 -2.5
-5.966875076293945 -7.308090686798096 -2.5
-4.717304706573486 -8.170599937438965 -2.5
-2.6248779296875 -9.062104225158691 -2.5
-0.37989744544029236 -9.426942825317383 -2.5
4.044536113739014 -8.523691177368164 -2.5
4.717297077178955 -8.170605659484863 -2.5
5.359460353851318 -7.76452112197876 -2.5
5.966865062713623 -7.308090686798096 -2.5
6.535566329956055 -6.804262638092041 -2.5
7.542421817779541 -5.667773246765137 -2.5
8.679640769958496 -3.6980369091033936 -2.5
9.160441398620605 -2.2578563690185547 -2.5
9.312421798706055 -1.5134179592132568 -2.5
-9.029287338256836 0.0 -2.5
-8.7669038772583 -2.1608495712280273 -2.5
-8.56459903717041 -2.8592772483825684 -2.5
-8.306747436523438 -3.5391697883605957 -2.5
-7.995028972625732 -4.196113109588623 -2.5
-7.631450176239014 -4.825829982757568 -2.5
-7.218393325805664 -5.424267292022705 -2.5
-6.758510589599609 -5.987514495849609 -2.5
-6.254809379577637 -6.511933326721191 -2.5
-5.129218578338623 -7.430947303771973 -2.5
-3.870790958404541 -8.15750503540039 -2.5
-3.2018308639526367 -8.442509651184082 -2.5
-1.8060888051986694 -8.846792221069336 -2.5
-1.0883642435073853 -8.9634370803833 -2.5
1.0883642435073853 -8.9634370803833 -2.5
1.8060888051986694 -8.846796989440918 -2.5
3.8707761764526367 -8.15750503540039 -2.5
5.12921142578125 -7.430952072143555 -2.5
5.710519790649414 -6.994125843048096 -2.5
6.758508205413818 -5.987519264221191 -2.5
7.631452560424805 -4.825844764709473 -2.5
7.995026588439941 -4.196108341217041 -2.5
8.306747436523438 -3.5391697883605957 -2.5
8.564594268798828 -2.8592870235443115 -2.5
8.766899108886719 -2.1608495712280273 -2.5
8.912345886230469 -1.448403239250183 -2.5
8.999995231628418 -0.7265625 -2.5
-8.655156135559082 4.882812390860636e-06 -2.5
-8.627089500427246 -0.6964452862739563 -2.5
-8.403647422790527 -2.0713133811950684 -2.5
-7.663759708404541 -4.02224588394165 -2.5
-7.315253734588623 -4.62588357925415 -2.5
-6.91930627822876 -5.199516296386719 -2.5
-6.478471755981445 -5.739428520202637 -2.5
-4.327578067779541 -7.495580673217773 -2.5
-3.710395336151123 -7.819501876831055 -2.5
-2.408017635345459 -8.313432693481445 -2.5
-1.7312597036361694 -8.480238914489746 -2.5
-0.3485058546066284 -8.6481294631958 -2.5
0.3485058546066284 -8.648134231567383 -2.5
2.408010244369507 -8.313432693481445 -2.5
3.06915283203125 -8.092704772949219 -2.5
3.710392951965332 -7.819497108459473 -2.5
4.91668701171875 -7.123051643371582 -2.5
5.995627403259277 -6.242118835449219 -2.5
6.919299125671387 -5.199521541595459 -2.5
7.66375732421875 -4.022250652313232 -2.5
8.209726333618164 -2.7408103942871094 -2.5
8.543066024780273 -1.3883837461471558 -2.5
-8.30868148803711 4.882812390860636e-06 -2.5
-8.281733512878418 -0.6685595512390137 -2.5
-8.201088905334473 -1.3328124284744263 -2.5
-8.067240715026855 -1.9883984327316284 -2.5
-7.881088733673096 -2.6310887336730957 -2.5
-7.356972694396973 -3.8612353801727295 -2.5
-6.642314434051514 -4.991372108459473 -2.5
-5.254794597625732 -6.435937404632568 -2.5
-4.719868183135986 -6.837900161743164 -2.5
-4.154340744018555 -7.195512771606445 -2.5
-2.946298837661743 -7.768740177154541 -2.5
-1.661953091621399 -8.140756607055664 -2.5
-1.001503825187683 -8.248095512390137 -2.5
-0.3345605432987213 -8.3019380569458 -2.5
0.33455565571784973 -8.301933288574219 -2.5
2.946293830871582 -7.768744945526123 -2.5
3.5618627071380615 -7.506479263305664 -2.5
4.154338359832764 -7.195522308349609 -2.5
5.755615234375 -5.992240905761719 -2.5
6.219130516052246 -5.50967264175415 -2.5
6.642309188842773 -4.991376876831055 -2.5
7.022404670715332 -4.44070291519165 -2.5
7.881078720092773 -2.6310887336730957 -2.5
8.067235946655273 -1.9883935451507568 -2.5
8.201079368591309 -1.3328075408935547 -2.5
8.281730651855469 -0.6685693264007568 -2.5
-7.986821174621582 4.882812390860636e-06 -2.5
-7.883388519287109 -1.2811717987060547 -2.5
-7.754726409912109 -1.9113720655441284 -2.5
-7.347704887390137 -3.130561351776123 -2.5
-6.750375747680664 -4.2686767578125 -2.5
-6.384999752044678 -4.798012733459473 -2.5
-5.978212833404541 -5.296230316162109 -2.5
-5.532660961151123 -5.760107517242432 -2.5
-3.993412971496582 -6.91677713394165 -2.5
-3.42388653755188 -7.215688228607178 -2.5
-0.9627099633216858 -7.928578853607178 -2.5
-0.3216015696525574 -7.980336666107178 -2.5
0.3215917944908142 -7.980336666107178 -2.5
0.962695300579071 -7.928578853607178 -2.5
2.832155704498291 -7.467797756195068 -2.5
3.423881769180298 -7.21569299697876 -2.5
3.993400812149048 -6.916781902313232 -2.5
4.537026405334473 -6.573017597198486 -2.5
5.532656192779541 -5.760107517242432 -2.5
5.978208065032959 -5.296240329742432 -2.5
6.384999752044678 -4.798012733459473 -2.5
6.750370979309082 -4.268681526184082 -2.5
7.071969985961914 -3.711660146713257 -2.5
7.347704887390137 -3.130566358566284 -2.5
7.575780868530273 -2.529165029525757 -2.5
7.7547287940979 -1.9113671779632568 -2.5
7.883383750915527 -1.2811717987060547 -2.5
7.960915565490723 -0.6426659822463989 -2.5
-7.686967372894287 4.882812390860636e-06 -2.5
-7.662040710449219 -0.6185449361801147 -2.5
-7.587421894073486 -1.2330809831619263 -2.5
-7.463598251342773 -1.8396142721176147 -2.5
-7.291371822357178 -2.434208869934082 -2.5
-4.366694450378418 -6.326244831085205 -2.5
-3.8434813022613525 -6.65709924697876 -2.5
0.3095166087150574 -7.680732250213623 -2.5
0.926562488079071 -7.630918025970459 -2.5
2.1386425495147705 -7.383466720581055 -2.5
3.295339345932007 -6.944794654846191 -2.5
4.366691589355469 -6.326250076293945 -2.5
4.861577033996582 -5.954360008239746 -2.5
5.324941158294678 -5.543857097625732 -2.5
5.753774166107178 -5.097402095794678 -2.5
6.145283222198486 -4.617880821228027 -2.5
6.496940612792969 -4.108422756195068 -2.5
-7.406874656677246 4.882812390860636e-06 -2.5
-7.382856369018555 -0.5960009694099426 -2.5
-7.310956954956055 -1.1881444454193115 -2.5
-7.19164514541626 -1.7725830078125 -2.5
-6.814179420471191 -2.903247117996216 -2.5
-6.55846643447876 -3.442148447036743 -2.5
-6.260219573974609 -3.9587206840515137 -2.5
-5.921376705169678 -4.44961404800415 -2.5
-5.544126033782959 -4.911664962768555 -2.5
-5.130927562713623 -5.341850280761719 -2.5
-4.207587718963623 -6.095727443695068 -2.5
-3.703442335128784 -6.414535999298096 -2.5
-3.1752734184265137 -6.691738128662109 -2.5
-0.8928027153015137 -7.352870941162109 -2.5
-0.2982519567012787 -7.400864124298096 -2.5
0.8927978277206421 -7.352866172790527 -2.5
1.4815648794174194 -7.257187366485596 -2.5
2.6265087127685547 -6.925546646118164 -2.5
3.1752660274505615 -6.691738128662109 -2.5
3.703437328338623 -6.414535999298096 -2.5
4.20758056640625 -6.09573221206665 -2.5
4.684438228607178 -5.737397193908691 -2.5
6.260212421417236 -3.9587206840515137 -2.5
6.814167499542236 -2.9032421112060547 -2.5
7.191640377044678 -1.7725878953933716 -2.5
-7.144589900970459 0.0 -2.5
-7.121420860290527 -0.5748974680900574 -2.5
-6.936977386474609 -1.7098095417022705 -2.5
-6.572880744934082 -2.8004345893859863 -2.5
-6.326220512390137 -3.320258617401123 -2.5
-6.038539886474609 -3.8185300827026367 -2.5
-5.347802639007568 -4.737734317779541 -2.5
-4.949233055114746 -5.152690410614014 -2.5
-4.518564224243164 -5.534233093261719 -2.5
-4.05859375 -5.87987756729126 -2.5
-3.0628271102905273 -6.454784870147705 -2.5
-2.533505916595459 -6.680307388305664 -2.5
-1.9877538681030273 -6.862499713897705 -2.5
-1.42910635471344 -7.000200271606445 -2.5
-0.8611865043640137 -7.092494964599609 -2.5
-0.2876855432987213 -7.13878870010376 -2.5
0.8611816167831421 -7.092490196228027 -2.5
1.9877465963363647 -6.862509727478027 -2.5
2.533505916595459 -6.680307388305664 -2.5
4.058586120605469 -5.8798828125 -2.5
4.949225902557373 -5.152695178985596 -2.5
6.038527488708496 -3.81853985786438 -2.5
6.326215744018555 -3.320253849029541 -2.5
6.776896953582764 -2.262460947036743 -2.5
6.936975002288818 -1.7098095417022705 -2.5
7.121420860290527 -0.5748925805091858 -2.5
-6.876044750213623 -0.5550927519798279 -2.5
-6.80908203125 -1.1065820455551147 -2.5
-6.543398380279541 -2.184501886367798 -2.5
-6.108237266540527 -3.2058446407318115 -2.5
-5.830468654632568 -3.686957836151123 -2.5
-5.163530349731445 -4.574487209320068 -2.5
-4.778700828552246 -4.975141525268555 -2.5
-3.9187498092651367 -5.67727518081665 -2.5
-3.449208974838257 -5.974194049835205 -2.5
-1.3798681497573853 -6.758994102478027 -2.5
-0.8315136432647705 -6.848100662231445 -2.5
1.3798558712005615 -6.758994102478027 -2.5
2.4462084770202637 -6.450121879577637 -2.5
3.9187426567077637 -5.67727518081665 -2.5
4.362863540649414 -5.343544960021973 -2.5
5.163530349731445 -4.574487209320068 -2.5
6.346396446228027 -2.7039403915405273 -2.5
6.697951316833496 -1.6508984565734863 -2.5
6.80907678604126 -1.1065869331359863 -2.5
6.876039981842041 -0.5550927519798279 -2.5
-6.666835784912109 4.882812390860636e-06 -2.5
-6.645229339599609 -0.5364550948143005 -2.5
-6.580507755279541 -1.069433569908142 -2.5
-6.473119735717773 -1.595483422279358 -2.5
-6.133354187011719 -2.613168954849243 -2.5
-5.9031982421875 -3.0982322692871094 -2.5
-5.329760551452637 -4.005048751831055 -2.5
-4.990200042724609 -4.420932292938232 -2.5
-3.7872021198272705 -5.4866943359375 -2.5
0.26844725012779236 -6.661430358886719 -2.5
1.8548290729522705 -6.403617858886719 -2.5
2.364089250564575 -6.233613014221191 -2.5
3.7871971130371094 -5.486699104309082 -2.5
4.618278503417969 -4.808149337768555 -2.5
4.990200042724609 -4.42092752456665 -2.5
5.634748458862305 -3.5632030963897705 -2.5
5.90319299697876 -3.0982322692871094 -2.5
6.133359432220459 -2.613168954849243 -2.5
6.4731125831604 -1.595483422279358 -2.5
6.580502986907959 -1.0694384574890137 -2.5
-6.448564529418945 4.882812390860636e-06 -2.5
-6.116703987121582 -2.042050838470459 -2.5
-5.932548522949219 -2.5276122093200684 -2.5
-5.709921836853027 -2.9967918395996094 -2.5
-4.467080116271973 -4.650717735290527 -2.5
-3.6632080078125 -5.307060241699219 -2.5
-2.7644481658935547 -5.82595682144165 -2.5
-2.286699056625366 -6.029511451721191 -2.5
-0.7772900462150574 -6.401537895202637 -2.5
-0.25965818762779236 -6.443329811096191 -2.5
0.2596533000469208 -6.443329811096191 -2.5
0.7772851586341858 -6.401542663574219 -2.5
2.7644457817077637 -5.82595682144165 -2.5
3.663198232650757 -5.307060241699219 -2.5
4.46707010269165 -4.650722503662109 -2.5
5.450258731842041 -3.446537971496582 -2.5
6.365056037902832 -1.034423828125 -2.5
-6.24242639541626 0.0 -2.5
-6.222177505493164 -0.5022997856140137 -2.5
-6.161586761474609 -1.0013525485992432 -2.5
-5.92117166519165 -1.976772427558899 -2.5
-5.27603006362915 -3.336357355117798 -2.5
-4.990458965301514 -3.7500829696655273 -2.5
-4.672519207000732 -4.139492034912109 -2.5
-4.324282169342041 -4.502045631408691 -2.5
-3.947993040084839 -4.835405349731445 -2.5
-3.5461034774780273 -5.137412071228027 -2.5
-3.121210813522339 -5.406088829040527 -2.5
-2.676079034805298 -5.639711856842041 -2.5
-2.2135937213897705 -5.836762428283691 -2.5
-1.736757755279541 -5.995956897735596 -2.5
-1.2486474514007568 -6.116264343261719 -2.5
-0.7524462938308716 -6.196908950805664 -2.5
1.2486400604248047 -6.116269588470459 -2.5
3.121208429336548 -5.406093597412109 -2.5
4.324269771575928 -4.502050876617432 -2.5
4.672516822814941 -4.139492034912109 -2.5
4.990456581115723 -3.7500877380371094 -2.5
5.276032447814941 -3.336357355117798 -2.5
5.921162128448486 -1.9767773151397705 -2.5
-6.047372817993164 4.882812390860636e-06 -2.5
-6.027768611907959 -0.4866015613079071 -2.5
-5.969067096710205 -0.9700634479522705 -2.5
-5.871650218963623 -1.4472362995147705 -2.5
-5.354692459106445 -2.810356378555298 -2.5
-4.526523113250732 -4.010151386260986 -2.5
-4.189165115356445 -4.361381530761719 -2.5
-3.435307502746582 -4.976889610290527 -2.5
-2.1444334983825684 -5.654394626617432 -2.5
-1.6824902296066284 -5.808608055114746 -2.5
-0.728930652141571 -6.003281116485596 -2.5
-0.2435009777545929 -6.042465686798096 -2.5
0.728930652141571 -6.003276348114014 -2.5
1.209631323814392 -5.925156116485596 -2.5
1.6824804544448853 -5.808608055114746 -2.5
2.144423723220825 -5.654389381408691 -2.5
2.592460870742798 -5.463505744934082 -2.5
3.023686408996582 -5.237177848815918 -2.5
4.189162731170654 -4.361386775970459 -2.5
4.526520729064941 -4.010146617889404 -2.5
5.354682445526123 -2.8103466033935547 -2.5
5.871647834777832 -1.447231411933899 -2.5
5.969057559967041 -0.9700732231140137 -2.5
-5.191000938415527 -2.7244482040405273 -2.5
-4.954946041107178 -3.133310556411743 -2.5
-4.686752796173096 -3.521860361099243 -2.5
-4.388154029846191 -3.887568235397339 -2.5
-3.3302929401397705 -4.824750900268555 -2.5
-2.9312596321105957 -5.077085018157959 -2.5
-1.1726561784744263 -5.744038105010986 -2.5
-0.23605956137180328 -5.857758522033691 -2.5
0.2360546886920929 -5.857758522033691 -2.5
0.7066454887390137 -5.819770336151123 -2.5
2.078871965408325 -5.481552600860596 -2.5
2.5132102966308594 -5.296494007110596 -2.5
3.3302855491638184 -4.824755668640137 -2.5
4.061103343963623 -4.22805643081665 -2.5
4.388156414031982 -3.887563467025757 -2.5
4.686748027801514 -3.521860361099243 -2.5
4.954938888549805 -3.133315324783325 -2.5
5.191003322601318 -2.724443197250366 -2.5
5.393393516540527 -2.297910213470459 -2.5
5.692160606384277 -1.402993083000183 -2.5
5.843508243560791 -0.47172850370407104 -2.5
-5.687026023864746 4.882812390860636e-06 -2.5
-5.613379001617432 -0.9122655987739563 -2.5
-5.521772384643555 -1.3609960079193115 -2.5
-5.231943130493164 -2.229116201400757 -2.5
-5.035610198974609 -2.642885684967041 -2.5
-4.546450138092041 -3.4164304733276367 -2.5
-4.256796836853027 -3.771191358566284 -2.5
-3.9395458698272705 -4.101499080657959 -2.5
-2.843515634536743 -4.925112247467041 -2.5
-2.0166454315185547 -5.317451000213623 -2.5
-1.1375536918640137 -5.572089672088623 -2.5
-0.685498058795929 -5.645551681518555 -2.5
-0.22899413108825684 -5.682406902313232 -2.5
1.137551188468933 -5.572084903717041 -2.5
1.5822265148162842 -5.462485313415527 -2.5
2.0166406631469727 -5.317455768585205 -2.5
2.437980890274048 -5.137939453125 -2.5
2.843508243560791 -4.925102233886719 -2.5
3.230595588684082 -4.68032693862915 -2.5
3.9395337104797363 -4.101489067077637 -2.5
5.035607814788818 -2.642895460128784 -2.5
5.231943130493164 -2.229120969772339 -2.5
5.394345760345459 -1.8008984327316284 -2.5
5.521765232086182 -1.3609912395477295 -2.5
5.613381385803223 -0.9122655987739563 -2.5
-5.502260684967041 -0.4441845715045929 -2.5
-5.448676586151123 -0.8854931592941284 -2.5
-5.236073970794678 -1.7480566501617432 -2.5
-5.078432559967041 -2.163710832595825 -2.5
-4.887856483459473 -2.5653417110443115 -2.5
-4.665585994720459 -2.950331926345825 -2.5
-4.131899356842041 -3.6605420112609863 -2.5
-3.8239452838897705 -3.981142520904541 -2.5
-3.135810375213623 -4.543002605438232 -2.5
-2.366455078125 -4.987187385559082 -2.5
-1.9574804306030273 -5.161435604095459 -2.5
-1.1041796207427979 -5.40859842300415 -2.5
-0.22227539122104645 -5.515678405761719 -2.5
1.5358006954193115 -5.302206993103027 -2.5
2.760075569152832 -4.780600547790527 -2.5
3.8239452838897705 -3.981147289276123 -2.5
4.131894588470459 -3.660537004470825 -2.5
4.413049221038818 -3.3161914348602295 -2.5
4.887851238250732 -2.5653467178344727 -2.5
5.07843017578125 -2.163710832595825 -2.5
5.236069202423096 -1.7480566501617432 -2.5
5.359750747680664 -1.3210644721984863 -2.5
-5.343881607055664 -0.4314013719558716 -2.5
-5.291845798492432 -0.8600048422813416 -2.5
-5.085361003875732 -1.6977392435073853 -2.5
-4.531289100646973 -2.865410089492798 -2.5
-4.286030292510986 -3.2207372188568115 -2.5
-3.0455565452575684 -4.4122314453125 -2.5
-1.4915966987609863 -5.149589538574219 -2.5
-0.6462353467941284 -5.32217264175415 -2.5
0.6462304592132568 -5.322177410125732 -2.5
1.0723876953125 -5.252910137176514 -2.5
1.901125431060791 -5.012866020202637 -2.5
2.6806323528289795 -4.642983436584473 -2.5
3.045544385910034 -4.412236213684082 -2.5
3.3907055854797363 -4.152865886688232 -2.5
3.713874340057373 -3.8665575981140137 -2.5
4.012963771820068 -3.55517578125 -2.5
4.286025524139404 -3.2207372188568115 -2.5
4.531286716461182 -2.86541485786438 -2.5
4.932255744934082 -2.101435422897339 -2.5
5.205478191375732 -1.2830370664596558 -2.5
