ply
format ascii 1.0
element vertex 915
property float x
property float y
property float z
end_header
-7.370881080627441 19.43545913696289 4.112191677093506
6.720170974731445 14.162489891052246 2.9210991859436035
5.446220397949219 26.67729377746582 5.073639392852783
-2.8543701171875 23.507781982421875 4.412663459777832
-4.664775371551514 22.84952163696289 4.345649719238281
-8.006064414978027 21.11028289794922 4.207128047943115
-9.569536209106445 20.167362213134766 4.159639835357666
-8.275273323059082 14.333178520202637 3.0840611457824707
10.168818473815918 12.454541206359863 2.8121275901794434
7.053246974945068 14.864398956298828 2.877601146697998
4.726884841918945 16.319101333618164 2.9715216159820557
1.05731201171875 26.2371768951416 4.592584133148193
-3.041147470474243 25.045839309692383 4.412663459777832
-5.046596527099609 24.71990203857422 4.412663459777832
-6.967080116271973 24.0530948638916 4.379786968231201
-8.742724418640137 23.05269432067871 4.312108516693115
-10.598100662231445 22.33500862121582 4.323836803436279
10.697362899780273 13.10189437866211 2.765490770339966
8.52761173248291 14.770268440246582 2.7885351181030273
7.393701076507568 15.5819091796875 2.81990647315979
4.726884841918945 16.319101333618164 2.7778563499450684
3.1575732231140137 26.005043029785156 4.283057689666748
1.1471117734909058 28.465307235717773 4.657863140106201
-0.3436523377895355 8.527724266052246 1.395416259765625
-3.2531394958496094 26.791948318481445 4.412662982940674
-7.508759498596191 25.923158645629883 4.412663459777832
-8.275273323059082 14.333178520202637 2.706016778945923
-15.306159019470215 22.174774169921875 4.405411243438721
10.147148132324219 14.700693130493164 2.7176764011383057
8.960893630981445 15.520712852478027 2.7266685962677
6.484697341918945 17.098764419555664 2.782254457473755
4.726879596710205 16.31910514831543 2.584887981414795
3.157582998275757 26.00503921508789 3.985537528991699
-5.801425457000732 28.41730499267578 4.412663459777832
-7.636125087738037 26.362905502319336 4.175793170928955
-10.598100662231445 22.33500862121582 3.761258363723755
-15.30615234375 22.17476463317871 4.099388122558594
11.928544998168945 14.609819412231445 2.656069278717041
6.828110218048096 18.004247665405273 2.711632013320923
4.726884841918945 16.319101333618164 2.392578363418579
3.157587766647339 26.005043029785156 3.689016103744507
-0.3436523377895355 8.527724266052246 1.201876163482666
-10.919037818908691 23.011390686035156 3.58685040473938
-8.275282859802246 14.333173751831055 2.3307037353515625
8.5518798828125 18.02275276184082 2.584153413772583
6.828110218048096 18.004247665405273 2.494352340698242
4.726884841918945 16.319101333618164 2.200866937637329
3.157582998275757 26.00503921508789 3.3934173583984375
-5.871830940246582 28.762113571166992 3.8026745319366455
-7.703661918640137 26.596044540405273 3.58685040473938
-15.729315757751465 22.78782081604004 3.58685040473938
13.493491172790527 16.52653694152832 2.5237181186676025
12.052133560180664 17.460521697998047 2.5096049308776855
10.562353134155273 18.294530868530273 2.4987916946411133
8.995009422302246 18.95659637451172 2.4819633960723877
-0.3436523377895355 8.527724266052246 1.009542465209961
-7.766547679901123 26.813167572021484 3.3020384311676025
14.462533950805664 17.71339225769043 2.4483306407928467
12.8782320022583 18.657352447509766 2.42720890045166
6.828110218048096 18.004247665405273 2.0615973472595215
4.726884841918945 16.319101333618164 1.819020390510559
5.282905101776123 25.87733268737793 2.827709913253784
-16.3991641998291 23.75827980041504 3.0908098220825195
14.795726776123047 18.12149429321289 2.2428197860717773
13.824081420898438 20.027645111083984 2.3330252170562744
6.828110218048096 18.004247665405273 1.8460161685943604
4.726884841918945 16.319101333618164 1.6288237571716309
3.157582998275757 26.00503921508789 2.5114030838012695
-0.3436572253704071 8.527714729309082 0.8182125687599182
-1.1387792825698853 9.378623008728027 0.9057278037071228
-1.9815502166748047 9.706274032592773 0.9497289657592773
-4.112030982971191 10.842548370361328 1.1117141246795654
-8.275273323059082 14.333178520202637 1.586692452430725
15.019296646118164 21.759199142456055 2.239356279373169
4.726884841918945 16.319101333618164 1.4389965534210205
5.282905101776123 25.87733268737793 2.2369580268859863
1.077978491783142 8.877959251403809 0.7574648857116699
0.36250242590904236 8.995497703552246 0.7625161409378052
-0.3436596691608429 8.527724266052246 0.7228646874427795
-1.1387792825698853 9.378623008728027 0.8001815676689148
-1.9815502166748047 9.706274032592773 0.8390551805496216
-4.112030982971191 10.842548370361328 0.982163667678833
-8.275278091430664 14.333178520202637 1.401792287826538
-15.953134536743164 23.112079620361328 2.3785881996154785
14.795726776123047 18.12149429321289 1.7205883264541626
2.537412166595459 8.76015567779541 0.6707647442817688
1.7971923351287842 8.80322265625 0.6608029007911682
1.077978491783142 8.877959251403809 0.6577401757240295
-0.3436596691608429 8.527724266052246 0.6276953220367432
-2.9411425590515137 10.153974533081055 0.7774884104728699
-5.761987209320068 12.143115043640137 0.9885287284851074
14.795726776123047 18.121488571166992 1.4601434469223022
2.537407159805298 8.76016616821289 0.5692309737205505
1.7971923351287842 8.80322265625 0.560776948928833
0.36250242590904236 8.995497703552246 0.5619003176689148
-5.761982440948486 12.143115043640137 0.8388949632644653
-8.275278091430664 14.333178520202637 1.0329846143722534
14.795732498168945 18.121479034423828 1.2000588178634644
1.7971923351287842 8.80322265625 0.4608895778656006
-1.9815502166748047 9.706274032592773 0.5081680417060852
-2.9411425590515137 10.153974533081055 0.5422741770744324
-15.306161880493164 22.174774169921875 1.382153868675232
14.795726776123047 18.121479034423828 0.940264880657196
5.193920612335205 8.996161460876465 0.41750702261924744
2.537412166595459 8.76015567779541 0.3665594458580017
1.7971923351287842 8.80322265625 0.3611157238483429
1.0779736042022705 8.877959251403809 0.35944151878356934
-1.1387792825698853 9.378623008728027 0.37971222400665283
-2.9411425590515137 10.153974533081055 0.42488157749176025
-4.112030982971191 10.842548370361328 0.46606841683387756
-5.761996746063232 12.1431245803833 0.5402108430862427
-8.275282859802246 14.333173751831055 0.6652007699012756
-15.306166648864746 22.174774169921875 1.082943081855774
14.795726776123047 18.12149429321289 0.6807101368904114
6.426318168640137 9.310136795043945 0.3291638195514679
5.193920612335205 8.996161460876465 0.302255243062973
3.3303613662719727 8.781455039978027 0.273271769285202
0.36250242590904236 8.995497703552246 0.26195403933525085
-0.3436523377895355 8.527724266052246 0.24833251535892487
-1.9815502166748047 9.706274032592773 0.2882479727268219
-4.112038612365723 10.842557907104492 0.337411493062973
-5.761982440948486 12.143115043640137 0.39108702540397644
-15.30614185333252 22.17475128173828 0.7839980721473694
8.172607421875 10.009638786315918 0.23271971940994263
5.193925857543945 8.9961519241333 0.1870776265859604
4.196552753448486 8.844061851501465 0.17629607021808624
3.3303613662719727 8.781455039978027 0.16913878917694092
1.7971923351287842 8.80322265625 0.16180938482284546
0.36250242590904236 8.995497703552246 0.16213348507881165
-0.3436523377895355 8.527724266052246 0.15370239317417145
-1.1387792825698853 9.378623008728027 0.17014220356941223
-1.9815502166748047 9.706274032592773 0.17840789258480072
-2.9411425590515137 10.153974533081055 0.19038207828998566
-4.112030982971191 10.842548370361328 0.20883697271347046
-15.306137084960938 22.17475128173828 0.4852459728717804
8.172607421875 10.0096435546875 0.0894985944032669
6.426318168640137 9.310136795043945 0.07835021615028381
5.193920612335205 8.996161460876465 0.07194580137729645
3.3303613662719727 8.781455039978027 0.06504669040441513
1.7971997261047363 8.803213119506836 0.062228087335824966
0.36250242590904236 8.995497703552246 0.062352292239665985
-0.3436523377895355 8.527724266052246 0.05911056324839592
-1.9815502166748047 9.706274032592773 0.06861145049333572
-5.761982440948486 12.143115043640137 0.09309020638465881
-8.275282859802246 14.333173751831055 0.11463073641061783
-15.30614185333252 22.17475128173828 0.18661467730998993
8.172607421875 10.009638786315918 -0.05370040610432625
6.426318168640137 9.310136795043945 -0.04701171815395355
5.193925857543945 8.9961519241333 -0.04316863790154457
2.537412166595459 8.76015567779541 -0.03790069371461868
-1.9815502166748047 9.706274032592773 -0.041167907416820526
-2.9411425590515137 10.153974533081055 -0.043930817395448685
-4.112030982971191 10.842548370361328 -0.04818939045071602
-8.275282859802246 14.333173751831055 -0.06877944618463516
-10.727892875671387 6.783896446228027 -0.052746884524822235
8.172607421875 10.009638786315918 -0.19691115617752075
6.426318168640137 9.310136795043945 -0.17238418757915497
5.193920612335205 8.996161460876465 -0.1582913100719452
4.196552753448486 8.844061851501465 -0.14916931092739105
2.537412166595459 8.76015567779541 -0.13897597789764404
1.077978491783142 8.877959251403809 -0.1362774670124054
0.36250242590904236 8.995497703552246 -0.13718612492084503
-0.3436523377895355 8.527724266052246 -0.13005217909812927
-1.1387792825698853 9.378623008728027 -0.1439625471830368
-1.9815502166748047 9.706274032592773 -0.15095625817775726
-2.9411425590515137 10.153974533081055 -0.16108809411525726
-4.112030982971191 10.842548370361328 -0.17670303583145142
-5.761982440948486 12.143105506896973 -0.20481231808662415
-8.275278091430664 14.333178520202637 -0.25219711661338806
5.193925857543945 8.9961519241333 -0.27345383167266846
3.3303613662719727 8.781455039978027 -0.24723295867443085
2.537412166595459 8.76015567779541 -0.24008499085903168
-0.3436523377895355 8.527724266052246 -0.22466933727264404
-1.138769507408142 9.378623008728027 -0.24869979918003082
-1.9815478324890137 9.70626449584961 -0.2607817053794861
-4.112030982971191 10.842548370361328 -0.3052605986595154
-5.761977195739746 12.143115043640137 -0.35382139682769775
-8.275282859802246 14.333173751831055 -0.43568190932273865
-10.724845886230469 6.781972408294678 -0.33403700590133667
22.863309860229492 5.635302543640137 -0.8810867071151733
8.172607421875 10.0096435546875 -0.48351576924324036
5.193925857543945 8.9961519241333 -0.3886862099170685
0.36250242590904236 8.995497703552246 -0.3368608057498932
-0.3436523377895355 8.527724266052246 -0.31934356689453125
-1.1387792825698853 9.378623008728027 -0.35350021719932556
-1.9815502166748047 9.706274032592773 -0.3706735074520111
-2.9411425590515137 10.153974533081055 -0.3955515921115875
-8.275282859802246 14.333173751831055 -0.6192788481712341
-10.723939895629883 6.781396389007568 -0.47475799918174744
22.863309860229492 5.635302543640137 -1.142512321472168
26.094886779785156 8.711748123168945 -1.3348008394241333
6.426318168640137 9.310136795043945 -0.5488830208778381
5.193925857543945 8.9961519241333 -0.5040124654769897
4.196552753448486 8.844061851501465 -0.4749659597873688
2.537412166595459 8.76015567779541 -0.4425089955329895
-0.3436572253704071 8.527714729309082 -0.41409561038017273
-1.1387792825698853 9.378623008728027 -0.4583868384361267
-2.9411425590515137 10.153974533081055 -0.5129148960113525
-5.761982440948486 12.143115043640137 -0.65213942527771
-8.275273323059082 14.333178520202637 -0.803019106388092
-10.723027229309082 6.780820369720459 -0.6155706644058228
22.863306045532227 5.635302543640137 -1.404219627380371
19.331928253173828 6.453935623168945 -1.2153747081756592
8.172607421875 10.0096435546875 -0.7705966234207153
2.537412166595459 8.76015567779541 -0.5438711643218994
1.7971923351287842 8.80322265625 -0.5357937216758728
1.077978491783142 8.877959251403809 -0.5333110094070435
0.36250242590904236 8.995497703552246 -0.5368669033050537
-0.3436523377895355 8.527724266052246 -0.5089493989944458
-1.1387767791748047 9.378623008728027 -0.5633862018585205
-1.9815502166748047 9.706274032592773 -0.5907560586929321
-2.9411425590515137 10.153974533081055 -0.6304046511650085
-5.761982440948486 12.143115043640137 -0.8015213012695312
-15.30614185333252 22.17475128173828 -1.6067806482315063
22.86331558227539 5.635312557220459 -1.666273593902588
18.815101623535156 6.281405925750732 -1.4036309719085693
8.172607421875 10.0096435546875 -0.9144037961959839
6.426318168640137 9.310136795043945 -0.8005062937736511
4.196552753448486 8.844061851501465 -0.6927035450935364
3.3303613662719727 8.781455039978027 -0.6645814180374146
2.537412166595459 8.76015567779541 -0.6453675627708435
1.7971923351287842 8.80322265625 -0.635782778263092
1.077978491783142 8.877959251403809 -0.6328365802764893
0.36250242590904236 8.995497703552246 -0.6370561122894287
-2.941149950027466 10.153974533081055 -0.7480502128601074
-5.761982440948486 12.143115043640137 -0.951099693775177
-8.275278091430664 14.333178520202637 -1.1711493730545044
-15.30614185333252 22.17475128173828 -1.9066356420516968
18.32134246826172 6.116562366485596 -1.5820879936218262
26.33982276916504 13.824233055114746 -2.4365413188934326
22.913089752197266 17.21807098388672 -2.347599983215332
21.453325271606445 19.0059757232666 -2.347599983215332
19.85443878173828 20.670629501342773 -2.347599983215332
8.172607421875 10.009638786315918 -1.0584386587142944
4.196557521820068 8.844061851501465 -0.8018167018890381
2.537407159805298 8.76016616821289 -0.7470226883888245
1.7971923351287842 8.80322265625 -0.7359283566474915
1.077978491783142 8.877959251403809 -0.7325189113616943
-0.3436596691608429 8.527724266052246 -0.6990572810173035
-1.1387792825698853 9.378623008728027 -0.773828387260437
-1.9815502166748047 9.706274032592773 -0.8114221096038818
-2.9411425590515137 10.153974533081055 -0.8658808469772339
-4.112030982971191 10.842548370361328 -0.9498147368431091
-5.761982440948486 12.143115043640137 -1.100914716720581
-18.126781463623047 22.201278686523438 -2.347599983215332
-19.854454040527344 20.670679092407227 -2.347599983215332
-21.45330810546875 19.0059814453125 -2.347599983215332
-10.72030258178711 6.779091835021973 -1.0388882160186768
26.860151290893555 0.0 -2.5
26.5123291015625 4.308681488037109 -2.5
23.340229034423828 5.752861022949219 -2.2373993396759033
18.21977424621582 6.082655906677246 -1.7878063917160034
24.710805892944336 10.528276443481445 -2.5
23.78348159790039 12.482539176940918 -2.5
21.318021774291992 13.480712890625 -2.347599983215332
20.164159774780273 15.15236759185791 -2.347599983215332
18.879501342773438 16.725786209106445 -2.347599983215332
17.472415924072266 18.190711975097656 -2.347599983215332
2.537407159805298 8.76016616821289 -0.8488638401031494
1.077978491783142 8.877959251403809 -0.832381546497345
0.36250242590904236 8.995497703552246 -0.8379325866699219
-0.3436523377895355 8.527724266052246 -0.7943592667579651
-1.9815527200698853 9.706274032592773 -0.9220415949821472
-2.9411425590515137 10.153974533081055 -0.9839242100715637
-4.112030982971191 10.842548370361328 -1.0793039798736572
-5.761982440948486 12.143105506896973 -1.2509995698928833
-14.328173637390137 20.757909774780273 -2.347599983215332
-17.472414016723633 18.19072151184082 -2.347599983215332
-18.879493713378906 16.725799560546875 -2.347599983215332
-10.71938419342041 6.778515338897705 -1.180431842803955
-24.710800170898438 10.528271675109863 -2.5
-26.079652786254883 6.428056716918945 -2.5
-26.773054122924805 2.161318302154541 -2.5
23.899808883666992 1.9294042587280273 -2.5
23.667089462280273 3.8462889194488525 -2.5
23.280853271484375 5.738212585449219 -2.5
18.20511245727539 6.077763557434082 -2.0011231899261475
22.058881759643555 9.398398399353027 -2.5
21.2310791015625 11.142939567565918 -2.5
16.85340690612793 14.930819511413574 -2.347599983215332
15.597323417663574 16.23853874206543 -2.347599983215332
8.172607421875 10.009638786315918 -1.3473254442214966
6.426318168640137 9.310136795043945 -1.1795024871826172
2.537407159805298 8.76016616821289 -0.9509138464927673
1.7971923351287842 8.80322265625 -0.9367913603782654
1.077978491783142 8.877959251403809 -0.9324497580528259
-2.9411425590515137 10.153974533081055 -1.1022121906280518
-8.275282859802246 14.333173751831055 -1.7256231307983398
-12.79050064086914 18.530214309692383 -2.347599983215332
-14.240087509155273 17.440946578979492 -2.347599983215332
-15.597329139709473 16.238544464111328 -2.347599983215332
-16.8533935546875 14.930800437927246 -2.347599983215332
-17.795061111450195 13.372118949890137 -2.3208489418029785
-10.71847152709961 6.777939319610596 -1.3222408294677734
-21.231090545654297 11.14291000366211 -2.5
-23.667097091674805 3.8462889194488525 -2.5
21.648895263671875 0.0 -2.5
21.57869529724121 1.7420116662979126 -2.5
21.368539810180664 3.472734212875366 -2.5
16.25200080871582 12.212592124938965 -2.347599983215332
15.216615676879883 13.480731964111328 -2.347599983215332
6.426318168640137 9.310136795043945 -1.3063781261444092
5.193920612335205 8.996161460876465 -1.1995832920074463
4.196557521820068 8.844061851501465 -1.1304503679275513
0.36250242590904236 8.995497703552246 -1.0396370887756348
-0.3436572253704071 8.527714729309082 -0.985575258731842
-1.9815478324890137 9.70626449584961 -1.1439929008483887
-2.9411425590515137 10.153974533081055 -1.2207728624343872
-4.112030982971191 10.842548370361328 -1.3391108512878418
-5.761982440948486 12.143115043640137 -1.5521373748779297
-8.275282859802246 14.333173751831055 -1.9112470149993896
-11.54830551147461 16.730566024780273 -2.347599983215332
-15.216601371765137 13.480741500854492 -2.347599983215332
-19.169151306152344 10.0607271194458 -2.5
-20.534770965576172 6.855488300323486 -2.5
-21.019819259643555 5.180908203125 -2.5
-21.578699111938477 1.7419921159744263 -2.5
19.66400909423828 1.587441325187683 -2.5
19.472503662109375 3.16460919380188 -2.5
19.154720306396484 4.72122049331665 -2.5
17.4682559967041 9.16805648803711 -2.5
11.694799423217773 7.395341396331787 -1.753459095954895
14.809975624084473 11.128973960876465 -2.347599983215332
13.866439819335938 12.28458023071289 -2.347599983215332
6.426318168640137 9.310136795043945 -1.4335792064666748
5.193920612335205 8.996161460876465 -1.316386342048645
2.537412166595459 8.76015567779541 -1.1557509899139404
1.7971923351287842 8.80322265625 -1.1385858058929443
0.36250242590904236 8.995497703552246 -1.1408666372299194
-0.3436523377895355 8.527724266052246 -1.0815399885177612
-1.9815502166748047 9.706274032592773 -1.255383014678955
-4.112030982971191 10.842548370361328 -1.469500184059143
-5.761987209320068 12.143115043640137 -1.7032690048217773
-8.275273323059082 14.333178520202637 -2.097338914871216
-11.71627426147461 14.34984302520752 -2.347599983215332
-13.866430282592773 12.284594535827637 -2.347599983215332
-10.716632843017578 6.776777267456055 -1.6067925691604614
-18.14934539794922 7.73269510269165 -2.5
-19.15472412109375 4.721210956573486 -2.5
-19.664018630981445 1.5874218940734863 -2.5
18.11604881286621 0.0 -2.5
17.881460189819336 2.9060254096984863 -2.5
16.040971755981445 8.418954849243164 -2.5
11.684677124023438 7.38894510269165 -1.907826542854309
13.599882125854492 10.21963882446289 -2.347599983215332
11.784399032592773 12.268891334533691 -2.347599983215332
5.193920612335205 8.996161460876465 -1.4335155487060547
3.3303613662719727 8.781455039978027 -1.2960577011108398
1.077978491783142 8.877959251403809 -1.2341487407684326
0.36250242590904236 8.995497703552246 -1.2423784732818604
-2.9411425590515137 10.153974533081055 -1.4588369131088257
-4.112030982971191 10.842548370361328 -1.6002529859542847
-8.275278091430664 14.333178520202637 -2.2839605808258057
-10.75897216796875 13.17735767364502 -2.347599983215332
-11.784419059753418 12.26888656616211 -2.347599983215332
-12.733442306518555 11.28084945678711 -2.347599983215332
-13.59987735748291 10.219648361206055 -2.347599983215332
-17.183744430541992 5.736757755279541 -2.5
-18.057310104370117 1.4577147960662842 -2.5
16.743755340576172 0.0 -2.5
16.689456939697266 1.347314476966858 -2.5
16.526933670043945 2.6858885288238525 -2.5
15.882060050964355 5.302206993103027 -2.5
15.403910636901855 6.562997817993164 -2.5
14.82066822052002 7.778486251831055 -2.499124050140381
11.76888656616211 10.426308631896973 -2.347599983215332
8.172607421875 10.0096435546875 -1.929411768913269
5.193920612335205 8.996161460876465 -1.551005244255066
4.196557521820068 8.844061851501465 -1.46161949634552
1.077978491783142 8.877959251403809 -1.3352978229522705
0.36250242590904236 8.995497703552246 -1.3442022800445557
-4.112038612365723 10.842557907104492 -1.7314083576202393
-5.761982440948486 12.143115043640137 -2.0068414211273193
-7.861537933349609 13.616557121276855 -2.347599983215332
-8.931718826293945 12.939804077148438 -2.347599983215332
-9.943971633911133 12.17916488647461 -2.347599983215332
-12.569686889648438 9.445508003234863 -2.347599983215332
-10.618229866027832 6.714550495147705 -1.8757915496826172
-14.801161766052246 7.768232345581055 -2.4958338737487793
-15.403915405273438 6.562978267669678 -2.5
-15.882075309753418 5.302196979522705 -2.5
-16.257230758666992 4.007040977478027 -2.5
-16.68946647644043 1.3472851514816284 -2.5
15.510639190673828 1.2521483898162842 -2.5
15.35958480834961 2.4961814880371094 -2.5
15.10891056060791 3.724013566970825 -2.5
14.760258674621582 4.927695274353027 -2.5
13.772216796875 7.228222370147705 -2.4988319873809814
11.6646728515625 7.376298427581787 -2.2172696590423584
10.937612533569336 9.689863204956055 -2.347599983215332
8.172621726989746 10.009638786315918 -2.076052188873291
4.196557521820068 8.844061851501465 -1.5727050304412842
2.537412166595459 8.76015567779541 -1.4652334451675415
1.077978491783142 8.877959251403809 -1.4367830753326416
0.36250242590904236 8.995497703552246 -1.4463636875152588
-0.3436523377895355 8.527724266052246 -1.3711514472961426
-1.138769507408142 9.378623008728027 -1.5178085565567017
-2.9411425590515137 10.153974533081055 -1.6983622312545776
-7.3062424659729 12.654780387878418 -2.347599983215332
-8.300844192504883 12.025839805603027 -2.347599983215332
-9.241596221923828 11.318896293640137 -2.347599983215332
-10.122426986694336 10.538554191589355 -2.347599983215332
-11.681845664978027 8.778349876403809 -2.347599983215332
-10.608549118041992 6.708417892456055 -2.0165138244628906
-13.755302429199219 7.219326019287109 -2.495760917663574
-14.315893173217773 6.099413871765137 -2.5
-14.760263442993164 4.927685260772705 -2.5
-15.10891056060791 3.724013566970825 -2.5
-15.359572410583496 2.496171712875366 -2.5
14.531059265136719 -9.765624781721272e-06 -2.5
13.783231735229492 4.601523399353027 -2.5
13.368261337280273 5.695693016052246 -2.5
11.53282642364502 7.292910099029541 -2.347599983215332
10.213607788085938 9.048466682434082 -2.347599983215332
9.452387809753418 9.840986251831055 -2.347599983215332
5.193925857543945 8.9961519241333 -1.7871830463409424
1.7971923351287842 8.80322265625 -1.5457935333251953
1.0779736042022705 8.877959251403809 -1.538629412651062
-1.9815502166748047 9.706274032592773 -1.704362392425537
-4.112030982971191 10.842548370361328 -1.9950567483901978
-5.761987209320068 12.143115043640137 -2.3124313354492188
-7.751381874084473 11.229804039001465 -2.347599983215332
-9.452392578125 9.84097671508789 -2.347599983215332
-10.213598251342773 9.048457145690918 -2.347599983215332
-10.908588409423828 8.197275161743164 -2.347599983215332
-12.847277641296387 6.742753982543945 -2.4962422847747803
-13.368278503417969 5.695683479309082 -2.5
-13.783242225646973 4.601503849029541 -2.5
-14.108810424804688 3.4775097370147705 -2.5
-14.483932495117188 1.1692479848861694 -2.5
13.6256685256958 0.0 -2.5
13.449213981628418 2.1857128143310547 -2.5
13.229731559753418 3.2608397006988525 -2.5
12.924448013305664 4.314814567565918 -2.5
12.535341262817383 5.340800762176514 -2.5
12.064926147460938 6.332167625427246 -2.5
10.814252853393555 6.838515281677246 -2.347599983215332
10.228910446166992 7.686532974243164 -2.347599983215332
8.863447189331055 9.227822303771973 -2.347599983215332
8.092167854309082 9.911108016967773 -2.347599983215332
5.193925857543945 8.9961519241333 -1.905935525894165
3.3303613662719727 8.781455039978027 -1.7231777906417847
1.077978491783142 8.877959251403809 -1.6408660411834717
-1.1387792825698853 9.378623008728027 -1.7334009408950806
-6.397533893585205 11.080829620361328 -2.347599983215332
-8.092175483703613 9.911112785339355 -2.347599983215332
-10.228910446166992 7.686542987823486 -2.347599983215332
-12.924452781677246 4.314814567565918 -2.5
-13.229745864868164 3.2608299255371094 -2.5
12.781874656677246 1.0318652391433716 -2.5
12.450815200805664 3.068857431411743 -2.5
11.7972993850708 5.0263671875 -2.5
11.354594230651855 5.959355354309082 -2.5
10.177543640136719 6.435898303985596 -2.347599983215332
9.62667465209961 7.233974456787109 -2.347599983215332
9.0133638381958 7.985146522521973 -2.347599983215332
6.426318168640137 9.310136795043945 -2.205462694168091
1.077978491783142 8.877959251403809 -1.7435173988342285
-1.1387792825698853 9.378623008728027 -1.8418411016464233
-5.162204265594482 10.879111289978027 -2.347599983215332
-7.615734577178955 9.327588081359863 -2.347599983215332
-9.626676559448242 7.233974456787109 -2.347599983215332
-10.177553176879883 6.435878753662109 -2.347599983215332
-11.3480806350708 5.955917835235596 -2.4985647201538086
-12.163500785827637 4.060761451721191 -2.5
-12.65738296508789 2.0570311546325684 -2.5
12.10750961303711 9.765624781721272e-06 -2.5
11.95071792602539 1.9421874284744263 -2.5
11.755693435668945 2.89751935005188 -2.5
11.48440933227539 3.834062337875366 -2.5
11.13866138458252 4.745741844177246 -2.5
10.720659255981445 5.626650333404541 -2.5
9.609335899353027 6.076581954956055 -2.347599983215332
9.089213371276855 6.830097675323486 -2.347599983215332
7.87588357925415 8.199667930603027 -2.347599983215332
6.426318168640137 9.310136795043945 -2.3358750343322754
4.196557521820068 8.844061851501465 -2.0213077068328857
3.3303613662719727 8.781455039978027 -1.9392467737197876
1.7971923351287842 8.80322265625 -1.855212688446045
1.077978491783142 8.877959251403809 -1.8466143608093262
-1.1387792825698853 9.378623008728027 -1.9507519006729126
-2.9411425590515137 10.153974533081055 -2.182807683944702
-4.031655311584473 10.630610466003418 -2.347599983215332
-7.875885963439941 8.199677467346191 -2.347599983215332
-8.510141372680664 7.539345741271973 -2.347599983215332
-10.7205171585083 5.626552581787109 -2.4999632835388184
-11.138664245605469 4.745732307434082 -2.5
-11.484418869018555 3.834052562713623 -2.5
-11.95071792602539 1.942177653312683 -2.5
11.427338600158691 0.92249995470047 -2.5
11.316054344177246 1.8390429019927979 -2.5
11.13137149810791 2.7436327934265137 -2.5
10.547119140625 4.493700981140137 -2.5
10.151312828063965 5.327841758728027 -2.5
8.606508255004883 6.467372894287109 -2.347599983215332
6.808681488037109 8.339111328125 -2.347599983215332
5.193925857543945 8.9961519241333 -2.2652206420898438
4.196557521820068 8.844061851501465 -2.134674549102783
2.537412166595459 8.76015567779541 -1.9887996912002563
1.7971923351287842 8.80322265625 -1.9592634439468384
1.077978491783142 8.877959251403809 -1.9501827955245972
-1.1387792825698853 9.378623008728027 -2.060161590576172
-1.9815478324890137 9.70626449584961 -2.1602466106414795
-3.8175437450408936 10.066044807434082 -2.347599983215332
-4.615146160125732 9.72622013092041 -2.347599983215332
-6.115588188171387 8.85995101928711 -2.347599983215332
-6.808676719665527 8.339111328125 -2.347599983215332
-7.457622051239014 7.764208793640137 -2.347599983215332
-8.058196067810059 7.13894510269165 -2.347599983215332
-8.606513023376465 6.467363357543945 -2.347599983215332
-9.099013328552246 5.753857135772705 -2.347599983215332
-11.131379127502441 2.7436327934265137 -2.5
-11.316052436828613 1.8390331268310547 -2.5
10.883706092834473 0.0 -2.5
10.84841251373291 0.8757616877555847 -2.5
10.74276351928711 1.74587881565094 -2.5
10.5674409866333 2.6046385765075684 -2.5
10.323588371276855 3.4465136528015137 -2.5
9.637036323547363 5.057919979095459 -2.5
7.649950981140137 6.777265548706055 -2.347599983215332
7.079809188842773 7.370849609375 -2.347599983215332
5.805751800537109 8.411093711853027 -2.347599983215332
5.110112190246582 8.85098648071289 -2.347599983215332
3.3303613662719727 8.781455039978027 -2.157304048538208
2.537407159805298 8.76016616821289 -2.094933032989502
1.0779736042022705 8.877959251403809 -2.054255247116089
-1.1387792825698853 9.378623008728027 -2.170102596282959
-1.9815502166748047 9.706274032592773 -2.275529146194458
-3.624140501022339 9.556093215942383 -2.347599983215332
-4.381335258483887 9.233466148376465 -2.347599983215332
-5.110112190246582 8.85097599029541 -2.347599983215332
-8.170488357543945 6.139726638793945 -2.347599983215332
-9.637041091918945 5.057900428771973 -2.5
-10.74276351928711 1.7458691596984863 -2.5
10.35635757446289 9.765624781721272e-06 -2.5
10.32277774810791 0.8333495855331421 -2.5
10.222241401672363 1.6612792015075684 -2.5
10.055415153503418 2.4784374237060547 -2.5
9.823373794555664 3.279531240463257 -2.5
9.527636528015137 4.059335708618164 -2.5
7.774609088897705 5.842226505279541 -2.347599983215332
7.27929162979126 6.448886394500732 -2.347599983215332
6.736762523651123 7.013720512390137 -2.347599983215332
4.862509727478027 8.422119140625 -2.347599983215332
4.169043064117432 8.786084175109863 -2.347599983215332
2.537412166595459 8.76015567779541 -2.2016072273254395
0.36250242590904236 8.995497703552246 -2.1732542514801025
-0.3436523377895355 8.527724266052246 -2.0602433681488037
-1.1387792825698853 9.378623008728027 -2.2806050777435303
-1.9452489614486694 9.528495788574219 -2.347599983215332
-4.169052600860596 8.786073684692383 -2.347599983215332
-4.862524509429932 8.422128677368164 -2.347599983215332
-5.524450778961182 8.003544807434082 -2.347599983215332
-6.150549411773682 7.53307580947876 -2.347599983215332
-6.736767292022705 7.013720512390137 -2.347599983215332
-7.27929162979126 6.448896408081055 -2.347599983215332
-7.774604320526123 5.842236042022705 -2.347599983215332
-8.517870903015137 5.386357307434082 -2.4328179359436035
-9.170092582702637 4.812841892242432 -2.5
-9.823381423950195 3.2795214653015137 -2.5
-10.222246170043945 1.6612792015075684 -2.5
-10.322772979736328 0.8333300352096558 -2.5
9.875307083129883 0.0 -2.5
9.843276023864746 0.794628918170929 -2.5
9.588335037231445 2.3633203506469727 -2.5
9.085078239440918 3.870781183242798 -2.5
8.744145393371582 4.589277267456055 -2.5
8.33034610748291 5.267802715301514 -2.4951608180999756
5.864858150482178 7.183144569396973 -2.347599983215332
5.267831802368164 7.631786823272705 -2.347599983215332
4.636655330657959 8.03090763092041 -2.347599983215332
3.2883543968200684 8.670693397521973 -2.347599983215332
2.537412166595459 8.76015567779541 -2.3088536262512207
1.7971923351287842 8.80322265625 -2.274564266204834
0.36250242590904236 8.995497703552246 -2.2791202068328857
-1.8548924922943115 9.085888862609863 -2.347599983215332
-3.2883567810058594 8.670683860778809 -2.347599983215332
-3.97540020942688 8.377968788146973 -2.347599983215332
-4.636660099029541 8.03091812133789 -2.347599983215332
-5.267841815948486 7.631767272949219 -2.347599983215332
-5.864858150482178 7.183144569396973 -2.347599983215332
-6.423835277557373 6.687929630279541 -2.347599983215332
-8.3241548538208 5.263857364654541 -2.4933037757873535
-8.744147300720215 4.589277267456055 -2.5
-9.367082595825195 3.1271777153015137 -2.5
-9.58834457397461 2.3633105754852295 -2.5
-9.747416496276855 1.5841113328933716 -2.5
-9.843276023864746 0.7946191430091858 -2.5
9.434598922729492 9.765624781721272e-06 -2.5
9.160444259643555 2.2578516006469727 -2.5
8.949057579040527 2.987626791000366 -2.5
8.679633140563965 3.6980466842651367 -2.5
7.0826416015625 5.322246074676514 -2.347599983215332
6.631406307220459 5.874911785125732 -2.347599983215332
5.603134632110596 6.862587928771973 -2.347599983215332
5.032748699188232 7.291191101074219 -2.347599983215332
4.429731369018555 7.672529220581055 -2.347599983215332
3.7979736328125 8.004091262817383 -2.347599983215332
2.4648633003234863 8.50966739654541 -2.347599983215332
1.77212393283844 8.680419921875 -2.347599983215332
-1.067897915840149 8.794873237609863 -2.347599983215332
-1.77212393283844 8.680419921875 -2.347599983215332
-2.4648633003234863 8.50967788696289 -2.347599983215332
-3.141606330871582 8.2837495803833 -2.347599983215332
-5.032756328582764 7.291201114654541 -2.347599983215332
-5.603129863739014 6.862597465515137 -2.347599983215332
-7.08263635635376 5.322255611419678 -2.347599983215332
-7.9593505859375 5.033183574676514 -2.4953956604003906
-8.353925704956055 4.384472370147705 -2.5
-9.160453796386719 2.2578418254852295 -2.5
9.029276847839355 0.0 -2.5
9.000004768371582 0.7265527248382568 -2.5
8.912348747253418 1.4483983516693115 -2.5
8.306742668151855 3.5391697883605957 -2.5
6.778354167938232 5.093603610992432 -2.347599983215332
6.346508502960205 5.622519493103027 -2.347599983215332
4.239423751831055 7.342909812927246 -2.347599983215332
3.6348142623901367 7.660224437713623 -2.347599983215332
3.0066356658935547 7.927861213684082 -2.347599983215332
2.358954906463623 8.144091606140137 -2.347599983215332
1.695986270904541 8.307509422302246 -2.347599983215332
1.022009253501892 8.417040824890137 -2.347599983215332
0.3414038121700287 8.471962928771973 -2.347599983215332
-1.0220190286636353 8.417031288146973 -2.347599983215332
-1.6959960460662842 8.307509422302246 -2.347599983215332
-5.873510837554932 6.114970684051514 -2.347599983215332
-6.346518516540527 5.622529029846191 -2.347599983215332
-6.778359413146973 5.093613147735596 -2.347599983215332
-7.623764514923096 4.820966720581055 -2.49747896194458
-8.912360191345215 1.4483983516693115 -2.5
8.627094268798828 0.6964550614356995 -2.5
8.543066024780273 1.3883788585662842 -2.5
8.209726333618164 2.7408103942871094 -2.5
7.663744926452637 4.022255897521973 -2.5
7.315248966217041 4.625888347625732 -2.5
6.083544731140137 5.389550685882568 -2.347599983215332
5.140209674835205 6.295634746551514 -2.347599983215332
4.063764572143555 7.038652420043945 -2.347599983215332
1.6257201433181763 7.963281154632568 -2.347599983215332
0.32725584506988525 8.120946884155273 -2.347599983215332
-1.6257177591323853 7.963281154632568 -2.347599983215332
-2.26123046875 7.806640625 -2.347599983215332
-2.8820605278015137 7.599384784698486 -2.347599983215332
-3.4842185974121094 7.342822074890137 -2.347599983215332
-4.063779354095459 7.038642406463623 -2.347599983215332
-5.630136489868164 5.861591815948486 -2.347599983215332
-6.083544731140137 5.389540672302246 -2.347599983215332
-6.517294883728027 4.897431373596191 -2.354752540588379
-7.313676357269287 4.624873161315918 -2.499462604522705
-7.663759708404541 4.02224588394165 -2.5
-7.962560653686523 3.392519474029541 -2.5
-8.403656959533691 2.0713086128234863 -2.5
-8.627084732055664 0.6964355111122131 -2.5
8.067240715026855 1.9883886575698853 -2.5
7.35696268081665 3.8612303733825684 -2.5
7.022417068481445 4.440712928771973 -2.5
5.404755592346191 5.626953125 -2.347599983215332
3.9010937213897705 6.756875038146973 -2.347599983215332
3.344731330871582 7.048886775970459 -2.347599983215332
2.7666893005371094 7.295166015625 -2.347599983215332
2.1706981658935547 7.494130611419678 -2.347599983215332
1.560634732246399 7.644501686096191 -2.347599983215332
0.94044429063797 7.745292663574219 -2.347599983215332
-0.3141552805900574 7.795849323272705 -2.347599983215332
-1.5606396198272705 7.644501686096191 -2.347599983215332
-2.7666893005371094 7.295166015625 -2.347599983215332
-3.344741106033325 7.048896312713623 -2.347599983215332
-3.9010961055755615 6.756884574890137 -2.347599983215332
-4.432153224945068 6.421054363250732 -2.347599983215332
-4.934455394744873 6.043612957000732 -2.347599983215332
-5.404760837554932 5.626962661743164 -2.347599983215332
-7.022417068481445 4.440693378448486 -2.5
-7.881078720092773 2.6310839653015137 -2.5
-8.28173828125 0.6685742139816284 -2.5
7.98681116104126 -9.765624781721272e-06 -2.5
7.883383750915527 1.2811717987060547 -2.5
7.754731178283691 1.9113671779632568 -2.5
7.347700119018555 3.130566358566284 -2.5
6.371474266052246 4.787831783294678 -2.4947009086608887
4.743295669555664 5.809482097625732 -2.347599983215332
2.6595115661621094 7.01256799697876 -2.347599983215332
2.086611270904541 7.203818321228027 -2.347599983215332
1.50018310546875 7.348369121551514 -2.347599983215332
-1.5001733303070068 7.348378658294678 -2.347599983215332
-2.086621046066284 7.203827857971191 -2.347599983215332
-2.6595115661621094 7.012558460235596 -2.347599983215332
-3.2151756286621094 6.775810241699219 -2.347599983215332
-3.7499706745147705 6.495136737823486 -2.347599983215332
-4.743295669555664 5.809492111206055 -2.347599983215332
-5.613783836364746 4.973378658294678 -2.347599983215332
-7.071972370147705 3.7116503715515137 -2.5
-7.575790882110596 2.5291600227355957 -2.5
-7.754735946655273 1.911376953125 -2.5
-7.883383750915527 1.2811620235443115 -2.5
7.291367053985596 2.434208869934082 -2.5
6.806469440460205 3.5723047256469727 -2.5
4.100502967834473 5.940585613250732 -2.347599983215332
3.6091794967651367 6.251298904418945 -2.347599983215332
2.5596630573272705 6.749287128448486 -2.347599983215332
2.0082714557647705 6.93337869644165 -2.347599983215332
-0.2906543016433716 7.21251916885376 -2.347599983215332
-0.8700805306434631 7.165722370147705 -2.347599983215332
-2.0082812309265137 6.93337869644165 -2.347599983215332
-2.5596630573272705 6.749306678771973 -2.347599983215332
-4.100507736206055 5.940605163574219 -2.347599983215332
-5.000339031219482 5.205908298492432 -2.347599983215332
-6.133991718292236 4.609394550323486 -2.4954025745391846
-6.806469440460205 3.5723142623901367 -2.5
-7.291362285614014 2.434208869934082 -2.5
-7.662035942077637 0.6185253858566284 -2.5
7.406869888305664 -9.765624781721272e-06 -2.5
7.382851600646973 0.5960058569908142 -2.5
7.310956954956055 1.188134789466858 -2.5
6.814169883728027 2.9032421112060547 -2.5
6.260210037231445 3.9587206840515137 -2.5
5.918339729309082 4.447333812713623 -2.4987199306488037
5.345273494720459 4.735487937927246 -2.4103333950042725
4.818139553070068 5.016220569610596 -2.347599983215332
4.398876667022705 5.387646198272705 -2.347599983215332
2.981703996658325 6.283798694610596 -2.347599983215332
1.9350926876068115 6.680742263793945 -2.347599983215332
1.3912451267242432 6.814804553985596 -2.347599983215332
0.838366687297821 6.904648303985596 -2.347599983215332
0.2800585925579071 6.94970703125 -2.347599983215332
-1.9351073503494263 6.680742263793945 -2.347599983215332
-2.4663989543914795 6.503368854522705 -2.347599983215332
-3.9510984420776367 5.724130630493164 -2.347599983215332
-4.818137168884277 5.016211032867432 -2.347599983215332
-5.9151611328125 4.444970607757568 -2.4973785877227783
-6.260217189788818 3.9587109088897705 -2.5
-6.558461666107178 3.442138671875 -2.5
-6.814172267913818 2.903251886367798 -2.5
-7.310949325561523 1.1881542205810547 -2.5
7.144584655761719 0.0 -2.5
7.052070140838623 1.1460644006729126 -2.5
6.936977386474609 1.709814429283142 -2.5
6.326215744018555 3.320263624191284 -2.5
5.323530197143555 4.716220378875732 -2.4886529445648193
3.8111767768859863 5.521435260772705 -2.347599983215332
3.3545262813568115 5.810204982757568 -2.347599983215332
2.3790624141693115 6.273076057434082 -2.347599983215332
0.8086816072463989 6.660136699676514 -2.347599983215332
-0.8086938261985779 6.660136699676514 -2.347599983215332
-1.34197998046875 6.573476314544678 -2.347599983215332
-1.8665771484375 6.444150447845459 -2.347599983215332
-3.3545286655426025 5.810214519500732 -2.347599983215332
-3.8111815452575684 5.521435260772705 -2.347599983215332
-4.647529125213623 4.838583946228027 -2.347599983215332
-5.229198932647705 4.632675647735596 -2.444556474685669
-5.710129261016846 4.290878772735596 -2.4993181228637695
-6.038544654846191 3.818535089492798 -2.5
-6.326220512390137 3.320244073867798 -2.5
-7.121420860290527 0.574902355670929 -2.5
6.108232498168945 3.2058591842651367 -2.5
5.830468654632568 3.686962842941284 -2.5
5.151747703552246 4.564043045043945 -2.4942941665649414
4.487382888793945 4.671864986419678 -2.347599983215332
4.096899509429932 5.017792701721191 -2.347599983215332
2.2970898151397705 6.05691385269165 -2.347599983215332
1.8022607564926147 6.222128868103027 -2.347599983215332
1.295742154121399 6.346972465515137 -2.347599983215332
0.7808251976966858 6.430654048919678 -2.347599983215332
0.2608398497104645 6.472626686096191 -2.347599983215332
-0.2608398497104645 6.472617149353027 -2.347599983215332
-1.295742154121399 6.346972465515137 -2.347599983215332
-1.8022656440734863 6.222118854522705 -2.347599983215332
-2.2970898151397705 6.056923866271973 -2.347599983215332
-3.238945245742798 5.610009670257568 -2.347599983215332
-4.487380504608154 4.671864986419678 -2.347599983215332
-5.149453163146973 4.562021255493164 -2.4931817054748535
-5.514884948730469 4.144160270690918 -2.5
-5.83047342300415 3.686953067779541 -2.5
-6.108237266540527 3.2058496475219727 -2.5
-6.80907678604126 1.1065820455551147 -2.5
-6.876035213470459 0.5550780892372131 -2.5
6.666835784912109 -9.765624781721272e-06 -2.5
6.645219802856445 0.5364550948143005 -2.5
6.580502986907959 1.0694433450698853 -2.5
6.473110198974609 1.5954785346984863 -2.5
6.133354187011719 2.613173723220825 -2.5
4.98281717300415 4.414384841918945 -2.4962990283966064
4.400976657867432 4.581904411315918 -2.3823659420013428
3.9593799114227295 4.849355220794678 -2.347599983215332
3.556328058242798 5.152226448059082 -2.347599983215332
1.7417651414871216 6.013251781463623 -2.347599983215332
-0.2520776391029358 6.255351543426514 -2.347599983215332
-0.7546191215515137 6.214785099029541 -2.347599983215332
-2.6838085651397705 5.655995845794678 -2.347599983215332
-3.1302196979522705 5.421689510345459 -2.347599983215332
-3.55633282661438 5.152235984802246 -2.347599983215332
-3.9593846797943115 4.849374771118164 -2.347599983215332
-4.339414119720459 4.517812252044678 -2.3490383625030518
-4.980615139007568 4.412441253662109 -2.495197057723999
-5.329760551452637 4.005058288574219 -2.5
-5.90319299697876 3.0982322692871094 -2.5
-6.323740005493164 2.111161947250366 -2.5
-6.645214557647705 0.5364550948143005 -2.5
6.42764139175415 0.5188964605331421 -2.5
6.365048885345459 1.034423828125 -2.5
5.450268268585205 3.446533203125 -2.5
5.155258655548096 3.873915910720825 -2.5
4.823383808135986 4.273144245147705 -2.498220205307007
4.385820388793945 4.566112995147705 -2.4545226097106934
3.8297460079193115 4.690585613250732 -2.347599983215332
3.439892530441284 4.983544826507568 -2.347599983215332
2.5959227085113525 5.470810413360596 -2.347599983215332
1.6847264766693115 5.816376686096191 -2.347599983215332
1.211245059967041 5.933085918426514 -2.347599983215332
0.7299047708511353 6.011298656463623 -2.347599983215332
-0.24382811784744263 6.050546646118164 -2.347599983215332
-0.729907214641571 6.011308670043945 -2.347599983215332
-1.211245059967041 5.933075904846191 -2.347599983215332
-1.6847387552261353 5.816367149353027 -2.347599983215332
-2.147294759750366 5.661952972412109 -2.347599983215332
-3.0277342796325684 5.244179725646973 -2.347599983215332
-3.439897298812866 4.983544826507568 -2.347599983215332
-4.319665431976318 4.497245788574219 -2.4174997806549072
-6.116703987121582 2.042041063308716 -2.5
-6.427656173706055 0.5188769698143005 -2.5
6.242421627044678 -9.765624781721272e-06 -2.5
6.222177505493164 0.5022948980331421 -2.5
5.921166896820068 1.9767577648162842 -2.5
5.276020526885986 3.336367130279541 -2.5
4.990454196929932 3.750068187713623 -2.5
3.7073192596435547 4.540644645690918 -2.347599983215332
2.9309422969818115 5.076533317565918 -2.347599983215332
2.512939453125 5.295917987823486 -2.347599983215332
2.0786473751068115 5.48095703125 -2.347599983215332
1.6308789253234863 5.630449295043945 -2.347599983215332
-0.2360253781080246 5.857119083404541 -2.347599983215332
-1.1725292205810547 5.743417739868164 -2.347599983215332
-1.6308813095092773 5.630439281463623 -2.347599983215332
-2.0786473751068115 5.480947017669678 -2.347599983215332
-2.9309473037719727 5.076542854309082 -2.347599983215332
-4.670615196228027 4.137812614440918 -2.4989840984344482
-5.276040077209473 3.336357355117798 -2.5
-5.527390003204346 2.900995969772339 -2.5
-5.921166896820068 1.9767675399780273 -2.5
-6.06102991104126 1.4939062595367432 -2.5
-6.161584377288818 1.0013574361801147 -2.5
6.047372817993164 0.0 -2.5
5.736156940460205 1.9149999618530273 -2.5
5.563461780548096 2.370361328125 -2.5
5.111181735992432 3.232109308242798 -2.5
4.834526062011719 3.6329197883605957 -2.5
4.181205749511719 4.353085994720459 -2.4952456951141357
3.225883722305298 4.673495769500732 -2.347599983215332
2.83935546875 4.917929649353027 -2.347599983215332
1.579921841621399 5.454511642456055 -2.347599983215332
1.135888695716858 5.563954830169678 -2.347599983215332
0.6844921708106995 5.63732385635376 -2.347599983215332
-0.6845019459724426 5.637314319610596 -2.347599983215332
-1.5799267292022705 5.454511642456055 -2.347599983215332
-2.0136985778808594 5.309697151184082 -2.347599983215332
-3.22588849067688 4.673505783081055 -2.347599983215332
-4.526533126831055 4.010156154632568 -2.5
-4.83453369140625 3.6329100131988525 -2.5
-5.111191272735596 3.232119083404541 -2.5
-5.563461780548096 2.370351552963257 -2.5
-5.871652603149414 1.4472362995147705 -2.5
5.692152976989746 1.4029979705810547 -2.5
4.686743259429932 3.521855354309082 -2.5
4.388164043426514 3.887568235397339 -2.5
4.056333065032959 4.223095417022705 -2.497065305709839
2.752568244934082 4.767597675323486 -2.347599983215332
2.3600096702575684 4.973603248596191 -2.347599983215332
1.9521435499191284 5.147392272949219 -2.347599983215332
1.5316210985183716 5.287783145904541 -2.347599983215332
1.1011669635772705 5.393886566162109 -2.347599983215332
0.22166503965854645 5.500663757324219 -2.347599983215332
-1.1011669635772705 5.393877029418945 -2.347599983215332
-1.5316332578659058 5.287783145904541 -2.347599983215332
-1.9521435499191284 5.147392272949219 -2.347599983215332
-2.752578020095825 4.767587661743164 -2.347599983215332
-3.5942234992980957 4.40212869644165 -2.423471212387085
-4.054887771606445 4.221591472625732 -2.4961705207824707
-4.686743259429932 3.521855354309082 -2.5
-4.954946041107178 3.133310556411743 -2.5
-5.191000938415527 2.724433422088623 -2.5
-5.393398284912109 2.297900438308716 -2.5
-5.560815334320068 1.8564647436141968 -2.5
-5.69216775894165 1.4029881954193115 -2.5
-5.786601543426514 0.9404199123382568 -2.5
-5.843505859375 0.47172850370407104 -2.5
5.687016487121582 0.0 -2.5
5.613373756408691 0.9122558236122131 -2.5
5.035605430603027 2.642890453338623 -2.5
4.546450138092041 3.416435480117798 -2.5
4.256801605224609 3.771191358566284 -2.5
3.0401365756988525 4.404404163360596 -2.352617025375366
2.670175790786743 4.624863147735596 -2.347599983215332
1.4857763051986694 5.129492282867432 -2.347599983215332
1.068212866783142 5.232411861419678 -2.347599983215332
0.6436962485313416 5.301396369934082 -2.347599983215332
0.21503417193889618 5.336005687713623 -2.347599983215332
-0.2150292992591858 5.336005687713623 -2.347599983215332
-1.068203091621399 5.232421875 -2.347599983215332
-1.4857860803604126 5.129492282867432 -2.347599983215332
-2.289365291595459 4.82473611831665 -2.347599983215332
-3.583122491836548 4.388535022735596 -2.490540027618408
-4.256796836853027 3.7712011337280273 -2.5
-5.231947898864746 2.229120969772339 -2.5
-5.668588638305664 0.4576074182987213 -2.5
5.236073970794678 1.7480566501617432 -2.5
4.413051605224609 3.3161816596984863 -2.5
4.131899356842041 3.660537004470825 -2.5
3.8239402770996094 3.981142520904541 -2.5
3.0296287536621094 4.389179706573486 -2.415353298187256
2.5918164253234863 4.489179611206055 -2.347599983215332
1.8381445407867432 4.846796989440918 -2.347599983215332
1.036865234375 5.078896522521973 -2.347599983215332
0.6248242259025574 5.145859241485596 -2.347599983215332
0.20872558653354645 5.179443359375 -2.347599983215332
-0.20872314274311066 5.179443359375 -2.347599983215332
-1.036865234375 5.07888650894165 -2.347599983215332
