ply
format ascii 1.0
element vertex 736
property float x
property float y
property float z
end_header
-21.862478256225586 -11.47426700592041 6.615840911865234
-21.850934982299805 -11.468222618103027 6.319933891296387
11.039403915405273 -15.99339771270752 4.520569801330566
-21.857755661010742 -11.471786499023438 5.454666614532471
-21.860124588012695 -11.47304630279541 5.168939590454102
-21.861764907836914 -11.473896026611328 4.884376525878906
10.91476058959961 -15.81283187866211 3.801154136657715
-21.86337661743164 -11.474745750427246 4.601107120513916
-21.865007400512695 -11.475595474243164 4.318873882293701
-24.13780975341797 -8.058398246765137 4.160659313201904
-21.866613388061523 -11.476445198059082 4.037656307220459
-24.224273681640625 -8.087265014648438 3.885510206222534
-21.86822509765625 -11.477294921875 3.7574639320373535
10.897233963012695 -15.78744125366211 2.918574810028076
-24.187965393066406 -8.075146675109863 3.5910418033599854
-21.869821548461914 -11.478124618530273 3.4781341552734375
10.892895698547363 -15.78115177154541 2.7003612518310547
-24.137653350830078 -8.058340072631836 3.296422004699707
-24.134811401367188 -8.057382583618164 3.00974178314209
-21.873014450073242 -11.479804039001465 2.921999454498291
10.88427734375 -15.768671989440918 2.2664313316345215
-21.87460708618164 -11.480644226074219 2.6449785232543945
10.879997253417969 -15.762460708618164 2.050598382949829
-24.202585220336914 -8.080009460449219 2.446181535720825
10.875724792480469 -15.756269454956055 1.83544921875
-21.877775192260742 -11.482295036315918 2.092705011367798
10.871461868286133 -15.750106811523438 1.620924949645996
3.0358104705810547 -25.001943588256836 1.8523186445236206
10.867209434509277 -15.743945121765137 1.406970500946045
-21.880929946899414 -11.4839448928833 1.5423425436019897
3.0340869426727295 -24.98779296875 1.5710430145263672
10.862968444824219 -15.737802505493164 1.1935317516326904
-21.882511138916016 -11.484785079956055 1.2677068710327148
-6.949023246765137 -23.99087905883789 1.2812347412109375
3.0132739543914795 -24.816425323486328 1.2823486328125
10.858744621276855 -15.73167896270752 0.980554461479187
10.85451602935791 -15.725565910339355 0.7679836750030518
-21.885662078857422 -11.486425399780273 0.7191845774650574
10.850309371948242 -15.719452857971191 0.555767834186554
10.846091270446777 -15.713358879089355 0.34385284781455994
-21.888795852661133 -11.488076210021973 0.17121246457099915
-21.890357971191406 -11.488896369934082 -0.1027362048625946
10.837692260742188 -15.701190948486328 -0.07928252965211868
-21.891931533813477 -11.489726066589355 -0.3767460584640503
10.833498001098633 -15.695107460021973 -0.29060500860214233
10.829298973083496 -15.6890230178833 -0.5018360614776611
10.825112342834473 -15.68294906616211 -0.7130300998687744
-25.312990188598633 -8.450722694396973 -1.2948044538497925
-21.896657943725586 -11.492206573486328 -1.1998469829559326
10.820918083190918 -15.676875114440918 -0.92423415184021
-21.898229598999023 -11.493026733398438 -1.4747940301895142
-23.58046531677246 -14.911308288574219 -1.6637439727783203
2.5217552185058594 -20.76837921142578 -1.2475844621658325
10.816723823547363 -15.670790672302246 -1.135501742362976
-23.73094367980957 -15.006464958190918 -1.9868289232254028
-18.982946395874023 -16.817420959472656 -1.7945924997329712
2.5145604610443115 -20.709169387817383 -1.4761860370635986
-26.367834091186523 -11.234296798706055 -2.347599983215332
-22.99481201171875 -17.279481887817383 -2.3559696674346924
-19.177942276000977 -16.990184783935547 -2.098609447479248
-20.04576873779297 -20.869882583618164 -2.370225429534912
-16.511383056640625 -23.920936584472656 -2.3807525634765625
-14.543737411499023 -25.190614700317383 -2.3825204372406006
-12.47332763671875 -26.287031173706055 -2.383222818374634
-1.1692016124725342 -29.013553619384766 -2.3783743381500244
1.1678564548492432 -28.97994041442871 -2.3756179809570312
9.319814682006836 -19.64104461669922 -1.7806860208511353
15.0851411819458 -18.475927352905273 -1.9536798000335693
21.53207778930664 -19.075740814208984 -2.3562185764312744
18.885066986083984 -11.942177772521973 -1.8301671743392944
27.186315536499023 -9.076112747192383 -2.347599983215332
-26.079654693603516 -6.428075790405273 -2.5
-24.374176025390625 -8.137304306030273 -2.3917038440704346
-21.052867889404297 -11.049355506896973 -2.212972402572632
-21.318023681640625 -13.48070240020752 -2.347599983215332
-16.006105422973633 -19.603944778442383 -2.355562925338745
-9.541852951049805 -16.527002334594727 -1.7762105464935303
-10.89965534210205 -22.970565795898438 -2.3664567470550537
-9.019965171813965 -23.783681869506836 -2.3675074577331543
-7.077682971954346 -24.43510627746582 -2.3677737712860107
-2.466242551803589 -20.311376571655273 -1.9043582677841187
-1.0238866806030273 -25.407480239868164 -2.3667101860046387
1.023046851158142 -25.387109756469727 -2.3648107051849365
2.500236749649048 -20.5911808013916 -1.9305938482284546
5.072887897491455 -24.848602294921875 -2.3604793548583984
7.048671722412109 -24.334735870361328 -2.358048439025879
8.979994773864746 -23.678213119506836 -2.35701060295105
12.650221824645996 -21.91082000732422 -2.354830026626587
10.804121017456055 -15.652528762817383 -1.7702062129974365
15.972640991210938 -19.562910079956055 -2.3506321907043457
17.475290298461914 -18.193681716918945 -2.347985029220581
18.8795108795166 -16.725780487060547 -2.347599983215332
20.164167404174805 -15.152372360229492 -2.347599983215332
18.885066986083984 -11.942167282104492 -2.0796754360198975
22.333648681640625 -11.72159194946289 -2.347599983215332
23.204431533813477 -9.886474609375 -2.347599983215332
26.05528450012207 -6.422030925750732 -2.4976632595062256
26.773061752319336 -2.161328077316284 -2.5
-23.667072296142578 -3.846269369125366 -2.5
-18.00018310546875 -13.52627944946289 -2.347599983215332
-16.85338020324707 -14.93080997467041 -2.347599983215332
-14.240056037902832 -17.440927505493164 -2.347599983215332
-12.79046630859375 -18.530254364013672 -2.347599983215332
-8.731149673461914 -15.122802734375 -1.8206915855407715
-7.2666916847229 -15.314140319824219 -1.7673511505126953
-8.002873420715332 -21.101816177368164 -2.353074550628662
-4.518164157867432 -22.13150405883789 -2.355114459991455
-2.485358715057373 -20.468788146972656 -2.1498358249664307
0.9095043540000916 -22.568769454956055 -2.355022668838501
2.500241756439209 -20.5911808013916 -2.1626899242401123
4.512941837310791 -22.10578155517578 -2.352379560470581
6.27269983291626 -21.655839920043945 -2.3507368564605713
7.990346431732178 -21.0687198638916 -2.349383592605591
9.655099868774414 -20.34765625 -2.3482513427734375
11.257978439331055 -19.499364852905273 -2.347599983215332
10.359318733215332 -15.00814437866211 -1.9013820886611938
18.865703582763672 -11.92992115020752 -2.327301025390625
19.936845779418945 -10.463651657104492 -2.347599983215332
22.743600845336914 -7.592929363250732 -2.5
23.28082275390625 -5.738203048706055 -2.5
23.667064666748047 -3.846269369125366 -2.5
-21.648921966552734 9.765624781721272e-06 -2.5
-21.368532180786133 -3.47271466255188 -2.5
-21.019811630249023 -5.18093729019165 -2.5
-19.91653060913086 -8.4856538772583 -2.5
-17.69589614868164 -11.190195083618164 -2.4178102016448975
-15.216609001159668 -13.480751991271973 -2.347599983215332
-4.06634521484375 -19.918338775634766 -2.347599983215332
-0.8185619711875916 -20.312685012817383 -2.347599983215332
0.8185790777206421 -20.312694549560547 -2.347599983215332
8.714978218078613 -18.366395950317383 -2.347599983215332
10.359318733215332 -15.00814437866211 -2.105905771255493
14.082521438598633 -14.661444664001465 -2.347599983215332
15.216609001159668 -13.480722427368164 -2.347599983215332
17.87327766418457 -11.302352905273438 -2.442046642303467
19.16914939880371 -10.060731887817383 -2.5
19.916540145874023 -8.485634803771973 -2.5
20.534767150878906 -6.855517387390137 -2.5
21.01982307434082 -5.180917739868164 -2.5
21.578678131103516 -1.741982340812683 -2.5
-19.664020538330078 -1.5874511003494263 -2.5
-17.468263626098633 -9.168046951293945 -2.5
-11.71627140045166 -14.349853515625 -2.347599983215332
-10.523591041564941 -15.246073722839355 -2.347599983215332
-8.676715850830078 -15.028505325317383 -2.1990878582000732
-7.277448654174805 -15.336894035339355 -2.1512489318847656
-5.154072284698486 -17.793954849243164 -2.347599983215332
-3.7055346965789795 -18.150985717773438 -2.347599983215332
-0.74592524766922 -18.51034164428711 -2.347599983215332
2.2329978942871094 -18.390283584594727 -2.347599983215332
3.705559015274048 -18.150976181030273 -2.347599983215332
6.569201469421387 -17.321514129638672 -2.347599983215332
10.304865837097168 -14.929247856140137 -2.2988078594207764
15.751383781433105 -11.836377143859863 -2.496825695037842
16.673917770385742 -10.543906211853027 -2.5
18.712717056274414 -6.247216701507568 -2.5
19.154727935791016 -4.72119140625 -2.5
-18.116052627563477 0.0 -2.5
-17.881452560424805 -2.906015634536743 -2.5
-17.18373680114746 -5.736786842346191 -2.5
-16.666393280029297 -7.100898265838623 -2.5
-16.040973663330078 -8.4189453125 -2.5
-15.311501502990723 -9.682392120361328 -2.5
-14.48275089263916 -10.883085250854492 -2.5
-8.505837440490723 -14.732577323913574 -2.347599983215332
-7.227609634399414 -15.231864929199219 -2.3266191482543945
-3.402765989303589 -16.667909622192383 -2.347599983215332
0.6850000023841858 -16.997909545898438 -2.347599983215332
2.050551652908325 -16.88765525817871 -2.347599983215332
3.4027929306030273 -16.667909622192383 -2.347599983215332
6.032448768615723 -15.906190872192383 -2.347599983215332
8.505859375 -14.73256778717041 -2.347599983215332
11.048271179199219 -13.53164005279541 -2.4107208251953125
13.560060501098633 -12.013163566589355 -2.5
16.66640281677246 -7.100898265838623 -2.5
17.183746337890625 -5.736767292022705 -2.5
17.589645385742188 -4.335439205169678 -2.5
17.881454467773438 -2.906015634536743 -2.5
18.057310104370117 -1.4577245712280273 -2.5
-16.68946075439453 -1.3473047018051147 -2.5
-16.257204055786133 -4.007040977478027 -2.5
-15.882058143615723 -5.302206993103027 -2.5
-14.82586669921875 -7.781210899353027 -2.5
-14.15166187286377 -8.948954582214355 -2.5
-12.532877922058105 -11.10317325592041 -2.5
-9.393049240112305 -13.608202934265137 -2.4688611030578613
-8.020146369934082 -13.891307830810547 -2.3949666023254395
-6.740348815917969 -14.205009460449219 -2.347599983215332
-4.374426364898682 -15.10228443145752 -2.347599983215332
-1.8952099084854126 -15.608417510986328 -2.347599983215332
-0.6331030130386353 -15.710311889648438 -2.347599983215332
0.6331103444099426 -15.710311889648438 -2.347599983215332
4.37445068359375 -15.102274894714355 -2.347599983215332
5.575485706329346 -14.701308250427246 -2.347599983215332
10.589529037475586 -12.969794273376465 -2.5
11.59881591796875 -12.075624465942383 -2.5
12.53289794921875 -11.10318374633789 -2.5
13.385695457458496 -10.058671951293945 -2.5
15.882064819335938 -5.302196979522705 -2.5
16.257226943969727 -4.007030963897705 -2.5
16.526935577392578 -2.6858983039855957 -2.5
16.689472198486328 -1.347314476966858 -2.5
-15.561091423034668 0.0 -2.5
-15.10891342163086 -3.7240233421325684 -2.5
-14.76025104522705 -4.927695274353027 -2.5
-13.152077674865723 -8.316864967346191 -2.5
-10.77953815460205 -11.222695350646973 -2.5
-7.7797532081604 -13.47494125366211 -2.4997482299804688
-1.7808300256729126 -14.666522979736328 -2.3735878467559814
2.997087240219116 -14.680634498596191 -2.407196521759033
4.227780818939209 -14.595927238464355 -2.44132924079895
6.663439750671387 -14.04287052154541 -2.4971911907196045
7.780553817749023 -13.476279258728027 -2.5
13.778666496276855 -7.231611251831055 -2.5
14.31588077545166 -6.099423885345459 -2.5
14.760271072387695 -4.927695274353027 -2.5
15.108930587768555 -3.723994016647339 -2.5
-14.531042098999023 9.765624781721272e-06 -2.5
-14.483932495117188 -1.169277310371399 -2.5
-14.342878341674805 -2.3309667110443115 -2.5
-14.108805656433105 -3.4775097370147705 -2.5
-13.783234596252441 -4.601523399353027 -2.5
-13.36825942993164 -5.695683479309082 -2.5
-11.616740226745605 -8.729423522949219 -2.5
-10.06601333618164 -10.479833602905273 -2.5
-8.2545747756958 -11.958837509155273 -2.5
-5.152790546417236 -13.586776733398438 -2.5
-4.04278564453125 -13.957353591918945 -2.5
-1.749050259590149 -14.404746055603027 -2.496469736099243
-0.5841283798217773 -14.494999885559082 -2.4958202838897705
1.7497411966323853 -14.410370826721191 -2.497443914413452
2.906259775161743 -14.235790252685547 -2.4997165203094482
6.229362487792969 -13.12808609008789 -2.5
7.265534400939941 -12.584257125854492 -2.5
8.254594802856445 -11.958818435668945 -2.5
9.190107345581055 -11.255820274353027 -2.5
10.876657485961914 -9.635859489440918 -2.5
11.616752624511719 -8.72939395904541 -2.5
12.281513214111328 -7.766337871551514 -2.5
13.368270874023438 -5.695683479309082 -2.5
14.483932495117188 -1.1692675352096558 -2.5
-13.581496238708496 -1.0964257717132568 -2.5
-13.44921588897705 -2.1857128143310547 -2.5
-13.22973346710205 -3.2608494758605957 -2.5
-12.924449920654297 -4.314804553985596 -2.5
-9.438830375671387 -9.826874732971191 -2.5
-8.6174898147583 -10.55453109741211 -2.5
-7.740256309509277 -11.213720321655273 -2.5
-6.812829494476318 -11.800175666809082 -2.5
-2.7254834175109863 -13.350321769714355 -2.5
-1.642397403717041 -13.526328086853027 -2.5
-0.5486499071121216 -13.614628791809082 -2.5
0.5486523509025574 -13.614628791809082 -2.5
2.7254858016967773 -13.350312232971191 -2.5
4.831748008728027 -12.74022388458252 -2.5
5.841232776641846 -12.310097694396973 -2.5
9.438847541809082 -9.826865196228027 -2.5
10.198974609375 -9.03548812866211 -2.5
10.892949104309082 -8.185507774353027 -2.5
12.535344123840332 -5.340790748596191 -2.5
13.229721069335938 -3.260810375213623 -2.5
13.58148193359375 -1.0964062213897705 -2.5
-12.823444366455078 0.0 -2.5
-12.78185749053955 -1.0318652391433716 -2.5
-4.938601016998291 -2.591972589492798 -1.0873562097549438
-7.284543514251709 -10.553495407104492 -2.5
-4.547263145446777 -11.99013614654541 -2.5
-3.5677075386047363 -12.317148208618164 -2.5
-1.5456957817077637 -12.729960441589355 -2.5
-0.5163476467132568 -12.8130464553833 -2.5
1.5457006692886353 -12.729960441589355 -2.5
2.5650243759155273 -12.564287185668945 -2.5
3.5677146911621094 -12.317157745361328 -2.5
4.547263145446777 -11.99014663696289 -2.5
5.497326374053955 -11.58535099029541 -2.5
6.411728382110596 -11.105420112609863 -2.5
7.284562587738037 -10.553476333618164 -2.5
10.251615524291992 -7.703574180603027 -2.5
11.3546142578125 -5.959335803985596 -2.5
11.79730224609375 -5.026376724243164 -2.5
12.163508415222168 -4.060781002044678 -2.5
-12.068249702453613 -0.97425776720047 -2.5
-11.95071029663086 -1.942177653312683 -2.5
-11.484411239624023 -3.834062337875366 -2.5
-11.138664245605469 -4.745741844177246 -2.5
-4.849079608917236 -2.544990062713623 -1.130778431892395
-4.108159065246582 -3.0870800018310547 -1.0610724687576294
-4.028059005737305 -3.568554639816284 -1.1111750602722168
-8.387163162231445 -8.731972694396973 -2.5
-7.657336235046387 -9.378554344177246 -2.5
-6.877831935882568 -9.964296340942383 -2.5
-5.190390586853027 -10.9385347366333 -2.5
-4.293385982513428 -11.320722579956055 -2.5
-3.3685131072998047 -11.629491806030273 -2.5
-2.421801805496216 -11.862832069396973 -2.5
-0.4875122010707855 -12.097695350646973 -2.5
0.4875243902206421 -12.097695350646973 -2.5
1.4594067335128784 -12.019238471984863 -2.5
2.421816349029541 -11.862832069396973 -2.5
3.368532657623291 -11.62948226928711 -2.5
4.293393611907959 -11.320722579956055 -2.5
7.657353401184082 -9.378524780273438 -2.5
9.679266929626465 -7.273476600646973 -2.5
10.720673561096191 -5.626640319824219 -2.5
11.950727462768555 -1.9421874284744263 -2.5
12.068254470825195 -0.9742480516433716 -2.5
-11.464513778686523 0.0 -2.5
-11.42733097076416 -0.9225195050239563 -2.5
-11.316052436828613 -1.8390331268310547 -2.5
-11.131369590759277 -2.743642568588257 -2.5
-10.874504089355469 -3.630439281463623 -2.5
-5.559328556060791 -2.368603467941284 -1.3177369832992554
-4.806147575378418 -2.5224609375 -1.183626413345337
-4.204389572143555 -2.65869140625 -1.0847572088241577
-3.99578595161438 -3.0026464462280273 -1.0899310111999512
-7.941738128662109 -8.268232345581055 -2.5
-3.189626455307007 -11.011884689331055 -2.5
-2.2931859493255615 -11.232831954956055 -2.5
2.2931981086730957 -11.232831954956055 -2.5
4.914751052856445 -10.357626914978027 -2.5
5.732258319854736 -9.928573608398438 -2.5
6.512587547302246 -9.435097694396973 -2.5
7.250680923461914 -8.880468368530273 -2.5
9.165212631225586 -6.887216567993164 -2.5
9.689702033996582 -6.127382755279541 -2.5
10.874524116516113 -3.630449056625366 -2.5
11.131376266479492 -2.7436230182647705 -2.5
-10.883703231811523 0.0 -2.5
-5.496557712554932 -2.341865301132202 -1.372383952140808
-4.763769626617432 -2.5002148151397705 -1.2357964515686035
-4.140187740325928 -2.618095636367798 -1.1251977682113647
-3.8913938999176025 -2.924199104309082 -1.1181002855300903
-3.7983007431030273 -3.3650097846984863 -1.1656140089035034
-6.182639122009277 -8.957109451293945 -2.5
-3.8594236373901367 -10.176454544067383 -2.5
-3.028027296066284 -10.453993797302246 -2.5
-2.177016496658325 -10.663759231567383 -2.5
1.3119066953659058 -10.80434513092041 -2.5
3.8594188690185547 -10.176445007324219 -2.5
4.665759086608887 -9.832890510559082 -2.5
5.441853046417236 -9.425565719604492 -2.5
6.883347034454346 -8.43056583404541 -2.5
7.539411544799805 -7.849355220794678 -2.5
8.146559715270996 -7.217206954956055 -2.5
8.700898170471191 -6.538300514221191 -2.5
9.637042999267578 -5.057909965515137 -2.5
10.323586463928223 -3.4465136528015137 -2.5
10.567439079284668 -2.604628801345825 -2.5
10.742749214172363 -1.74587881565094 -2.5
-10.222243309020996 -1.6612792015075684 -2.5
-10.05541706085205 -2.4784374237060547 -2.5
-4.720910549163818 -2.477714776992798 -1.2870368957519531
-3.71783185005188 -3.293710947036743 -1.199017882347107
-7.174094200134277 -7.469033241271973 -2.5
-6.549821853637695 -8.022089958190918 -2.5
-5.883068561553955 -8.523124694824219 -2.5
-5.178168773651123 -8.968876838684082 -2.5
-3.672419309616089 -9.683368682861328 -2.5
-2.8813109397888184 -9.947461128234863 -2.5
-2.071535587310791 -10.14706039428711 -2.5
-1.248317837715149 -10.28084945678711 -2.5
1.248329997062683 -10.28084945678711 -2.5
2.071542978286743 -10.147050857543945 -2.5
2.8813281059265137 -9.947480201721191 -2.5
3.672419309616089 -9.683359146118164 -2.5
5.178173542022705 -8.968876838684082 -2.5
7.17410135269165 -7.46902322769165 -2.5
7.751850605010986 -6.867538928985596 -2.5
8.75308609008789 -5.535117149353027 -2.5
9.170100212097168 -4.812841892242432 -2.5
9.527636528015137 -4.05935525894165 -2.5
9.823369026184082 -3.279531240463257 -2.5
10.055424690246582 -2.4784276485443115 -2.5
-9.875300407409668 -9.765624781721272e-06 -2.5
-9.747419357299805 -1.5841211080551147 -2.5
-9.588336944580078 -2.3633105754852295 -2.5
-5.370319843292236 -2.288076162338257 -1.477786660194397
-4.097348690032959 -2.591005802154541 -1.22726571559906
-3.578508138656616 -3.7256152629852295 -1.3077681064605713
-5.609807014465332 -8.127226829528809 -2.5
-4.937648773193359 -8.552275657653809 -2.5
-4.233461856842041 -8.921854972839355 -2.5
-3.501826047897339 -9.233564376831055 -2.5
-2.7474730014801025 -9.4854097366333 -2.5
-1.1903369426727295 -9.803300857543945 -2.5
0.3976464867591858 -9.867284774780273 -2.5
1.9753246307373047 -9.675732612609863 -2.5
2.747492551803589 -9.485400199890137 -2.5
4.233474254608154 -8.921845436096191 -2.5
4.937655925750732 -8.552275657653809 -2.5
5.609821796417236 -8.127206802368164 -2.5
7.894748210906982 -5.932499885559082 -2.5
8.744150161743164 -4.589277267456055 -2.5
9.085075378417969 -3.870790958404541 -2.5
9.367079734802246 -3.127187490463257 -2.5
9.588346481323242 -2.3633203506469727 -2.5
9.843276023864746 -0.794628918170929 -2.5
-9.404010772705078 -0.75916987657547 -2.5
-9.312429428100586 -1.513427734375 -2.5
-9.160446166992188 -2.2578516006469727 -2.5
-8.94905948638916 -2.9876365661621094 -2.5
-4.635790824890137 -2.433056592941284 -1.387308120727539
-4.076096057891846 -2.5775585174560547 -1.277927041053772
-3.567753791809082 -3.160761594772339 -1.263029932975769
-5.359460353851318 -7.764550685882568 -2.5
-4.717297077178955 -8.170615196228027 -2.5
-4.044543266296387 -8.523700714111328 -2.5
0.37990233302116394 -9.426953315734863 -2.5
1.1372240781784058 -9.36581039428711 -2.5
1.8871654272079468 -9.243926048278809 -2.5
2.624875545501709 -9.062108993530273 -2.5
3.3455638885498047 -8.821503639221191 -2.5
5.359467506408691 -7.764531135559082 -2.5
5.966872215270996 -7.308085918426514 -2.5
6.53557825088501 -6.804267406463623 -2.5
7.061903953552246 -6.256289005279541 -2.5
8.679636001586914 -3.69805645942688 -2.5
8.949065208435059 -2.9876365661621094 -2.5
9.160441398620605 -2.2578418254852295 -2.5
9.312418937683105 -1.5134179592132568 -2.5
9.404006004333496 -0.7591601610183716 -2.5
-9.029279708862305 0.0 -2.5
-8.912353515625 -1.4483983516693115 -2.5
-8.564597129821777 -2.8592870235443115 -2.5
-5.223361492156982 -2.225468635559082 -1.5720247030258179
-4.594016075134277 -2.4111132621765137 -1.4365224838256836
-3.5965330600738525 -2.7026171684265137 -1.2456133365631104
-3.4994773864746094 -3.1002635955810547 -1.2944707870483398
-5.710527420043945 -6.994130611419678 -2.5
-3.87078595161438 -8.157519340515137 -2.5
-3.2018308639526367 -8.442519187927246 -2.5
-1.8060839176177979 -8.84682559967041 -2.5
-1.0883642435073853 -8.963457107543945 -2.5
1.0883666276931763 -8.963446617126465 -2.5
3.870793342590332 -8.157509803771973 -2.5
4.514640808105469 -7.819599628448486 -2.5
7.218395709991455 -5.424277305603027 -2.5
7.631462097167969 -4.825839519500732 -2.5
7.995028972625732 -4.196103572845459 -2.5
8.564584732055664 -2.8592772483825684 -2.5
8.76690673828125 -2.160839796066284 -2.5
-8.65514850616455 9.765624781721272e-06 -2.5
-8.627079963684082 -0.6964452862739563 -2.5
-5.188503265380859 -2.210624933242798 -1.6290302276611328
-4.540297985076904 -2.382939338684082 -1.4810951948165894
-4.032607555389404 -2.5500683784484863 -1.3781507015228271
-3.433364152908325 -3.041699171066284 -1.3249140977859497
-4.32757568359375 -7.49560546875 -2.5
-3.710390567779541 -7.819511413574219 -2.5
0.3485204875469208 -8.648134231567383 -2.5
1.73126220703125 -8.480243682861328 -2.5
2.408024787902832 -8.313427925109863 -2.5
4.327580451965332 -7.495585918426514 -2.5
5.995636940002441 -6.242118835449219 -2.5
7.663759708404541 -4.022255897521973 -2.5
8.209733963012695 -2.7408103942871094 -2.5
-8.308673858642578 0.0 -2.5
-8.06723403930664 -1.9884082078933716 -2.5
-7.881076335906982 -2.631093740463257 -2.5
-3.4973411560058594 -2.6280858516693115 -1.316311001777649
-4.719870567321777 -6.837910175323486 -2.5
-4.154330730438232 -7.195527076721191 -2.5
-2.946296215057373 -7.768740177154541 -2.5
-1.6619360446929932 -8.140761375427246 -2.5
1.6619482040405273 -8.14077091217041 -2.5
2.3116259574890137 -7.980634689331055 -2.5
2.9463109970092773 -7.768749713897705 -2.5
4.154345512390137 -7.195527076721191 -2.5
5.755622386932373 -5.992236137390137 -2.5
6.642309188842773 -4.991366863250732 -2.5
7.022404670715332 -4.440712928771973 -2.5
7.35696268081665 -3.8612303733825684 -2.5
7.643808364868164 -3.256728410720825 -2.5
7.881083965301514 -2.631093740463257 -2.5
8.201086044311523 -1.3328124284744263 -2.5
8.28173828125 -0.6685644388198853 -2.5
-7.98681640625 -9.765624781721272e-06 -2.5
-7.883381366729736 -1.2811815738677979 -2.5
-7.754726409912109 -1.9113671779632568 -2.5
-3.956796884536743 -2.502128839492798 -1.4653979539871216
-3.4676806926727295 -2.605790853500366 -1.3577462434768677
-3.030756711959839 -3.7120115756988525 -1.5000122785568237
-4.537018775939941 -6.57302713394165 -2.5
-2.832158088684082 -7.467792987823486 -2.5
-2.2220702171325684 -7.671483993530273 -2.5
-1.59756338596344 -7.825409889221191 -2.5
-0.96270751953125 -7.928593635559082 -2.5
-0.3216015696525574 -7.98034143447876 -2.5
0.3215991258621216 -7.980331897735596 -2.5
0.9627196788787842 -7.928574085235596 -2.5
3.423896312713623 -7.21569299697876 -2.5
4.537021160125732 -6.57302713394165 -2.5
5.051225662231445 -6.186630725860596 -2.5
6.385002136230469 -4.798017501831055 -2.5
7.347702503204346 -3.130556583404541 -2.5
7.575778484344482 -2.529169797897339 -2.5
7.960920333862305 -0.6426659822463989 -2.5
-7.686957836151123 -9.765624781721272e-06 -2.5
-7.662033557891846 -0.6185546517372131 -2.5
-7.587414264678955 -1.2330663204193115 -2.5
-7.291354656219482 -2.434218645095825 -2.5
-4.385319709777832 -2.3016014099121094 -1.610717535018921
-3.094970703125 -3.2222070693969727 -1.4530527591705322
-2.937446117401123 -3.59771466255188 -1.5105390548706055
-3.295344114303589 -6.944804668426514 -2.5
-2.1386473178863525 -7.383476257324219 -2.5
-0.9265551567077637 -7.630918025970459 -2.5
0.9265649318695068 -7.630937099456787 -2.5
2.1386499404907227 -7.383476257324219 -2.5
4.366694450378418 -6.326250076293945 -2.5
4.861589431762695 -5.954355239868164 -2.5
6.145290374755859 -4.617870807647705 -2.5
-7.406869888305664 0.0 -2.5
-7.025683403015137 -2.345527410507202 -2.5
-5.106791973114014 -2.175791025161743 -1.873591423034668
-3.8551414012908936 -2.4378514289855957 -1.5395406484603882
-3.0212597846984863 -3.1454687118530273 -1.4720832109451294
-2.6831908226013184 -3.887275218963623 -1.5942600965499878
-0.8928002715110779 -7.352870941162109 -2.5
2.060724973678589 -7.114443302154541 -2.5
3.1752758026123047 -6.691747665405273 -2.5
5.130925178527832 -5.341855525970459 -2.5
5.921371936798096 -4.449618816375732 -2.5
6.814169883728027 -2.9032421112060547 -2.5
7.025688171386719 -2.345507860183716 -2.5
7.310959339141846 -1.1881542205810547 -2.5
7.382858753204346 -0.5960058569908142 -2.5
-7.05206298828125 -1.1460741758346558 -2.5
-6.936975002288818 -1.709814429283142 -2.5
-5.105065822601318 -2.1750781536102295 -1.9417154788970947
-4.365249156951904 -2.2910547256469727 -1.7250622510910034
-3.3831396102905273 -2.5422558784484863 -1.4807965755462646
-2.76708984375 -3.3890721797943115 -1.530956506729126
-3.5722875595092773 -6.187402248382568 -2.5
-2.533503293991089 -6.680302619934082 -2.5
-1.4290893077850342 -7.000195026397705 -2.5
-0.2876830995082855 -7.138798713684082 -2.5
1.4291088581085205 -7.000205039978027 -2.5
1.9877636432647705 -6.862529277801514 -2.5
4.058591365814209 -5.8798828125 -2.5
4.949230670928955 -5.152695178985596 -2.5
5.711696624755859 -4.292040824890137 -2.5
6.326215744018555 -3.320244073867798 -2.5
6.77691125869751 -2.262460947036743 -2.5
-6.898403167724609 0.0 -2.5
-6.697951316833496 -1.6508984565734863 -2.5
-6.54339075088501 -2.184511661529541 -2.5
-5.116498947143555 -2.179941415786743 -2.0155141353607178
-4.357524394989014 -2.287001848220825 -1.7834604978561401
-3.3488402366638184 -2.516484260559082 -1.518093228340149
-2.532353401184082 -3.6687498092651367 -1.6155409812927246
-3.4491918087005615 -5.974199295043945 -2.5
-2.4462084770202637 -6.450136661529541 -2.5
-1.9192577600479126 -6.626054763793945 -2.5
-0.8315136432647705 -6.848124980926514 -2.5
-0.27777099609375 -6.892812252044678 -2.5
1.3798632621765137 -6.758984088897705 -2.5
2.446215867996216 -6.450126647949219 -2.5
3.4492063522338867 -5.974208831787109 -2.5
3.9187474250793457 -5.67727518081665 -2.5
4.362878322601318 -5.343544960021973 -2.5
6.108237266540527 -3.2058591842651367 -2.5
6.346394062042236 -2.7039451599121094 -2.5
6.543393611907959 -2.184511661529541 -2.5
6.876039981842041 -0.5550976395606995 -2.5
-6.666842937469482 -9.765624781721272e-06 -2.5
-6.645216941833496 -0.5364648103713989 -2.5
-6.4731125831604 -1.59548819065094 -2.5
-6.323732852935791 -2.1111814975738525 -2.5
-4.352243423461914 -2.284228563308716 -1.843172311782837
-3.3149681091308594 -2.491034984588623 -1.5549331903457642
-2.8189282417297363 -2.934824228286743 -1.5259628295898438
-2.631838321685791 -3.2234179973602295 -1.5604745149612427
-2.468620538711548 -3.576425790786743 -1.6295874118804932
-3.3334155082702637 -5.773662090301514 -2.5
-2.3640990257263184 -6.233613014221191 -2.5
-1.85482656955719 -6.403623104095459 -2.5
-1.3335301876068115 -6.532118797302246 -2.5
-0.8035961985588074 -6.618242263793945 -2.5
-0.2684399485588074 -6.661435604095459 -2.5
0.8036083579063416 -6.618232250213623 -2.5
1.3335424661636353 -6.532109260559082 -2.5
3.7872045040130615 -5.486708641052246 -2.5
4.216418266296387 -5.164179801940918 -2.5
4.618283748626709 -4.808144569396973 -2.5
4.9902024269104 -4.42092752456665 -2.5
5.329755783081055 -4.005068302154541 -2.5
5.634746074676514 -3.5632030963897705 -2.5
5.903195858001709 -3.0982420444488525 -2.5
6.323742389678955 -2.1111717224121094 -2.5
6.580497741699219 -1.0694433450698853 -2.5
-6.365041255950928 -1.034423828125 -2.5
-5.080571174621582 -2.164628744125366 -2.1409764289855957
-4.350729942321777 -2.283437490463257 -1.904900312423706
-3.758864641189575 -2.376962900161743 -1.7241677045822144
-2.9611401557922363 -2.623349666595459 -1.5336922407150269
-2.571049690246582 -3.1489648818969727 -1.576029896736145
-2.2789671421051025 -3.9473044872283936 -1.767039179801941
-2.7644505500793457 -5.825966835021973 -2.5
-1.2898681163787842 -6.318242073059082 -2.5
-0.25965574383735657 -6.443329811096191 -2.5
0.25965818762779236 -6.443329811096191 -2.5
0.77729731798172 -6.401542663574219 -2.5
1.289882779121399 -6.318251609802246 -2.5
1.7941137552261353 -6.193974494934082 -2.5
2.764457941055298 -5.82595682144165 -2.5
3.2242894172668457 -5.584619045257568 -2.5
3.663198232650757 -5.307070255279541 -2.5
4.467074871063232 -4.650702953338623 -2.5
4.826813697814941 -4.276181697845459 -2.5
5.155258655548096 -3.8739354610443115 -2.5
5.450261116027832 -3.446523427963257 -2.5
6.261183738708496 -1.54324209690094 -2.5
6.365053653717041 -1.0344336032867432 -2.5
6.427651405334473 -0.5188964605331421 -2.5
-6.222172737121582 -0.5023144483566284 -2.5
-6.161586761474609 -1.0013574361801147 -2.5
-6.061025142669678 -1.4939062595367432 -2.5
-5.08657693862915 -2.167187452316284 -2.214287281036377
-3.755143880844116 -2.3746092319488525 -1.7793413400650024
-3.252614736557007 -2.4441893100738525 -1.629418134689331
-2.3568506240844727 -3.414501905441284 -1.6615865230560303
-2.676079034805298 -5.639716625213623 -2.5
-2.2135887145996094 -5.836757659912109 -2.5
-1.7367455959320068 -5.995956897735596 -2.5
-1.2486376762390137 -6.116259574890137 -2.5
-0.7524365186691284 -6.196913719177246 -2.5
-0.2513452172279358 -6.237363338470459 -2.5
0.25135985016822815 -6.237363338470459 -2.5
0.7524511814117432 -6.196913719177246 -2.5
1.2486498355865479 -6.116269588470459 -2.5
1.7367528676986694 -5.99596643447876 -2.5
2.2136011123657227 -5.836757659912109 -2.5
3.12121319770813 -5.406093597412109 -2.5
3.947993040084839 -4.835419654846191 -2.5
4.324277400970459 -4.502040863037109 -2.5
4.672524452209473 -4.139492034912109 -2.5
4.990461349487305 -3.7500975131988525 -2.5
5.276032447814941 -3.3363475799560547 -2.5
5.742897987365723 -2.4468164443969727 -2.5
6.222175121307373 -0.5023046731948853 -2.5
-5.969064712524414 -0.9700781106948853 -2.5
-5.736149787902832 -1.9150195121765137 -2.5
-4.354259967803955 -2.285283088684082 -2.0329229831695557
-3.752980947494507 -2.373242139816284 -1.8356726169586182
-2.648449659347534 -2.757333993911743 -1.5805391073226929
-2.465700626373291 -3.0199413299560547 -1.611723780632019
-2.592460870742798 -5.463505744934082 -2.5
-2.1444287300109863 -5.654394626617432 -2.5
-1.2096288204193115 -5.925156116485596 -2.5
0.7289404273033142 -6.00329065322876 -2.5
1.6824951171875 -5.80862283706665 -2.5
2.592470645904541 -5.463505744934082 -2.5
3.023691415786743 -5.237187385559082 -2.5
3.43530011177063 -4.976894378662109 -2.5
3.82464337348938 -4.684326171875 -2.5
5.111191272735596 -3.232119083404541 -2.5
5.736162185668945 -1.9149999618530273 -2.5
5.87164306640625 -1.4472362995147705 -2.5
5.969059944152832 -0.9700781106948853 -2.5
-5.8625168800354 9.765624781721272e-06 -2.5
-5.692155838012695 -1.4029979705810547 -2.5
-5.200822830200195 -2.215869188308716 -2.4107377529144287
-3.753308057785034 -2.3734471797943115 -1.893720030784607
-3.250910520553589 -2.4429101943969727 -1.734098196029663
-2.852121591567993 -2.5267577171325684 -1.6248972415924072
-2.605722665786743 -2.7128515243530273 -1.604072093963623
-2.4180028438568115 -2.9615232944488525 -1.6303871870040894
-2.174072265625 -3.765625 -1.854220986366272
-1.6310497522354126 -5.631054401397705 -2.5
-0.7066479325294495 -5.819785118103027 -2.5
-0.23606200516223907 -5.857773303985596 -2.5
0.7066552639007568 -5.819785118103027 -2.5
1.1726561784744263 -5.744042873382568 -2.5
1.6310644149780273 -5.631054401397705 -2.5
2.9312596321105957 -5.077089786529541 -2.5
4.061120510101318 -4.228066444396973 -2.5
4.686752796173096 -3.521855354309082 -2.5
5.393391132354736 -2.297910213470459 -2.5
5.560810565948486 -1.85647451877594 -2.5
5.692158222198486 -1.4029979705810547 -2.5
-5.687018871307373 9.765624781721272e-06 -2.5
-5.66857385635376 -0.4576171636581421 -2.5
-5.52175760269165 -1.3609960079193115 -2.5
-5.231938362121582 -2.229120969772339 -2.5
-4.352783203125 -2.2845115661621094 -2.1610031127929688
-3.2502171993255615 -2.4423828125 -1.787231683731079
-2.816577196121216 -2.4952635765075684 -1.6541614532470703
-2.3734495639801025 -2.9069530963897705 -1.6497300863265991
-2.1619579792022705 -3.74462890625 -1.9007863998413086
-2.437980890274048 -5.137948989868164 -2.5
-1.137551188468933 -5.572099685668945 -2.5
0.22899901866912842 -5.682412147521973 -2.5
2.843513011932373 -4.925117015838623 -2.5
3.230595588684082 -4.680331707000732 -2.5
3.59674072265625 -4.405195236206055 -2.5
5.0356125831604 -2.642890453338623 -2.5
5.394355297088623 -1.8008984327316284 -2.5
5.613381385803223 -0.9122655987739563 -2.5
-5.520158767700195 0.0 -2.5
-5.448671817779541 -0.885498046875 -2.5
-5.359743595123291 -1.3210546970367432 -2.5
-5.078427791595459 -2.1637303829193115 -2.5
-4.35052490234375 -2.283320188522339 -2.2251698970794678
-3.756779670715332 -2.3756444454193115 -2.0130257606506348
-3.249528646469116 -2.4418652057647705 -1.8408623933792114
-2.526931047439575 -2.6308202743530273 -1.6520434617996216
-2.330334424972534 -2.854140520095825 -1.6687219142913818
-2.1734325885772705 -3.1487693786621094 -1.7327544689178467
-2.366447687149048 -4.987206935882568 -2.5
-1.9574804306030273 -5.161455154418945 -2.5
-1.1041772365570068 -5.408593654632568 -2.5
-0.6653735041618347 -5.479911804199219 -2.5
-0.22226805984973907 -5.515683650970459 -2.5
1.535805583000183 -5.302206993103027 -2.5
2.760082960128784 -4.780605316162109 -2.5
3.135812997817993 -4.54299783706665 -2.5
3.491205930709839 -4.275947093963623 -2.5
4.131901741027832 -3.660537004470825 -2.5
4.413051605224609 -3.3161914348602295 -2.5
4.665585994720459 -2.9503417015075684 -2.5
5.078434944152832 -2.1637303829193115 -2.5
5.236066818237305 -1.7480664253234863 -2.5
-5.343874454498291 -0.4314062297344208 -2.5
-3.75311279296875 -2.3733203411102295 -2.0706660747528076
-2.133962392807007 -3.0915918350219727 -1.7517064809799194
-2.1474339962005615 -3.719482421875 -2.0027360916137695
-2.298330068588257 -4.843632698059082 -2.5
-0.6462255716323853 -5.322177410125732 -2.5
1.0723998546600342 -5.252919673919678 -2.5
1.9011449813842773 -5.012870788574219 -2.5
2.6806421279907227 -4.642997741699219 -2.5
3.7138891220092773 -3.8665525913238525 -2.5
4.01296854019165 -3.555185556411743 -2.5
4.286032676696777 -3.2207422256469727 -2.5
5.291835784912109 -0.8600097298622131 -2.5
