ply
format ascii 1.0
element vertex 908
property float x
property float y
property float z
end_header
-7.905038833618164 16.65951156616211 3.2251157760620117
-9.683344841003418 16.77202606201172 3.3872148990631104
-4.403994083404541 6.38027811050415 1.3559283018112183
-15.881845474243164 16.534770965576172 4.0098490715026855
15.689628601074219 13.89981460571289 3.427151918411255
13.047704696655273 15.980531692504883 3.373101234436035
3.2514452934265137 26.778085708618164 4.410379409790039
1.0867186784744263 26.966840744018555 4.41266393661499
-1.086733341217041 26.966842651367188 4.412663459777832
-2.4906201362609863 20.512006759643555 3.378347158432007
-3.289013624191284 16.110595703125 2.6884171962738037
-6.179286956787109 16.293460845947266 2.849130868911743
-9.529428482055664 16.505430221557617 3.116121768951416
-4.400883674621582 6.375766277313232 1.2666610479354858
-13.691259384155273 16.768735885620117 3.539476156234741
-24.196691513061523 8.07803726196289 4.170809268951416
14.9109468460083 15.523954391479492 3.274885892868042
11.258720397949219 19.500736236572266 3.425870895385742
-1.1653125286102295 28.91676139831543 4.403045654296875
-2.4906201362609863 20.51201057434082 3.14367413520813
-4.692216873168945 16.199369430541992 2.5659244060516357
-7.905038833618164 16.65951156616211 2.805493116378784
-4.397778034210205 6.371279239654541 1.1778420209884644
-13.912406921386719 17.03959846496582 3.3468053340911865
-22.20945167541504 16.6893310546875 4.226733207702637
-24.14441680908203 8.060590744018555 3.872701406478882
17.003530502319336 15.063827514648438 3.199014902114868
-2.4906249046325684 20.51201629638672 2.9098100662231445
-3.289013624191284 16.110595703125 2.3155455589294434
-6.179286956787109 16.293460845947266 2.4539690017700195
-7.905034065246582 16.65951156616211 2.5967674255371094
-9.683344841003418 16.77202606201172 2.727280855178833
-19.064985275268555 16.890092849731445 3.58685040473938
-22.209457397460938 16.689321517944336 3.912261962890625
-24.141246795654297 8.059531211853027 3.58410382270813
18.067201614379883 16.00615692138672 3.126760721206665
9.324604034423828 19.65121078491211 2.8176465034484863
5.602919578552246 27.44487762451172 3.628520965576172
-2.4906201362609863 20.512001037597656 2.676623582839966
-3.2119531631469727 15.733154296875 2.08009934425354
-6.179286956787109 16.293460845947266 2.257333278656006
-13.912416458129883 17.03959846496582 2.8495800495147705
-19.330751419067383 17.125547409057617 3.3454370498657227
-22.20945167541504 16.6893253326416 3.598752975463867
19.264272689819336 17.066675186157227 3.044346332550049
17.779998779296875 18.510961532592773 3.0360636711120605
16.219858169555664 19.86572265625 3.0336358547210693
14.574491500854492 21.114797592163086 3.034834623336792
9.324604034423828 19.65121078491211 2.5729081630706787
-2.1262402534484863 17.511064529418945 2.086554527282715
-4.582284927368164 15.819852828979492 1.9482122659683228
-7.597123622894287 16.010601043701172 2.096248149871826
-9.683349609375 16.77202606201172 2.2908356189727783
-4.388569355010986 6.35793924331665 0.9138290286064148
-22.20945167541504 16.6893253326416 3.2861993312835693
17.206064224243164 21.073598861694336 2.9127752780914307
2.952202081680298 14.46084976196289 1.5801892280578613
1.8547314405441284 15.275131225585938 1.6474474668502808
0.6620116829872131 16.42755889892578 1.760248064994812
-2.1262402534484863 17.511058807373047 1.8885983228683472
-6.034521579742432 15.91173267364502 1.8219937086105347
-9.306166648864746 16.11873435974121 1.9927319288253784
-13.912406921386719 17.039594650268555 2.3551957607269287
-22.20945167541504 16.6893310546875 2.974416971206665
-24.131793975830078 8.056371688842773 2.7238566875457764
21.41472053527832 18.971805572509766 2.7428174018859863
20.4343204498291 21.2744083404541 2.828009605407715
18.385501861572266 22.51816749572754 2.786978006362915
5.062450885772705 13.348573684692383 1.36866295337677
2.952202081680298 14.46084976196289 1.4149504899978638
0.6620019674301147 16.427562713623047 1.5761816501617432
-0.7352294921875 18.24434471130371 1.7504971027374268
-4.582284927368164 15.819852828979492 1.578984022140503
-6.034526348114014 15.91173267364502 1.6314703226089478
-7.597128868103027 16.010601043701172 1.6989638805389404
-9.306171417236328 16.11873435974121 1.78435480594635
-13.370502471923828 16.375883102416992 2.026773691177368
-19.33075714111328 17.125547409057617 2.4758920669555664
-22.209457397460938 16.689321517944336 2.6633684635162354
-24.1286563873291 8.05533218383789 2.438708782196045
6.150776386260986 12.962504386901855 1.2152233123779297
4.0076904296875 13.83614730834961 1.2200597524642944
-0.7352294921875 18.24434471130371 1.5465081930160522
-2.1262402534484863 17.51105499267578 1.494038701057434
-6.034521579742432 15.911738395690918 1.441351294517517
-7.597128868103027 16.010601043701172 1.5009799003601074
-9.306166648864746 16.11873435974121 1.5764203071594238
-13.370502471923828 16.375879287719727 1.7905892133712769
-18.877880096435547 16.72432518005371 2.1361241340637207
-24.125534057617188 8.05428695678711 2.1542415618896484
7.313695907592773 12.667709350585938 1.0757986307144165
6.150776386260986 12.962504386901855 1.0552303791046143
2.95220685005188 14.46084976196289 1.0854852199554443
-0.7352246046066284 18.24434471130371 1.342901587486267
-6.034516334533691 15.91173267364502 1.2515896558761597
-7.597133636474609 16.010601043701172 1.303367257118225
-9.306161880493164 16.11873435974121 1.3688747882843018
-13.370502471923828 16.375879287719727 1.5548479557037354
-15.881845474243164 16.534770965576172 1.6861813068389893
-18.877864837646484 16.72432518005371 1.8548895120620728
-22.20945167541504 16.6893310546875 2.043215274810791
21.414730072021484 18.9718017578125 1.7856582403182983
10.13528823852539 12.413471221923828 1.0002185106277466
8.60946273803711 12.472949028015137 0.9459319710731506
6.150781154632568 12.962504386901855 0.8955010771751404
2.952202081680298 14.46084976196289 0.9211755394935608
1.8547314405441284 15.275131225585938 0.9603838920593262
-2.1262402534484863 17.511058807373047 1.1009619235992432
-3.2119579315185547 15.733154296875 1.0022228956222534
-13.37050724029541 16.375879287719727 1.3194903135299683
-22.20945167541504 16.689334869384766 1.733933687210083
-24.119300842285156 8.052202224731445 1.5870565176010132
12.140204429626465 12.63930606842041 0.8989889621734619
10.13528823852539 12.413471221923828 0.822056233882904
8.609457969665527 12.472953796386719 0.7774392366409302
7.313695907592773 12.667709350585938 0.750335693359375
6.150776386260986 12.962504386901855 0.7359917759895325
4.0076904296875 13.83614730834961 0.7389208674430847
0.6620116829872131 16.42755889892578 0.843361496925354
-4.582284927368164 15.819843292236328 0.8448607921600342
-6.034511566162109 15.911723136901855 0.8729439973831177
-13.37050724029541 16.375879287719727 1.0844582319259644
-15.881855010986328 16.534770965576172 1.1760594844818115
-18.877880096435547 16.72432518005371 1.293729543685913
-24.11618995666504 8.051161766052246 1.3041964769363403
21.41472053527832 18.971805572509766 1.1498810052871704
12.140210151672363 12.63930606842041 0.704374372959137
10.13528823852539 12.413471221923828 0.6440960764884949
8.609457969665527 12.472953796386719 0.6091375350952148
1.8547314405441284 15.275131225585938 0.6184442043304443
-4.582284927368164 15.819843292236328 0.6619638204574585
-6.034511566162109 15.911723136901855 0.6839678883552551
-7.597118854522705 16.01058578491211 0.7122631669044495
-9.306147575378418 16.118715286254883 0.7480618357658386
-13.370497703552246 16.375873565673828 0.8496923446655273
-15.8818359375 16.534765243530273 0.9214633107185364
-22.20945167541504 16.6893310546875 1.1165759563446045
-24.11308479309082 8.05013656616211 1.0217300653457642
15.689619064331055 13.899808883666992 0.6099050641059875
12.140204429626465 12.63930606842041 0.5099334716796875
10.13528823852539 12.413471221923828 0.4662945568561554
8.60946273803711 12.472949028015137 0.4409869313240051
7.313695907592773 12.667709350585938 0.42561307549476624
6.150776386260986 12.962504386901855 0.4174758791923523
5.062450885772705 13.348573684692383 0.41539672017097473
4.007685661315918 13.83614730834961 0.4191378653049469
2.952202081680298 14.46084976196289 0.4294454753398895
1.8547314405441284 15.275131225585938 0.44772398471832275
-2.126220703125 17.51091766357422 0.5132561922073364
-3.2119481563568115 15.73314380645752 0.4672289788722992
-4.582280158996582 15.819843292236328 0.47923001646995544
-6.034521579742432 15.911723136901855 0.49515989422798157
-7.597123622894287 16.01058578491211 0.5156444907188416
-9.306161880493164 16.118724822998047 0.5415612459182739
-15.881845474243164 16.534759521484375 0.6670956015586853
-18.877864837646484 16.724315643310547 0.7338409423828125
-22.209457397460938 16.689321517944336 0.8083474636077881
10.135282516479492 12.413471221923828 0.28860777616500854
8.60946273803711 12.472949028015137 0.2729437053203583
6.150776386260986 12.962504386901855 0.25839048624038696
4.0076904296875 13.836142539978027 0.259420782327652
5.602914810180664 27.44487953186035 0.5044512748718262
-2.126225471496582 17.510902404785156 0.3176742494106293
-3.2119481563568115 15.733149528503418 0.2891860902309418
-4.582280158996582 15.819838523864746 0.2966143786907196
-6.034511566162109 15.911723136901855 0.30647337436676025
-7.597118854522705 16.010589599609375 0.31915220618247986
-15.8818359375 16.534759521484375 0.4128912389278412
-18.877864837646484 16.724315643310547 0.4542025625705719
15.689658164978027 13.899833679199219 0.14517547190189362
10.13528823852539 12.413471221923828 0.110992431640625
8.609457969665527 12.472953796386719 0.10496825724840164
5.602914810180664 27.44487762451172 0.1940051168203354
-2.126220703125 17.510942459106445 0.1221701055765152
-3.2119481563568115 15.73314380645752 0.11121460050344467
-7.597123622894287 16.010589599609375 0.12273864448070526
-15.8818359375 16.534759521484375 0.15878814458847046
-18.877864837646484 16.724315643310547 0.17467620968818665
-24.103796005249023 8.04703140258789 0.1759985238313675
10.13528823852539 12.413471221923828 -0.06659682840108871
7.313695907592773 12.667709350585938 -0.060786742717027664
6.150776386260986 12.962504386901855 -0.05962524190545082
5.602910041809082 27.444881439208984 -0.11640380322933197
-2.4906201362609863 20.512006759643555 -0.08589141815900803
-3.289003849029541 16.110580444335938 -0.0683312937617302
-4.692211627960205 16.199359893798828 -0.0700860545039177
-7.653730392456055 16.129873275756836 -0.07419372349977493
-15.988422393798828 16.64571189880371 -0.09591536968946457
-24.1007022857666 8.045990943908691 -0.10558807104825974
15.689647674560547 13.899828910827637 -0.3194093108177185
10.13528823852539 12.41347599029541 -0.24419951438903809
8.609457969665527 12.472953796386719 -0.23094619810581207
5.602914810180664 27.44487762451172 -0.42683836817741394
-3.289003849029541 16.110580444335938 -0.2505587637424469
-4.692211627960205 16.199359893798828 -0.2569943070411682
-7.653720378875732 16.129873275756836 -0.27205780148506165
-17.644969940185547 21.611146926879883 -0.42513808608055115
-16.008729934692383 16.6668701171875 -0.35215070843696594
-19.330745697021484 17.12553596496582 -0.39353302121162415
-22.20945167541504 16.6893310546875 -0.4233335852622986
15.689647674560547 13.899824142456055 -0.5517897009849548
12.140214920043945 12.63930606842041 -0.461343377828598
8.609457969665527 12.472953796386719 -0.3989666700363159
-2.4906201362609863 20.512001037597656 -0.5439431667327881
-4.692206859588623 16.199359893798828 -0.44396713376045227
-17.564456939697266 21.512537002563477 -0.7310882210731506
-16.05224609375 16.71217155456543 -0.6100054979324341
-22.20945167541504 16.689334869384766 -0.7313256859779358
15.689638137817383 13.899824142456055 -0.7843105792999268
12.140210151672363 12.63930606842041 -0.6557511687278748
8.60946273803711 12.472949028015137 -0.5670886039733887
5.602910041809082 27.444881439208984 -1.0480979681015015
-2.4906201362609863 20.51201629638672 -0.7731280326843262
-3.289008617401123 16.110580444335938 -0.6152486801147461
-4.692211627960205 16.199359893798828 -0.6310543417930603
-6.179286956787109 16.2934513092041 -0.652028501033783
-7.653725624084473 16.129873275756836 -0.6680338978767395
-17.456235885620117 21.37999153137207 -1.032761812210083
-16.12494659423828 16.787860870361328 -0.8709850907325745
-19.330745697021484 17.12554168701172 -0.966326117515564
-21.810991287231445 16.389892578125 -1.0208473205566406
15.689647674560547 13.899828910827637 -1.0170214176177979
7.313701152801514 12.667709350585938 -0.7097129821777344
6.150776386260986 12.962504386901855 -0.6961442232131958
-3.289003849029541 16.110580444335938 -0.7977982759475708
-4.692211627960205 16.199359893798828 -0.8182910084724426
-6.279091835021973 16.556631088256836 -0.8591479063034058
-7.653725624084473 16.129873275756836 -0.8662489056587219
-16.296049118041992 16.96599578857422 -1.1413981914520264
-19.33073616027832 17.12553596496582 -1.2530416250228882
-21.62081527709961 16.24699592590332 -1.3121997117996216
-24.088319778442383 8.041860580444336 -1.2321614027023315
-27.343523025512695 6.739570140838623 -1.366395354270935
8.60946273803711 12.472949028015137 -0.9037890434265137
7.313695907592773 12.667709350585938 -0.872281014919281
6.150776386260986 12.962504386901855 -0.8556059002876282
5.928510665893555 20.467567443847656 -1.2707202434539795
-7.653725624084473 16.129873275756836 -1.0646711587905884
-4.340800762176514 6.28872537612915 -0.45568037033081055
-14.6621675491333 17.9578800201416 -1.38249671459198
-16.195331573486328 16.861143112182617 -1.394179344177246
-24.085222244262695 8.0408296585083 -1.5142086744308472
12.140210151672363 12.63930606842041 -1.240127682685852
7.313695907592773 12.667709350585938 -1.0350652933120728
6.150776386260986 12.962504386901855 -1.0152753591537476
5.928510665893555 20.467567443847656 -1.5078599452972412
4.548623085021973 22.280595779418945 -1.6091399192810059
0.6772997975349426 16.807025909423828 -1.1902647018432617
-0.7352294921875 18.24434471130371 -1.2920547723770142
-4.692206859588623 16.199359893798828 -1.1934194564819336
-6.179282188415527 16.2934513092041 -1.2330882549285889
-7.653725624084473 16.129873275756836 -1.263357162475586
-4.337841510772705 6.284438133239746 -0.5403510928153992
-17.543691635131836 21.48710823059082 -1.9628994464874268
-16.195331573486328 16.86113166809082 -1.65435791015625
-18.877864837646484 16.724315643310547 -1.784657597541809
-24.08211898803711 8.039790153503418 -1.7965567111968994
-27.293888092041016 6.727334022521973 -1.9891718626022339
10.13528823852539 12.413471221923828 -1.3126260042190552
4.042973518371582 13.957939147949219 -1.1902647018432617
2.952202081680298 14.460854530334473 -1.2088954448699951
0.6620019674301147 16.42755889892578 -1.3466449975967407
-4.582280158996582 15.819843292236328 -1.34903883934021
-6.034511566162109 15.911723136901855 -1.3938812017440796
-18.059770584106445 22.11919593811035 -2.338927984237671
-18.877864837646484 16.724315643310547 -2.06577205657959
-21.559139251708984 16.20064926147461 -2.208878755569458
-24.22428321838379 15.318495750427246 -2.347599983215332
-25.37835693359375 13.31956958770752 -2.347599983215332
-26.367841720581055 11.234267234802246 -2.347599983215332
-23.37671661376953 7.804306507110596 -2.0186336040496826
-27.281339645385742 6.7242431640625 -2.3014395236968994
26.77305030822754 2.1613574028015137 -2.5
26.5123291015625 4.308691501617432 -2.5
25.47783660888672 8.505746841430664 -2.5
24.71079444885254 10.528276443481445 -2.5
21.318031311035156 13.480708122253418 -2.347599983215332
20.164134979248047 15.152382850646973 -2.347599983215332
8.609457969665527 12.472953796386719 -1.410618543624878
7.313695907592773 12.667709350585938 -1.361441969871521
6.150776386260986 12.962504386901855 -1.3354156017303467
4.007685661315918 13.83614730834961 -1.3407293558120728
1.8547314405441284 15.275131225585938 -1.432169795036316
0.6620116829872131 16.427553176879883 -1.5302300453186035
-1.9183690547943115 15.799086570739746 -1.4812955856323242
-3.2119531631469727 15.73314380645752 -1.494561791419983
-4.582280158996582 15.819838523864746 -1.532950758934021
-6.034511566162109 15.911723136901855 -1.5839061737060547
-7.597123622894287 16.01058578491211 -1.6494323015213013
-12.581743240356445 21.792194366455078 -2.342081308364868
-15.893099784851074 19.465497970581055 -2.338927984237671
-16.195331573486328 16.86113166809082 -2.1760106086730957
-20.164154052734375 15.15234375 -2.347599983215332
-22.33365249633789 11.72158145904541 -2.347599983215332
-23.26744270324707 7.767827033996582 -2.2831075191497803
-26.773061752319336 2.1613426208496094 -2.5
23.899818420410156 1.9294042587280273 -2.5
23.28081512451172 5.738212585449219 -2.5
21.231069564819336 11.142939567565918 -2.5
19.030229568481445 12.0339937210083 -2.347599983215332
18.00016975402832 13.5262451171875 -2.347599983215332
15.689647674560547 13.899828910827637 -2.1854968070983887
6.150776386260986 12.962504386901855 -1.4959582090377808
5.062450885772705 13.348573684692383 -1.4885064363479614
2.95220685005188 14.460854530334473 -1.5388456583023071
1.854736328125 15.275126457214355 -1.6043450832366943
-1.9183690547943115 15.799086570739746 -1.6593774557113647
-7.597118854522705 16.01058578491211 -1.8477245569229126
-16.8533935546875 14.930790901184082 -2.347599983215332
-18.00016975402832 13.5262451171875 -2.347599983215332
-19.936845779418945 10.463642120361328 -2.347599983215332
-20.714168548583984 8.82547378540039 -2.347599983215332
-22.719446182250977 5.599833965301514 -2.439713478088379
-23.667091369628906 3.8462841510772705 -2.5
-23.899816513061523 1.929384708404541 -2.5
21.648881912231445 0.0 -2.5
21.3685302734375 3.4727392196655273 -2.5
20.534759521484375 6.855507850646973 -2.5
17.1820068359375 10.86525821685791 -2.347599983215332
15.216596603393555 13.48074722290039 -2.347599983215332
6.150776386260986 12.962504386901855 -1.6568717956542969
5.062450885772705 13.348573684692383 -1.6486181020736694
2.952202081680298 14.460854530334473 -1.70437490940094
0.6193017363548279 15.367948532104492 -1.7761214971542358
-0.7352294921875 18.24434471130371 -2.108555316925049
-3.2119481563568115 15.733149528503418 -1.8543282747268677
-12.857094764709473 15.747079849243164 -2.347599983215332
-14.082504272460938 14.661459922790527 -2.347599983215332
-20.99907684326172 5.175805568695068 -2.4975340366363525
-21.368549346923828 3.472734212875366 -2.5
-21.57870101928711 1.742006778717041 -2.5
19.472503662109375 3.164604425430298 -2.5
18.149335861206055 7.732699871063232 -2.5
14.80996036529541 11.128969192504883 -2.347599983215332
12.140210151672363 12.63930606842041 -2.220871686935425
6.150781154632568 12.962504386901855 -1.8181978464126587
5.062456130981445 13.3485689163208 -1.8091436624526978
3.912055492401123 13.505956649780273 -1.7818752527236938
2.95220685005188 14.460854530334473 -1.870328664779663
0.620068371295929 15.387064933776855 -1.951486587524414
-2.126220703125 17.51091766357422 -2.2353439331054688
-3.2119481563568115 15.73314380645752 -2.034883975982666
-4.582280158996582 15.819838523864746 -2.087151527404785
-6.034516334533691 15.911723136901855 -2.156528949737549
-7.597123622894287 16.01058578491211 -2.245744228363037
-9.2626953125 16.043426513671875 -2.347599983215332
-4.323051452636719 6.263012409210205 -0.9643832445144653
-11.716288566589355 14.349833488464355 -2.347599983215332
-12.832968711853027 13.360541343688965 -2.347599983215332
-13.86644458770752 12.284584999084473 -2.347599983215332
-14.809969902038574 11.128984451293945 -2.347599983215332
-16.40340232849121 8.60915470123291 -2.347599983215332
-17.0429630279541 7.261322975158691 -2.347599983215332
-17.57198715209961 5.866381645202637 -2.347599983215332
-19.664012908935547 1.58743155002594 -2.5
18.116044998168945 0.0 -2.5
18.057310104370117 1.457739233970642 -2.5
17.881450653076172 2.9060301780700684 -2.5
17.589628219604492 4.335458755493164 -2.5
12.733427047729492 11.280863761901855 -2.347599983215332
11.784408569335938 12.26888656616211 -2.347599983215332
7.313695907592773 12.667709350585938 -2.0185704231262207
6.150776386260986 12.962504386901855 -1.979982614517212
5.062450885772705 13.348573684692383 -1.9701179265975952
2.952202081680298 14.460854530334473 -2.0367467403411865
-3.2119531631469727 15.733149528503418 -2.2159440517425537
-4.582280158996582 15.819838523864746 -2.272862434387207
-7.292797565460205 15.369223594665527 -2.347599983215332
-4.320083141326904 6.258710861206055 -1.049471139907837
-10.758978843688965 13.177343368530273 -2.347599983215332
-11.78441333770752 12.268881797790527 -2.347599983215332
-15.063124656677246 7.905717372894287 -2.347599983215332
-16.136215209960938 5.387055397033691 -2.347599983215332
-17.881454467773438 2.9060254096984863 -2.5
-18.057313919067383 1.457729458808899 -2.5
16.743749618530273 4.882812390860636e-06 -2.5
16.689453125 1.3473193645477295 -2.5
15.882060050964355 5.302211761474609 -2.5
13.288969039916992 8.403437614440918 -2.347599983215332
12.569677352905273 9.445508003234863 -2.347599983215332
10.891733169555664 11.339516639709473 -2.347599983215332
9.943964958190918 12.17916488647461 -2.347599983215332
8.609457969665527 12.472953796386719 -2.262899160385132
6.150776386260986 12.962504386901855 -2.1422579288482666
5.062450885772705 13.348573684692383 -2.1315860748291016
3.912055492401123 13.505951881408691 -2.099457025527954
2.95220685005188 14.460854530334473 -2.2036757469177246
1.8547265529632568 15.275131225585938 -2.297471284866333
-0.6331103444099426 15.710311889648438 -2.347599983215332
-3.145024299621582 15.40529727935791 -2.347599983215332
-4.37441873550415 15.1024751663208 -2.347599983215332
-6.740361213684082 14.204999923706055 -2.347599983215332
-4.317104339599609 6.254404067993164 -1.1347033977508545
-9.943974494934082 12.179155349731445 -2.347599983215332
-11.768877029418945 10.426313400268555 -2.347599983215332
-13.288989067077637 8.403427124023438 -2.347599983215332
-14.464887619018555 6.162914752960205 -2.347599983215332
-15.059243202209473 5.027504920959473 -2.370478391647339
-16.257211685180664 4.007036209106445 -2.5
-16.52693748474121 2.6858885288238525 -2.5
15.510629653930664 1.2521581649780273 -2.5
15.359575271606445 2.4961814880371094 -2.5
14.760258674621582 4.927695274353027 -2.5
14.31588363647461 6.099423885345459 -2.5
13.750239372253418 7.216689109802246 -2.4948456287384033
11.681840896606445 8.778334617614746 -2.347599983215332
9.241596221923828 11.318910598754883 -2.347599983215332
8.300878524780273 12.02587890625 -2.347599983215332
2.9228711128234863 14.317177772521973 -2.347599983215332
1.7613329887390137 14.505942344665527 -2.347599983215332
0.5883837938308716 14.600634574890137 -2.347599983215332
-2.9228758811950684 14.31717300415039 -2.347599983215332
-6.264267444610596 13.20166015625 -2.347599983215332
-7.306249618530273 12.65477466583252 -2.347599983215332
-4.314126014709473 6.250087738037109 -1.220099925994873
-10.122421264648438 10.538569450378418 -2.347599983215332
-10.937606811523438 9.689867973327637 -2.347599983215332
-11.681845664978027 8.77834415435791 -2.347599983215332
-8.166616439819336 5.164247989654541 -1.5523427724838257
-14.38443374633789 4.802216529846191 -2.436344861984253
-15.108905792236328 3.724013566970825 -2.5
-15.359575271606445 2.4961864948272705 -2.5
14.483930587768555 1.1692675352096558 -2.5
13.368266105651855 5.695688247680664 -2.5
11.532816886901855 7.292914867401123 -2.347599983215332
10.908583641052246 8.197279930114746 -2.347599983215332
10.213603019714355 9.048476219177246 -2.347599983215332
6.822607040405273 11.81712818145752 -2.347599983215332
4.838666915893555 12.758520126342773 -2.347599983215332
3.7963476181030273 13.106489181518555 -2.347599983215332
-0.5494384765625 13.63417911529541 -2.347599983215332
-2.7294092178344727 13.369477272033691 -2.347599983215332
-4.838666915893555 12.758524894714355 -2.347599983215332
-6.822636604309082 11.817118644714355 -2.347599983215332
-4.311142444610596 6.245761394500732 -1.30568265914917
-8.629873275756836 10.569663047790527 -2.347599983215332
-8.166616439819336 5.164247989654541 -1.662380337715149
-12.08226490020752 6.341245174407959 -2.347599983215332
-12.553339958190918 5.348476409912109 -2.347599983215332
-13.579442977905273 4.53347635269165 -2.46303653717041
-14.108808517456055 3.4775097370147705 -2.5
-14.342880249023438 2.330947160720825 -2.5
-14.483935356140137 1.169252872467041 -2.5
13.625678062438965 0.0 -2.5
13.581488609313965 1.0964208841323853 -2.5
13.44921875 2.185717821121216 -2.5
12.924448013305664 4.314814567565918 -2.5
12.5353364944458 5.340810298919678 -2.5
9.577221870422363 8.484697341918945 -2.347599983215332
5.485131740570068 11.5596923828125 -2.347599983215332
4.537187576293945 11.963574409484863 -2.347599983215332
2.559335947036743 12.53646469116211 -2.347599983215332
1.5422704219818115 12.701757431030273 -2.347599983215332
-0.515209972858429 12.784677505493164 -2.347599983215332
-4.537182331085205 11.963579177856445 -2.347599983215332
-4.308154106140137 6.241425514221191 -1.3914742469787598
-10.228910446166992 7.686532974243164 -2.347599983215332
-13.229731559753418 3.2608349323272705 -2.5
-13.449223518371582 2.185717821121216 -2.5
-13.581483840942383 1.0964062213897705 -2.5
12.7818603515625 1.0318652391433716 -2.5
12.657387733459473 2.0570311546325684 -2.5
12.450819969177246 3.068852424621582 -2.5
12.163505554199219 4.060766696929932 -2.5
11.797304153442383 5.026357173919678 -2.5
9.626669883728027 7.233979225158691 -2.347599983215332
9.0133638381958 7.985146522521973 -2.347599983215332
8.341596603393555 8.684526443481445 -2.347599983215332
5.162197113037109 10.879106521606445 -2.347599983215332
4.270058631896973 11.259208679199219 -2.347599983215332
3.350224494934082 11.566293716430664 -2.347599983215332
-1.4514843225479126 11.953930854797363 -2.347599983215332
-2.4086620807647705 11.798368453979492 -2.347599983215332
-4.27004861831665 11.2592134475708 -2.347599983215332
-5.162201881408691 10.87911605834961 -2.347599983215332
-4.305146217346191 6.237080097198486 -1.4774943590164185
-8.341596603393555 8.684521675109863 -2.347599983215332
-9.013368606567383 7.985141277313232 -2.347599983215332
-8.15884780883789 5.15933084487915 -1.881955623626709
-11.206815719604492 4.774770259857178 -2.3748674392700195
-12.121161460876465 4.046635627746582 -2.4912965297698975
-12.450824737548828 3.068852424621582 -2.5
12.068251609802246 0.9742528796195984 -2.5
11.755682945251465 2.897524356842041 -2.5
11.13866138458252 4.745741844177246 -2.5
10.717402458190918 5.624936580657959 -2.499239683151245
9.089213371276855 6.83010721206665 -2.347599983215332
6.094545841217041 5.399296760559082 -1.681235909461975
7.875878810882568 8.199667930603027 -2.347599983215332
7.190541744232178 8.806825637817383 -2.347599983215332
6.458569049835205 9.356864929199219 -2.347599983215332
4.873989105224609 10.271713256835938 -2.347599983215332
0.4577929675579071 11.360214233398438 -2.347599983215332
-0.4578027129173279 11.360214233398438 -2.347599983215332
-1.3704442977905273 11.286542892456055 -2.347599983215332
-2.2741894721984863 11.139667510986328 -2.347599983215332
-4.873993873596191 10.271723747253418 -2.347599983215332
-5.684726238250732 9.84621524810791 -2.347599983215332
-4.302138805389404 6.232719421386719 -1.5637667179107666
-7.1905517578125 8.806816101074219 -2.347599983215332
-7.875888347625732 8.199667930603027 -2.347599983215332
-10.067138671875 5.283627986907959 -2.347599983215332
-10.8341064453125 4.615971565246582 -2.4316439628601074
-11.48195743560791 3.8332273960113525 -2.4994640350341797
-11.755688667297363 2.89751935005188 -2.5
-12.068246841430664 0.9742480516433716 -2.5
11.46451187133789 0.0 -2.5
11.427324295043945 0.9225195050239563 -2.5
11.316049575805664 1.8390429019927979 -2.5
10.87451171875 3.630439281463623 -2.5
10.547114372253418 4.493710994720459 -2.5
9.099003791809082 5.753862380981445 -2.347599983215332
8.6065034866333 6.467372894287109 -2.347599983215332
7.457616806030273 7.764204025268555 -2.347599983215332
5.382807731628418 9.323325157165527 -2.347599983215332
4.615131855010986 9.726215362548828 -2.347599983215332
3.8175535202026367 10.0660400390625 -2.347599983215332
2.995185375213623 10.340580940246582 -2.347599983215332
1.297646403312683 10.687138557434082 -2.347599983215332
0.4334814250469208 10.7568941116333 -2.347599983215332
-0.43349120020866394 10.756903648376465 -2.347599983215332
-1.2976561784744263 10.687138557434082 -2.347599983215332
-2.995195150375366 10.340585708618164 -2.347599983215332
-4.615151405334473 9.726210594177246 -2.347599983215332
-6.808686256408691 8.339116096496582 -2.347599983215332
-8.158852577209473 5.159340858459473 -2.105031728744507
-9.53249454498291 5.003036975860596 -2.347599983215332
-10.349604606628418 4.4095458984375 -2.45318341255188
-10.874506950378418 3.630439281463623 -2.5
-11.13138198852539 2.7436375617980957 -2.5
-11.316054344177246 1.8390380144119263 -2.5
-11.427343368530273 0.9225097298622131 -2.5
10.88370132446289 4.882812390860636e-06 -2.5
10.848402976989746 0.875781238079071 -2.5
10.742753982543945 1.7458739280700684 -2.5
10.5674409866333 2.6046483516693115 -2.5
10.323583602905273 3.4465136528015137 -2.5
10.012778282165527 4.266039848327637 -2.5
9.637041091918945 5.057914733886719 -2.5
8.170477867126465 6.139731407165527 -2.347599983215332
6.463735103607178 7.916640281677246 -2.347599983215332
5.110107421875 8.850981712341309 -2.347599983215332
2.843437433242798 9.816713333129883 -2.347599983215332
0.4115234315395355 10.21193790435791 -2.347599983215332
-1.2319189310073853 10.145703315734863 -2.347599983215332
-2.843447208404541 9.8167085647583 -2.347599983215332
-4.381337642669678 9.233466148376465 -2.347599983215332
-5.110126972198486 8.85097599029541 -2.347599983215332
-8.170488357543945 6.139726638793945 -2.347599983215332
-9.904531478881836 4.219916820526123 -2.472970724105835
-10.323588371276855 3.4465184211730957 -2.5
-10.567445755004883 2.6046385765075684 -2.5
-10.848407745361328 0.8757714629173279 -2.5
10.322763442993164 0.8333446979522705 -2.5
10.055419921875 2.4784374237060547 -2.5
8.424408912658691 5.327275276184082 -2.406125545501709
7.774599552154541 5.842241287231445 -2.347599983215332
6.736757755279541 7.013715744018555 -2.347599983215332
6.15054178237915 7.533061504364014 -2.347599983215332
5.524438381195068 8.003549575805664 -2.347599983215332
4.862504959106445 8.422119140625 -2.347599983215332
1.1722216606140137 9.654120445251465 -2.347599983215332
-1.9452636241912842 9.528491020202637 -2.347599983215332
-3.3620312213897705 7.08532190322876 -1.8931649923324585
-4.862529277801514 8.422119140625 -2.347599983215332
-4.293051719665527 6.219550609588623 -1.8243215084075928
-5.29543924331665 5.513114929199219 -1.8453243970870972
-8.1420259475708 5.148701190948486 -2.3254714012145996
-8.633764266967773 4.531332969665527 -2.3537817001342773
-9.41823673248291 4.01272439956665 -2.4712932109832764
-10.222246170043945 1.6612889766693115 -2.5
9.875297546386719 0.0 -2.5
9.747421264648438 1.5841162204742432 -2.5
9.085078239440918 3.870781183242798 -2.5
8.322196960449219 5.262636661529541 -2.49271821975708
7.413471698760986 5.570868968963623 -2.347599983215332
5.267831802368164 7.631782054901123 -2.347599983215332
4.636645317077637 8.03091812133789 -2.347599983215332
3.9753904342651367 8.377968788146973 -2.347599983215332
1.117763638496399 9.2056884765625 -2.347599983215332
-0.37340331077575684 9.265776634216309 -2.347599983215332
-1.1177831888198853 9.205693244934082 -2.347599983215332
-2.580004930496216 8.907172203063965 -2.347599983215332
-8.472329139709473 4.446611404418945 -2.422285318374634
-9.58834457397461 2.3633105754852295 -2.5
-9.747416496276855 1.5841162204742432 -2.5
9.43460464477539 -4.882812390860636e-06 -2.5
9.312417030334473 1.5134228467941284 -2.5
9.160439491271973 2.2578465938568115 -2.5
6.043813228607178 5.354355335235596 -2.1395857334136963
6.137157917022705 6.389482498168945 -2.347599983215332
5.03274393081665 7.291201114654541 -2.347599983215332
0.35673338174819946 8.852274894714355 -2.347599983215332
-0.3567431569099426 8.852279663085938 -2.347599983215332
-1.77212393283844 8.680424690246582 -2.347599983215332
-3.141606330871582 8.2837495803833 -2.347599983215332
-3.3620312213897705 7.08532190322876 -2.0781259536743164
-3.456289052963257 5.9864501953125 -1.8317071199417114
-4.286933422088623 6.210683345794678 -1.99970281124115
-4.448437213897705 5.448334693908691 -1.8638066053390503
-5.318774223327637 5.537431716918945 -2.0345473289489746
-6.631406307220459 5.87490701675415 -2.347599983215332
-7.082631587982178 5.322260856628418 -2.347599983215332
-8.679638862609863 3.6980369091033936 -2.5
-9.160449028015137 2.2578465938568115 -2.5
-9.312421798706055 1.5134179592132568 -2.5
-9.404004096984863 0.75916987657547 -2.5
9.0 0.7265576124191284 -2.5
8.564604759216309 2.8592822551727295 -2.5
7.995028972625732 4.196117877960205 -2.5
7.621972560882568 4.819838523864746 -2.4968931674957275
6.778354167938232 5.093608379364014 -2.347599983215332
1.6959813833236694 8.307499885559082 -2.347599983215332
-0.3414062559604645 8.471972465515137 -2.347599983215332
-1.0220165252685547 8.41702651977539 -2.347599983215332
-3.006640672683716 7.927861213684082 -2.347599983215332
-3.3620312213897705 7.0853271484375 -2.171414375305176
-4.283852577209473 6.206230163574219 -2.087968587875366
-4.448437213897705 5.448334693908691 -1.9474728107452393
-7.316987037658691 4.626977443695068 -2.396984815597534
-7.995028972625732 4.196103572845459 -2.5
-8.912358283996582 1.4483983516693115 -2.5
-9.0 0.7265527248382568 -2.5
8.6551513671875 0.0 -2.5
8.627089500427246 0.6964501738548279 -2.5
8.543066024780273 1.388393521308899 -2.5
8.403647422790527 2.0713133811950684 -2.5
7.31216287612915 4.62393045425415 -2.49894380569458
6.497499942779541 4.882558345794678 -2.347599983215332
1.7310791015625 4.564443111419678 -1.4100512266159058
1.3225780725479126 4.5660400390625 -1.3730939626693726
1.6257128715515137 7.963281154632568 -2.347599983215332
0.32725584506988525 8.12093734741211 -2.347599983215332
-0.3272656202316284 8.120942115783691 -2.347599983215332
-0.9796728491783142 8.068276405334473 -2.347599983215332
-1.6257177591323853 7.96328592300415 -2.347599983215332
-2.26123046875 7.806640625 -2.347599983215332
-2.8820605278015137 7.599374771118164 -2.347599983215332
-3.4717724323272705 6.013271331787109 -2.005607843399048
-3.708437442779541 5.37258768081665 -1.8856364488601685
-5.299018383026123 5.516845703125 -2.2095277309417725
-7.286571979522705 4.607744216918945 -2.4901978969573975
-8.543066024780273 1.3883886337280273 -2.5
8.308671951293945 0.0 -2.5
8.067240715026855 1.9883984327316284 -2.5
7.881083965301514 2.631093740463257 -2.5
7.35696268081665 3.8612401485443115 -2.5
7.022411823272705 4.440707683563232 -2.5
6.435146331787109 4.835698127746582 -2.4220285415649414
5.840009689331055 5.173808574676514 -2.347599983215332
3.901078939437866 6.756884574890137 -2.347599983215332
3.344721555709839 7.048876762390137 -2.347599983215332
1.7158690690994263 4.524340629577637 -1.4559441804885864
1.3226464986801147 4.5662841796875 -1.4304277896881104
0.9404491782188416 7.745287895202637 -2.347599983215332
-0.31416502594947815 7.795849323272705 -2.347599983215332
-2.170712947845459 7.494130611419678 -2.347599983215332
-2.7666893005371094 7.295166015625 -2.347599983215332
-3.2926511764526367 6.939101219177246 -2.311039686203003
-4.448437213897705 5.448334693908691 -2.1163747310638428
-5.840014457702637 5.173798561096191 -2.347599983215332
-6.237372875213623 4.687094688415527 -2.347599983215332
-7.643808364868164 3.256723642349243 -2.5
-7.881083965301514 2.631093740463257 -2.5
-8.067245483398438 1.9883935451507568 -2.5
-8.201079368591309 1.3328075408935547 -2.5
7.98681116104126 0.0 -2.5
7.960917949676514 0.6426757574081421 -2.5
7.071967601776123 3.711660146713257 -2.5
6.750370979309082 4.2686767578125 -2.5
6.366596698760986 4.784189224243164 -2.492793560028076
5.195380687713623 5.408974647521973 -2.347599983215332
4.743300437927246 5.809487342834473 -2.347599983215332
4.260444164276123 6.172324180603027 -2.347599983215332
3.7499608993530273 6.495136737823486 -2.347599983215332
1.5001806020736694 7.348363876342773 -2.347599983215332
0.9040136337280273 7.445249080657959 -2.347599983215332
0.30198729038238525 7.493847370147705 -2.347599983215332
-0.302001953125 7.493852138519287 -2.347599983215332
-1.500185489654541 7.348363876342773 -2.347599983215332
-3.215165853500366 6.775820255279541 -2.347599983215332
-3.4717724323272705 6.013271331787109 -2.17343807220459
-5.195390701293945 5.408974647521973 -2.347599983215332
-5.613783836364746 4.973369121551514 -2.347599983215332
-6.056909084320068 4.551469802856445 -2.371535539627075
-6.743881702423096 4.264565467834473 -2.497593402862549
-7.754726409912109 1.9113671779632568 -2.5
-7.960912704467773 0.6426659822463989 -2.5
7.686967372894287 4.882812390860636e-06 -2.5
7.463588714599609 1.8396093845367432 -2.5
6.4969482421875 4.108422756195068 -2.5
5.403032302856445 4.786664962768555 -2.347599983215332
5.000336647033691 5.205908298492432 -2.347599983215332
3.6091747283935547 6.251288890838623 -2.347599983215332
3.0944530963897705 6.521430492401123 -2.347599983215332
1.3227977752685547 4.566792011260986 -1.5462921857833862
1.4438525438308716 7.072484970092773 -2.347599983215332
-1.443872094154358 7.072480201721191 -2.347599983215332
-2.0082812309265137 6.933373928070068 -2.347599983215332
-3.407358407974243 5.901694297790527 -2.216320276260376
-3.708437442779541 5.37258768081665 -2.123135566711426
-4.373286247253418 5.356293678283691 -2.248898506164551
-5.000336647033691 5.205898284912109 -2.347599983215332
-5.403022289276123 4.786660194396973 -2.347599983215332
-6.034404277801514 4.534560680389404 -2.454892158508301
-6.806469440460205 3.5723047256469727 -2.5
-7.071845531463623 3.0130321979522705 -2.5
-7.463598251342773 1.8396044969558716 -2.5
-7.587416648864746 1.2330760955810547 -2.5
-7.662031173706055 0.6185351610183716 -2.5
7.406869888305664 0.0 -2.5
7.382851600646973 0.5960107445716858 -2.5
7.310961723327637 1.188149333000183 -2.5
7.025693416595459 2.345522403717041 -2.5
6.814174652099609 2.903247117996216 -2.5
6.55846643447876 3.442148447036743 -2.5
6.260214805603027 3.9587254524230957 -2.5
5.91421365737915 4.44424295425415 -2.496979236602783
5.218974590301514 4.623603343963623 -2.3533782958984375
4.818139553070068 5.016211032867432 -2.347599983215332
2.981699228286743 6.283818244934082 -2.347599983215332
1.3228662014007568 4.567050457000732 -1.6048556566238403
0.8383740186691284 6.904638290405273 -2.347599983215332
-0.28007322549819946 6.94970703125 -2.347599983215332
-0.8383837938308716 6.904638290405273 -2.347599983215332
-1.9351073503494263 6.680737018585205 -2.347599983215332
-2.981703996658325 6.283818244934082 -2.347599983215332
-3.4001269340515137 5.889174461364746 -2.2952470779418945
-3.708437442779541 5.37258768081665 -2.2034223079681396
-4.818139553070068 5.016215801239014 -2.347599983215332
-5.206152439117432 4.612246036529541 -2.347599983215332
-5.906562328338623 4.438500881195068 -2.4937493801116943
-6.260214805603027 3.9587109088897705 -2.5
-6.814174652099609 2.9032421112060547 -2.5
-7.19164514541626 1.7725732326507568 -2.5
-7.382856369018555 0.5960009694099426 -2.5
7.052070140838623 1.1460741758346558 -2.5
6.326215744018555 3.320258617401123 -2.5
6.038539886474609 3.818535089492798 -2.5
5.709120750427246 4.290122032165527 -2.4988772869110107
5.197211742401123 4.604331016540527 -2.429600238800049
4.647519588470459 4.838583946228027 -2.347599983215332
4.243110179901123 5.196865081787109 -2.347599983215332
3.3545262813568115 5.81020975112915 -2.347599983215332
2.8761181831359863 6.061293601989746 -2.347599983215332
1.71609365940094 4.524941444396973 -1.6933916807174683
1.3229491710662842 4.567314147949219 -1.6638659238815308
1.3419725894927979 6.573461532592773 -2.347599983215332
-0.2701513469219208 6.70361328125 -2.347599983215332
-0.8087011575698853 6.660136699676514 -2.347599983215332
-1.3419921398162842 6.573461532592773 -2.347599983215332
-1.8665869235992432 6.444164752960205 -2.347599983215332
-2.8761181831359863 6.061298847198486 -2.347599983215332
-3.3545262813568115 5.810204982757568 -2.347599983215332
-3.6457908153533936 5.281821250915527 -2.2457215785980225
-5.066987037658691 4.488950252532959 -2.368722438812256
-5.702822208404541 4.285395622253418 -2.496119737625122
-6.57287073135376 2.8004393577575684 -2.5
-6.776904106140137 2.2624707221984863 -2.5
-6.936977386474609 1.7098095417022705 -2.5
-7.052070140838623 1.1460741758346558 -2.5
-7.121420860290527 0.5748974680900574 -2.5
6.898412704467773 -4.882812390860636e-06 -2.5
6.876039981842041 0.5550976395606995 -2.5
6.80907678604126 1.1065869331359863 -2.5
6.543388366699219 2.184506893157959 -2.5
6.346396446228027 2.7039451599121094 -2.5
5.830468654632568 3.686967611312866 -2.5
5.514887809753418 4.1441650390625 -2.5
5.148608207702637 4.561269283294678 -2.49277400970459
4.487387657165527 4.671855449676514 -2.347599983215332
3.2389402389526367 5.610009670257568 -2.347599983215332
1.323022484779358 4.567573070526123 -1.7233422994613647
1.2957372665405273 6.346967697143555 -2.347599983215332
0.2608349621295929 6.472626686096191 -2.347599983215332
-0.2608398497104645 6.472626686096191 -2.347599983215332
-1.8022704124450684 6.222118854522705 -2.347599983215332
-2.2970848083496094 6.056923866271973 -2.347599983215332
-2.7770214080810547 5.852441310882568 -2.347599983215332
-3.2389402389526367 5.610009670257568 -2.347599983215332
-5.511250019073486 4.141430377960205 -2.4983487129211426
-6.108237266540527 3.2058446407318115 -2.5
-6.346396446228027 2.7039403915405273 -2.5
-6.697954177856445 1.6508935689926147 -2.5
-6.80907678604126 1.1065820455551147 -2.5
6.645214557647705 0.5364599227905273 -2.5
6.580512523651123 1.0694433450698853 -2.5
4.979877948760986 4.411787033081055 -2.494825839996338
4.336748123168945 4.515034198760986 -2.347599983215332
3.9593749046325684 4.849360466003418 -2.347599983215332
3.556328058242798 5.152226448059082 -2.347599983215332
3.1302099227905273 5.421694278717041 -2.347599983215332
0.7546044588088989 6.214780330657959 -2.347599983215332
-0.2520849406719208 6.255351543426514 -2.347599983215332
-0.7546142339706421 6.214780330657959 -2.347599983215332
-1.741762638092041 6.013256549835205 -2.347599983215332
-2.219980478286743 5.853603363037109 -2.347599983215332
-2.6838035583496094 5.655986309051514 -2.347599983215332
-3.1302244663238525 5.421694278717041 -2.347599983215332
-4.976723670959473 4.408988952636719 -2.4932472705841064
-5.634750843048096 3.5631980895996094 -2.5
-5.90319299697876 3.0982275009155273 -2.5
-6.133354187011719 2.6131787300109863 -2.5
-6.473114967346191 1.5954785346984863 -2.5
6.448564529418945 0.0 -2.5
6.427656173706055 0.5188964605331421 -2.5
6.11669921875 2.042055606842041 -2.5
5.450263500213623 3.446542978286743 -2.5
5.155258655548096 3.8739256858825684 -2.5
4.820566177368164 4.270654201507568 -2.496762990951538
3.8297507762908936 4.690585613250732 -2.347599983215332
1.7162694931030273 4.525410175323486 -1.8763607740402222
0.729907214641571 6.011303424835205 -2.347599983215332
-0.7299121022224426 6.011308670043945 -2.347599983215332
-1.2112401723861694 5.933075904846191 -2.347599983215332
-3.0277295112609863 5.244174480438232 -2.347599983215332
-3.439892530441284 4.98354959487915 -2.347599983215332
-3.8297460079193115 4.690590858459473 -2.347599983215332
-4.259613990783691 4.434726238250732 -2.3838918209075928
-5.155253887176514 3.8739256858825684 -2.5
-5.450263500213623 3.446528196334839 -2.5
-5.932543754577637 2.5276172161102295 -2.5
-6.427646160125732 0.5188915729522705 -2.5
6.242421627044678 0.0 -2.5
5.921162128448486 1.9767773151397705 -2.5
5.742900371551514 2.4468212127685547 -2.5
5.27603006362915 3.33636212348938 -2.5
4.669892311096191 4.137157917022705 -2.4985952377319336
3.3299267292022705 4.824228286743164 -2.347599983215332
2.9309375286102295 5.0765380859375 -2.347599983215332
2.512944221496582 5.295917987823486 -2.347599983215332
1.7163329124450684 4.525566101074219 -1.9383912086486816
1.1725292205810547 5.743412971496582 -2.347599983215332
0.23603515326976776 5.857123851776123 -2.347599983215332
-0.7065820097923279 5.819140434265137 -2.347599983215332
-1.6308836936950684 5.630434513092041 -2.347599983215332
-2.0786426067352295 5.480961799621582 -2.347599983215332
-2.512949228286743 5.295917987823486 -2.347599983215332
-2.9309422969818115 5.076533317565918 -2.347599983215332
-4.246127605438232 4.420702934265137 -2.454827308654785
-4.667924880981445 4.135415077209473 -2.497541904449463
-5.27603006362915 3.33636212348938 -2.5
-5.742900371551514 2.4468164443969727 -2.5
-6.06102991104126 1.4939062595367432 -2.5
6.027763366699219 0.48661619424819946 -2.5
5.969062328338623 0.9700732231140137 -2.5
5.871650218963623 1.4472362995147705 -2.5
5.736156940460205 1.9150097370147705 -2.5
5.563466548919678 2.370366096496582 -2.5
5.354682445526123 2.810356378555298 -2.5
4.526523113250732 4.010151386260986 -2.5
4.179033279418945 4.350834846496582 -2.493953227996826
3.597538948059082 4.406186580657959 -2.3515608310699463
2.839360237121582 4.917919635772705 -2.347599983215332
2.4344236850738525 5.130444049835205 -2.347599983215332
1.7163915634155273 4.525722503662109 -2.000980854034424
-0.22865721583366394 5.674116134643555 -2.347599983215332
-0.6844921708106995 5.637314319610596 -2.347599983215332
-1.579921841621399 5.454516410827637 -2.347599983215332
-2.4344286918640137 5.130439281463623 -2.347599983215332
-3.22588849067688 4.673495769500732 -2.347599983215332
-3.594970703125 4.403066158294678 -2.3498926162719727
-4.178076267242432 4.349848747253418 -2.493387222290039
-4.525659084320068 4.009379863739014 -2.4995205402374268
-4.834531307220459 3.6329150199890137 -2.5
-5.111181735992432 3.232109308242798 -2.5
-5.354687213897705 2.8103418350219727 -2.5
-5.871650218963623 1.4472265243530273 -2.5
-5.969067096710205 0.9700683355331421 -2.5
-6.027763366699219 0.4866113066673279 -2.5
5.786596775054932 0.9404199123382568 -2.5
5.560810565948486 1.85647451877594 -2.5
5.393398284912109 2.297910213470459 -2.5
5.191000938415527 2.7244482040405273 -2.5
4.686743259429932 3.521860361099243 -2.5
4.054438591003418 4.221117973327637 -2.4958951473236084
3.583915948867798 4.389506816864014 -2.4165244102478027
2.3600096702575684 4.973618030548096 -2.347599983215332
1.7164549827575684 4.525888442993164 -2.0641489028930664
0.6635693311691284 5.464999675750732 -2.347599983215332
-0.22166991233825684 5.500669002532959 -2.347599983215332
-1.5316259860992432 5.287778377532959 -2.347599983215332
-2.752573251724243 4.767587661743164 -2.347599983215332
-3.127275228500366 4.530634880065918 -2.347599983215332
-3.580922842025757 4.385829925537109 -2.4145007133483887
-4.053706169128418 4.220361232757568 -2.49544358253479
-4.954946041107178 3.133305549621582 -2.5
-5.191005706787109 2.724443197250366 -2.5
-5.560815334320068 1.8564696311950684 -2.5
-5.786596775054932 0.9404150247573853 -2.5
-5.843510627746582 0.4717333912849426 -2.5
5.687021255493164 0.0 -2.5
5.521767616271973 1.361000895500183 -2.5
5.231943130493164 2.229120969772339 -2.5
4.806616306304932 3.0395262241363525 -2.5
4.256796836853027 3.771196126937866 -2.5
3.935976505279541 4.097787857055664 -2.497741460800171
3.572705030441284 4.37576150894165 -2.4832968711853027
2.670170783996582 4.624867916107178 -2.347599983215332
2.289360284805298 4.82473611831665 -2.347599983215332
1.3233691453933716 4.568769454956055 -2.090980291366577
1.0682079792022705 5.232411861419678 -2.347599983215332
0.6437060236930847 5.301401138305664 -2.347599983215332
0.21503905951976776 5.336010456085205 -2.347599983215332
-1.068212866783142 5.232417106628418 -2.347599983215332
-1.89370596408844 4.993300437927246 -2.347599983215332
-4.256801605224609 3.771191358566284 -2.5
-4.806616306304932 3.0395164489746094 -2.5
