ply
format ascii 1.0
element vertex 770
property float x
property float y
property float z
end_header
6.911542892456055 5.193691253662109 2.3165395259857178
-15.4548921585083 6.58471155166626 4.501321792602539
-0.5431737899780273 13.478593826293945 3.4547600746154785
-16.944814682006836 17.641460418701172 6.264671325683594
-16.935644149780273 17.631927490234375 5.973516941070557
-16.917509078979492 17.613040924072266 5.396448135375977
6.915072917938232 6.126225471496582 1.9342858791351318
-0.5423339605331421 13.458003044128418 2.8200340270996094
-16.90851593017578 17.603681564331055 5.110522270202637
-0.5419287085533142 13.4478759765625 2.507939100265503
-7.348603248596191 19.37672233581543 3.861647844314575
-7.349477291107178 19.37900161743164 3.6249351501464844
-7.319447994232178 19.299821853637695 3.374837636947632
-16.879404067993164 17.573373794555664 3.9839696884155273
-7.344526290893555 19.365951538085938 3.15116810798645
-0.5411230325698853 13.427905082702637 1.8924987316131592
-0.5407275557518005 13.418041229248047 1.588476538658142
-7.28713846206665 19.21462059020996 2.4308197498321533
-16.88445281982422 17.57861328125 2.883145570755005
-7.290126800537109 19.222515106201172 2.2011024951934814
-7.340507507324219 19.3553466796875 1.9845540523529053
-16.886943817138672 17.581218719482422 2.3370730876922607
-16.889423370361328 17.583810806274414 1.793160080909729
-7.210874080657959 19.01353645324707 1.2691885232925415
-16.89067268371582 17.585100173950195 1.5218404531478882
-0.5395458936691284 13.388808250427246 0.6873571872711182
-16.891904830932617 17.586383819580078 1.250856876373291
-6.86168909072876 18.09282112121582 0.7777249217033386
-8.631488800048828 18.19049835205078 0.8092431426048279
-0.5391601324081421 13.379150390625 0.38960784673690796
-6.8616943359375 18.092819213867188 0.5630362033843994
-16.894384384155273 17.588958740234375 0.7096276879310608
-6.86168909072876 18.09282112121582 0.34848541021347046
-8.63149356842041 18.19049835205078 0.3626083433628082
-6.86168909072876 18.09282112121582 0.1340203881263733
-8.63150405883789 18.190502166748047 -0.08367019146680832
-16.898096084594727 17.59282684326172 -0.10137160867452621
-6.86168909072876 18.09282112121582 -0.29486098885536194
-16.89932632446289 17.594120025634766 -0.37174192070961
-8.63150405883789 18.190502166748047 -0.5300265550613403
22.221933364868164 19.68694496154785 -1.110853672027588
-0.5379980206489563 13.350287437438965 -0.49993741512298584
-6.86168909072876 18.09282112121582 -0.7240342497825623
-8.631488800048828 18.19049835205078 -0.753377377986908
21.916948318481445 19.4167423248291 -1.4206832647323608
-0.5378026962280273 13.345478057861328 -0.6480395197868347
-8.63149356842041 18.19049835205078 -0.9769105315208435
-16.90303611755371 17.597986221313477 -1.1839144229888916
21.98468780517578 19.476747512817383 -1.7515053749084473
-8.631488800048828 18.19049835205078 -1.2006851434707642
-9.444525718688965 16.3583984375 -1.1264158487319946
-16.904287338256836 17.599271774291992 -1.455212116241455
-0.5374121069908142 13.335864067077637 -0.9444384574890137
-3.9422607421875 19.31044578552246 -1.3946304321289062
-5.366405963897705 6.57266092300415 -0.6004281640052795
-16.905527114868164 17.600568771362305 -1.726908564567566
13.239032745361328 6.948388576507568 -1.2246640920639038
5.733002662658691 28.08209991455078 -2.347599983215332
3.4547314643859863 28.452354431152344 -2.347599983215332
1.1540625095367432 28.638080596923828 -2.347599983215332
-0.5372265577316284 13.331049919128418 -1.0928096771240234
-3.4546825885772705 28.45237159729004 -2.347599983215332
-3.9422607421875 19.310443878173828 -1.6143088340759277
-4.961533069610596 17.129152297973633 -1.460689663887024
-9.444525718688965 16.3583927154541 -1.5471683740615845
-16.281463623046875 23.587812423706055 -2.347599983215332
-16.116180419921875 16.778776168823242 -1.9055925607681274
-21.45330047607422 19.0059757232666 -2.347599983215332
-24.224267959594727 15.318490982055664 -2.347599983215332
26.860158920288086 4.882812390860636e-06 -2.5
26.773056030273438 2.1613523960113525 -2.5
26.07964515686035 6.428071022033691 -2.5
25.47783088684082 8.505756378173828 -2.5
24.710790634155273 10.528276443481445 -2.5
13.128363609313965 8.301884651184082 -1.4457318782806396
20.1050968170166 17.811586380004883 -2.5
18.606674194335938 19.371610641479492 -2.5
13.430072784423828 23.26157569885254 -2.5
11.514726638793945 24.26683235168457 -2.5
8.944110870361328 23.583688735961914 -2.347599983215332
3.0402684211730957 25.038856506347656 -2.347599983215332
-0.5370263457298279 13.3262300491333 -1.2413413524627686
-3.040278196334839 25.038848876953125 -2.347599983215332
-3.9422607421875 19.310436248779297 -1.8343838453292847
-4.961528301239014 17.12915802001953 -1.659822940826416
-6.189770221710205 16.32109832763672 -1.624656081199646
-7.6092529296875 16.036170959472656 -1.6520665884017944
-9.444531440734863 16.3583927154541 -1.7580912113189697
-14.328231811523438 20.75790023803711 -2.347599983215332
-16.135107040405273 16.798471450805664 -2.167921781539917
-18.879501342773438 16.72578239440918 -2.347599983215332
-20.164159774780273 15.152372360229492 -2.347599983215332
-21.318017959594727 13.48070240020752 -2.347599983215332
-22.33365249633789 11.721586227416992 -2.347599983215332
-24.710800170898438 10.528276443481445 -2.5
-26.07963752746582 6.428061485290527 -2.5
23.899808883666992 1.9293993711471558 -2.5
23.667064666748047 3.8462841510772705 -2.5
23.280824661254883 5.738222599029541 -2.5
22.05887222290039 9.398398399353027 -2.5
17.947450637817383 15.900087356567383 -2.5
15.1644868850708 18.57314682006836 -2.5
13.620820045471191 19.7331485748291 -2.5
9.65237808227539 20.34200096130371 -2.347599983215332
7.98424768447876 21.05272102355957 -2.347599983215332
4.503764629364014 22.060855865478516 -2.347599983215332
2.7139892578125 22.351728439331055 -2.347599983215332
0.9066210985183716 22.49763298034668 -2.347599983215332
-0.5368359088897705 13.32140064239502 -1.3900723457336426
-2.713999032974243 22.35172462463379 -2.347599983215332
-3.75201153755188 18.37853240966797 -1.955743670463562
-7.6092529296875 16.036170959472656 -1.8506789207458496
-9.341005325317383 16.179080963134766 -1.9478617906570435
-12.790488243103027 18.530210494995117 -2.347599983215332
-16.853378295898438 14.930800437927246 -2.347599983215332
-18.00017547607422 13.526240348815918 -2.347599983215332
-19.03020477294922 12.033979415893555 -2.347599983215332
-19.93683624267578 10.463642120361328 -2.347599983215332
-22.05888557434082 9.398398399353027 -2.5
-23.667070388793945 3.8462889194488525 -2.5
-23.899824142456055 1.9293895959854126 -2.5
21.64889144897461 9.765624781721272e-06 -2.5
21.019813537597656 5.180927753448486 -2.5
20.53475570678711 6.855522155761719 -2.5
12.734599113464355 6.683637619018555 -1.6608200073242188
13.3195161819458 10.0089693069458 -1.9240003824234009
13.69173812866211 16.76934242248535 -2.5
7.208827972412109 19.00811004638672 -2.347599983215332
2.4504101276397705 20.180952072143555 -2.347599983215332
0.8185155987739563 20.312673568725586 -2.347599983215332
-1.8212157487869263 14.9991455078125 -1.7448128461837769
-3.7410595417022705 18.324880599975586 -2.1597933769226074
-4.825947284698486 16.661081314086914 -2.00309681892395
-6.036562442779541 15.917133331298828 -1.9658478498458862
-7.397182464599609 15.589242935180664 -1.9926223754882812
-11.548393249511719 16.730546951293945 -2.347599983215332
-14.082524299621582 14.661449432373047 -2.347599983215332
-15.2166109085083 13.480741500854492 -2.347599983215332
-16.252012252807617 12.212592124938965 -2.347599983215332
-18.000585556030273 9.447431564331055 -2.347599983215332
-19.916542053222656 8.485639572143555 -2.5
-20.534774780273438 6.855502605438232 -2.5
-21.01982307434082 5.180917739868164 -2.5
-21.36854362487793 3.472734212875366 -2.5
-21.578691482543945 1.7420116662979126 -2.5
19.72799301147461 4.882812390860636e-06 -2.5
19.66400909423828 1.5874462127685547 -2.5
18.149335861206055 7.732709884643555 -2.5
12.927289962768555 8.174736022949219 -1.9382532835006714
14.766576766967773 13.082075119018555 -2.5
13.666054725646973 14.22787094116211 -2.5
12.4768648147583 15.281400680541992 -2.5
9.262680053710938 16.043432235717773 -2.347599983215332
7.941674709320068 16.73675537109375 -2.347599983215332
6.569189071655273 17.321516036987305 -2.347599983215332
3.7055516242980957 18.150970458984375 -2.347599983215332
-2.2329931259155273 18.390295028686523 -2.347599983215332
-4.825947284698486 16.661081314086914 -2.198138475418091
-7.397182464599609 15.589242935180664 -2.1866438388824463
-5.328193187713623 6.525864124298096 -1.0676155090332031
-12.832968711853027 13.360536575317383 -2.347599983215332
-13.866425514221191 12.284594535827637 -2.347599983215332
-14.80996036529541 11.1289644241333 -2.347599983215332
-18.712705612182617 6.24722146987915 -2.5
-19.15471649169922 4.721210956573486 -2.5
-19.472518920898438 3.164599657058716 -2.5
18.057310104370117 1.4577441215515137 -2.5
17.881460189819336 2.9060351848602295 -2.5
17.589637756347656 4.335464000701904 -2.5
16.66639518737793 7.100888729095459 -2.5
12.928515434265137 8.175507545471191 -2.1109139919281006
13.3195161819458 10.008974075317383 -2.299203634262085
13.56005859375 12.01317310333252 -2.5
12.549423217773438 13.065346717834473 -2.5
11.457406997680664 14.032787322998047 -2.5
7.292778015136719 15.369233131408691 -2.347599983215332
4.732949256896973 16.340044021606445 -2.347599983215332
3.402778148651123 16.667905807495117 -2.347599983215332
0.684985339641571 16.997901916503906 -2.347599983215332
-0.5362548828125 13.306879997253418 -1.8378286361694336
-1.5259863138198853 12.567763328552246 -1.747078776359558
-3.4027929306030273 16.66790008544922 -2.347599983215332
-6.030620098114014 15.901469230651855 -2.3468987941741943
-8.505854606628418 14.732558250427246 -2.347599983215332
-9.663749694824219 14.000346183776855 -2.347599983215332
-17.183740615844727 5.736777305603027 -2.5
-18.057313919067383 1.457729458808899 -2.5
16.743755340576172 4.882812390860636e-06 -2.5
15.882064819335938 5.302221775054932 -2.5
15.403910636901855 6.56298828125 -2.5
12.73073673248291 6.681606292724609 -2.1467111110687256
11.598803520202637 12.075639724731445 -2.5
8.931714057922363 12.939824104309082 -2.347599983215332
6.740317344665527 14.205004692077637 -2.347599983215332
-0.5052636861801147 12.537895202636719 -1.873544692993164
-4.374433517456055 15.10228443145752 -2.347599983215332
-5.575473308563232 14.70131778717041 -2.347599983215332
-6.740361213684082 14.204999923706055 -2.347599983215332
-8.931737899780273 12.939814567565918 -2.347599983215332
-5.302729606628418 6.494672775268555 -1.2518831491470337
-10.891742706298828 11.33951187133789 -2.347599983215332
-11.768877029418945 10.426318168640137 -2.347599983215332
-12.569682121276855 9.445517539978027 -2.347599983215332
-13.28897476196289 8.4034423828125 -2.347599983215332
-13.922080039978027 7.306869983673096 -2.347599983215332
-15.882060050964355 5.302206993103027 -2.5
-16.526933670043945 2.6858935356140137 -2.5
-16.689462661743164 1.3473095893859863 -2.5
15.5610933303833 0.0 -2.5
15.5106201171875 1.2521581649780273 -2.5
15.359580039978027 2.4961864948272705 -2.5
14.76025390625 4.927704811096191 -2.5
14.31588363647461 6.099428653717041 -2.5
13.152070045471191 8.316864967346191 -2.5
11.6476411819458 10.318910598754883 -2.5
9.241591453552246 11.318901062011719 -2.347599983215332
7.306230068206787 12.65478515625 -2.347599983215332
6.264208793640137 13.201655387878418 -2.347599983215332
5.181660175323486 13.662904739379883 -2.347599983215332
2.9228758811950684 14.317177772521973 -2.347599983215332
0.5512890219688416 13.680160522460938 -2.199599504470825
-0.5052587985992432 12.537895202636719 -2.015937089920044
-4.065463542938232 14.03555679321289 -2.347599983215332
-6.2642822265625 13.20164966583252 -2.347599983215332
-5.28665018081665 6.47497034072876 -1.3429428339004517
-11.681836128234863 8.778339385986328 -2.347599983215332
-12.93871021270752 6.790751934051514 -2.347599983215332
-14.28365707397461 6.08568811416626 -2.4943718910217285
13.783231735229492 4.601518630981445 -2.5
12.86661148071289 6.752914905548096 -2.5
11.616743087768555 8.729413986206055 -2.5
10.876640319824219 9.635873794555664 -2.5
7.75137186050415 11.229809761047363 -2.347599983215332
5.849599361419678 12.327802658081055 -2.347599983215332
4.838647365570068 12.758520126342773 -2.347599983215332
3.796337842941284 13.106498718261719 -2.347599983215332
1.644750952720642 13.545756340026855 -2.347599983215332
0.5482421517372131 13.604686737060547 -2.3425228595733643
-2.7294042110443115 13.369477272033691 -2.347599983215332
-3.7963573932647705 13.106498718261719 -2.347599983215332
-4.838671684265137 12.758520126342773 -2.347599983215332
-5.849614143371582 12.32779312133789 -2.347599983215332
-6.822621822357178 11.817123413085938 -2.347599983215332
-8.629862785339355 10.56966781616211 -2.347599983215332
-9.452387809753418 9.840981483459473 -2.347599983215332
-10.213607788085938 9.048476219177246 -2.347599983215332
-10.908583641052246 8.197275161743164 -2.347599983215332
-12.082260131835938 6.341249942779541 -2.347599983215332
-13.340659141540527 5.683920860290527 -2.4948363304138184
-13.78323745727539 4.601513385772705 -2.5
-14.108803749084473 3.4775097370147705 -2.5
-14.342880249023438 2.330947160720825 -2.5
13.449223518371582 2.1857080459594727 -2.5
12.06493091583252 6.332167625427246 -2.5
11.516283988952637 7.282460689544678 -2.5
7.268417835235596 10.53011703491211 -2.347599983215332
6.397533893585205 11.080829620361328 -2.347599983215332
4.537177562713623 11.963583946228027 -2.347599983215332
3.559809446334839 12.289873123168945 -2.347599983215332
1.5422704219818115 12.701757431030273 -2.347599983215332
-3.559809446334839 12.289873123168945 -2.347599983215332
-4.537177562713623 11.963579177856445 -2.347599983215332
-5.485146522521973 11.559687614440918 -2.347599983215332
-6.397524356842041 11.080839157104492 -2.347599983215332
-7.26842737197876 10.530112266540527 -2.347599983215332
-5.287221431732178 6.475678443908691 -1.5338643789291382
-9.57723617553711 8.484686851501465 -2.347599983215332
-11.329463005065918 5.946142673492432 -2.347599983215332
-12.924448013305664 4.314804553985596 -2.5
-13.449228286743164 2.1857080459594727 -2.5
12.823447227478027 -4.882812390860636e-06 -2.5
12.657387733459473 2.0570311546325684 -2.5
12.450819969177246 3.068852424621582 -2.5
11.797308921813965 5.026362419128418 -2.5
10.838247299194336 6.853701114654541 -2.5
10.25161075592041 7.703588485717773 -2.5
9.596435546875 8.501723289489746 -2.4994685649871826
8.341596603393555 8.684526443481445 -2.347599983215332
7.615732192993164 9.327592849731445 -2.347599983215332
6.840497970581055 9.910140991210938 -2.347599983215332
5.162187576293945 10.879106521606445 -2.347599983215332
4.27004861831665 11.259208679199219 -2.347599983215332
2.4086570739746094 11.798368453979492 -2.347599983215332
1.4514696598052979 11.953930854797363 -2.347599983215332
0.48486328125 12.031967163085938 -2.347599983215332
-0.4848681390285492 12.031967163085938 -2.347599983215332
-3.350229501724243 11.566293716430664 -2.347599983215332
-5.162207126617432 10.879106521606445 -2.347599983215332
-6.02086877822876 10.428437232971191 -2.347599983215332
-6.840493202209473 9.910136222839355 -2.347599983215332
-9.013368606567383 7.985141277313232 -2.347599983215332
-10.177538871765137 6.435898303985596 -2.347599983215332
-11.7832612991333 5.020375728607178 -2.497023582458496
-12.163505554199219 4.060781002044678 -2.5
-12.450819969177246 3.068852424621582 -2.5
-12.65738296508789 2.0570311546325684 -2.5
-12.781865119934082 1.0318505764007568 -2.5
12.10750961303711 0.0 -2.5
12.068246841430664 0.9742528796195984 -2.5
10.72066879272461 5.626645565032959 -2.5
10.233149528503418 6.471054553985596 -2.5
9.6792573928833 7.273490905761719 -2.5
8.510136604309082 7.539330959320068 -2.347599983215332
7.190532207489014 8.806836128234863 -2.347599983215332
6.458569049835205 9.356864929199219 -2.347599983215332
5.684706687927246 9.84622573852539 -2.347599983215332
4.031650066375732 10.630610466003418 -2.347599983215332
3.1631786823272705 10.920551300048828 -2.347599983215332
2.274179697036743 11.139667510986328 -2.347599983215332
1.3704345226287842 11.286542892456055 -2.347599983215332
0.4577929675579071 11.36021900177002 -2.347599983215332
-0.4578027129173279 11.360209465026855 -2.347599983215332
-3.1631736755371094 10.920551300048828 -2.347599983215332
-4.0316162109375 10.630624771118164 -2.347599983215332
-4.873989105224609 10.271723747253418 -2.347599983215332
-6.458579063415527 9.356855392456055 -2.347599983215332
-5.251918792724609 6.432436466217041 -1.7146693468093872
-9.089218139648438 6.830097675323486 -2.347599983215332
-9.609335899353027 6.076577186584473 -2.347599983215332
-11.131855010986328 4.742831707000732 -2.4984724521636963
-11.484414100646973 3.834052562713623 -2.5
-11.95071792602539 1.9421825408935547 -2.5
11.131376266479492 2.7436375617980957 -2.5
10.87451171875 3.630444288253784 -2.5
7.457626819610596 7.764199256896973 -2.347599983215332
6.808681488037109 8.339111328125 -2.347599983215332
6.115585803985596 8.859941482543945 -2.347599983215332
5.382817268371582 9.323315620422363 -2.347599983215332
3.8175342082977295 10.0660400390625 -2.347599983215332
2.995185375213623 10.340595245361328 -2.347599983215332
1.2976512908935547 10.687138557434082 -2.347599983215332
0.43348631262779236 10.756903648376465 -2.347599983215332
-0.43348631262779236 10.756903648376465 -2.347599983215332
-1.2976610660552979 10.687148094177246 -2.347599983215332
-2.995195150375366 10.340590476989746 -2.347599983215332
-3.8175437450408936 10.066044807434082 -2.347599983215332
-4.615156173706055 9.72622013092041 -2.347599983215332
-6.115585803985596 8.859936714172363 -2.347599983215332
-8.606513023376465 6.467372894287109 -2.347599983215332
-10.874516487121582 3.630439281463623 -2.5
-11.13137149810791 2.7436375617980957 -2.5
-11.427338600158691 0.9225048422813416 -2.5
10.88370132446289 0.0 -2.5
10.848402976989746 0.8757714629173279 -2.5
10.742758750915527 1.74587881565094 -2.5
10.012787818908691 4.266039848327637 -2.5
9.637041091918945 5.057909965515137 -2.5
7.079809188842773 7.37084436416626 -2.347599983215332
6.463730335235596 7.916640281677246 -2.347599983215332
5.805761814117432 8.411073684692383 -2.347599983215332
5.110116958618164 8.850971221923828 -2.347599983215332
3.624140501022339 9.556078910827637 -2.347599983215332
2.044306516647339 10.013681411743164 -2.347599983215332
0.4115234315395355 10.211942672729492 -2.347599983215332
-0.4115283191204071 10.211942672729492 -2.347599983215332
-1.2319189310073853 10.14571762084961 -2.347599983215332
-3.6241455078125 9.5560884475708 -2.347599983215332
-5.805766582489014 8.411078453063965 -2.347599983215332
-5.269477367401123 6.453949928283691 -1.9138524532318115
-7.079799652099609 7.370849609375 -2.347599983215332
-7.649955749511719 6.777265548706055 -2.347599983215332
-8.170488357543945 6.139726638793945 -2.347599983215332
-9.049565315246582 4.749570369720459 -2.347599983215332
-10.323583602905273 3.4465184211730957 -2.5
-10.5674409866333 2.6046483516693115 -2.5
-10.742758750915527 1.7458691596984863 -2.5
10.35635757446289 -4.882812390860636e-06 -2.5
10.222241401672363 1.66128408908844 -2.5
10.055415153503418 2.478442430496216 -2.5
9.170097351074219 4.812836647033691 -2.5
8.279311180114746 6.221494197845459 -2.5
4.862519264221191 8.422119140625 -2.347599983215332
4.169033050537109 8.786088943481445 -2.347599983215332
1.9452587366104126 9.528491020202637 -2.347599983215332
1.172216773033142 9.654126167297363 -2.347599983215332
0.3915771543979645 9.717143058776855 -2.347599983215332
-1.1722314357757568 9.654120445251465 -2.347599983215332
-1.9452587366104126 9.528495788574219 -2.347599983215332
-2.705683469772339 9.341064453125 -2.347599983215332
-4.862524509429932 8.422123908996582 -2.347599983215332
-5.524453163146973 8.0035400390625 -2.347599983215332
-7.279286861419678 6.44888162612915 -2.347599983215332
-7.774604320526123 5.842231273651123 -2.347599983215332
-8.219496726989746 5.197690486907959 -2.347599983215332
-8.767953872680664 4.601762771606445 -2.3903651237487793
-9.527631759643555 4.059340953826904 -2.5
-10.055415153503418 2.4784326553344727 -2.5
-10.222235679626465 1.6612792015075684 -2.5
9.843276023864746 0.794628918170929 -2.5
9.747421264648438 1.5841113328933716 -2.5
9.588349342346191 2.3633153438568115 -2.5
9.085073471069336 3.870781183242798 -2.5
8.346503257751465 5.278017520904541 -2.5
7.894741058349609 5.932504653930664 -2.5
6.423842430114746 6.687929630279541 -2.347599983215332
3.2883543968200684 8.67068862915039 -2.347599983215332
2.5799901485443115 8.907172203063965 -2.347599983215332
1.854897379875183 9.085893630981445 -2.347599983215332
1.117763638496399 9.2056884765625 -2.347599983215332
-0.37339842319488525 9.26578140258789 -2.347599983215332
-2.5799999237060547 8.907177925109863 -2.347599983215332
-3.2883543968200684 8.67068862915039 -2.347599983215332
-3.9753904342651367 8.377978324890137 -2.347599983215332
-4.636660099029541 8.030913352966309 -2.347599983215332
-5.267841815948486 7.631782054901123 -2.347599983215332
-5.286113262176514 6.474321365356445 -2.1159403324127197
-6.423837661743164 6.687929630279541 -2.347599983215332
-6.941162109375 6.149340629577637 -2.347599983215332
-7.413471698760986 5.570859432220459 -2.347599983215332
-8.710624694824219 4.571674823760986 -2.4904167652130127
-9.085078239440918 3.870781183242798 -2.5
-9.367084503173828 3.127187490463257 -2.5
-9.588339805603027 2.3633055686950684 -2.5
-9.747411727905273 1.5841113328933716 -2.5
9.434598922729492 -4.882812390860636e-06 -2.5
9.404008865356445 0.75916987657547 -2.5
9.312426567077637 1.5134179592132568 -2.5
9.160449028015137 2.2578516006469727 -2.5
8.679643630981445 3.6980369091033936 -2.5
7.97402811050415 5.042470455169678 -2.5
6.631396293640137 5.874926567077637 -2.347599983215332
5.603125095367432 6.862582683563232 -2.347599983215332
5.032739162445068 7.291205883026123 -2.347599983215332
4.429726600646973 7.672519207000732 -2.347599983215332
3.7979736328125 8.004096031188965 -2.347599983215332
3.141611337661743 8.283744812011719 -2.347599983215332
1.7721190452575684 8.680424690246582 -2.347599983215332
1.0678857564926147 8.794862747192383 -2.347599983215332
-0.35673338174819946 8.852279663085938 -2.347599983215332
-1.067895531654358 8.794873237609863 -2.347599983215332
-2.4648633003234863 8.50967788696289 -2.347599983215332
-3.7979979515075684 8.0040864944458 -2.347599983215332
-4.429736137390137 7.672524452209473 -2.347599983215332
-5.336596488952637 6.536152362823486 -2.2359299659729004
-6.137157917022705 6.389472484588623 -2.347599983215332
-8.336127281188965 4.375131607055664 -2.49467396736145
-8.679643630981445 3.6980369091033936 -2.5
-8.94906234741211 2.987626791000366 -2.5
-9.160449028015137 2.2578368186950684 -2.5
-9.312426567077637 1.513427734375 -2.5
-9.404004096984863 0.7591747641563416 -2.5
9.029272079467773 0.0 -2.5
9.0 0.7265527248382568 -2.5
8.912353515625 1.4483983516693115 -2.5
7.631454944610596 4.825839519500732 -2.5
6.346508502960205 5.622524261474609 -2.347599983215332
5.873510837554932 6.114965915679932 -2.347599983215332
4.816533088684082 6.977953910827637 -2.347599983215332
3.6348094940185547 7.660219669342041 -2.347599983215332
3.006640672683716 7.927865982055664 -2.347599983215332
1.6959911584854126 8.307504653930664 -2.347599983215332
-3.006640672683716 7.927870750427246 -2.347599983215332
-3.63482403755188 7.660224437713623 -2.347599983215332
-4.239428520202637 7.342905044555664 -2.347599983215332
-5.362407207489014 6.567768573760986 -2.347599983215332
-6.346508502960205 5.622519493103027 -2.347599983215332
-7.166234970092773 4.531655311584473 -2.347599983215332
-7.985263347625732 4.190981388092041 -2.4969482421875
-8.306753158569336 3.5391697883605957 -2.5
-8.56459903717041 2.8592772483825684 -2.5
-8.7669038772583 2.160844564437866 -2.5
8.627089500427246 0.6964550614356995 -2.5
8.403656959533691 2.0713133811950684 -2.5
8.209726333618164 2.7408056259155273 -2.5
5.140219688415527 6.295634746551514 -2.347599983215332
4.063769340515137 7.038642406463623 -2.347599983215332
2.8820605278015137 7.599374771118164 -2.347599983215332
1.6257128715515137 7.963276386260986 -2.347599983215332
0.979663074016571 8.068276405334473 -2.347599983215332
-0.32726073265075684 8.120942115783691 -2.347599983215332
-1.6257226467132568 7.963281154632568 -2.347599983215332
-3.4842138290405273 7.342826843261719 -2.347599983215332
-4.063774108886719 7.038647174835205 -2.347599983215332
-4.616967678070068 6.688827991485596 -2.347599983215332
-5.140214920043945 6.295629978179932 -2.347599983215332
-6.083549499511719 5.389550685882568 -2.347599983215332
-6.497495174407959 4.882553577423096 -2.347599983215332
-6.886518478393555 4.354770183563232 -2.3534820079803467
-7.660849571228027 4.020712852478027 -2.499051570892334
-8.40365219116211 2.0713086128234863 -2.5
-8.627084732055664 0.6964403986930847 -2.5
8.308676719665527 0.0 -2.5
7.881078720092773 2.6310887336730957 -2.5
7.643818378448486 3.256718635559082 -2.5
4.934453010559082 6.04360818862915 -2.347599983215332
4.432138442993164 6.421064376831055 -2.347599983215332
2.7666845321655273 7.295170783996582 -2.347599983215332
2.1706981658935547 7.49413537979126 -2.347599983215332
-0.9404589533805847 7.745287895202637 -2.347599983215332
-1.560644507408142 7.644506454467773 -2.347599983215332
-2.7666943073272705 7.295170783996582 -2.347599983215332
-3.344736337661743 7.048881530761719 -2.347599983215332
-3.9010937213897705 6.756889343261719 -2.347599983215332
-4.432148456573486 6.421059608459473 -2.347599983215332
-4.9344482421875 6.04360818862915 -2.347599983215332
-5.404760837554932 5.626957893371582 -2.347599983215332
-5.840009689331055 5.173798561096191 -2.347599983215332
-7.881083965301514 2.6310887336730957 -2.5
-8.067245483398438 1.9883935451507568 -2.5
-8.201079368591309 1.332802653312683 -2.5
7.883383750915527 1.2811717987060547 -2.5
7.754735946655273 1.9113671779632568 -2.5
5.645849704742432 5.001787185668945 -2.361008405685425
5.195385456085205 5.408974647521973 -2.347599983215332
3.7499656677246094 6.495141506195068 -2.347599983215332
3.215161085128784 6.775829792022705 -2.347599983215332
2.6595067977905273 7.012563228607178 -2.347599983215332
2.086606502532959 7.203823089599609 -2.347599983215332
1.5001806020736694 7.348359107971191 -2.347599983215332
0.30198240280151367 7.493852138519287 -2.347599983215332
-0.9040282964706421 7.445249080657959 -2.347599983215332
-2.086616277694702 7.203818321228027 -2.347599983215332
-2.6595115661621094 7.01256799697876 -2.347599983215332
-3.7499706745147705 6.495136737823486 -2.347599983215332
-4.743300437927246 5.809492111206055 -2.347599983215332
-5.195385456085205 5.408979415893555 -2.347599983215332
-5.995766639709473 4.505527019500732 -2.347599983215332
7.587421894073486 1.2330809831619263 -2.5
7.291367053985596 2.434213876724243 -2.5
6.806474685668945 3.5723142623901367 -2.5
6.145287990570068 4.617876052856445 -2.5
4.100507736206055 5.940590858459473 -2.347599983215332
3.0944530963897705 6.521430492401123 -2.347599983215332
2.0082762241363525 6.933369159698486 -2.347599983215332
1.4438623189926147 7.072490215301514 -2.347599983215332
0.2906494140625 7.212514400482178 -2.347599983215332
-0.8700878620147705 7.165732383728027 -2.347599983215332
-1.4438574314117432 7.072490215301514 -2.347599983215332
-3.0944578647613525 6.521430492401123 -2.347599983215332
-5.403022289276123 4.786669731140137 -2.347599983215332
-5.770663738250732 4.336376667022705 -2.347599983215332
-6.485620021820068 4.101249694824219 -2.4956417083740234
-7.291367053985596 2.434213876724243 -2.5
7.406869888305664 0.0 -2.5
7.382856369018555 0.5960058569908142 -2.5
7.310956954956055 1.1881444454193115 -2.5
6.814174652099609 2.903247117996216 -2.5
6.55846643447876 3.442148447036743 -2.5
6.260219573974609 3.9587206840515137 -2.5
5.527807712554932 4.897206783294678 -2.492642879486084
1.935097575187683 6.680747032165527 -2.347599983215332
1.3912500143051147 6.814785003662109 -2.347599983215332
0.1937597543001175 4.808081150054932 -1.6241612434387207
-0.2800585925579071 6.94970703125 -2.347599983215332
-1.3912500143051147 6.814785003662109 -2.347599983215332
-2.4663963317871094 6.503364086151123 -2.347599983215332
-2.981699228286743 6.283823013305664 -2.347599983215332
-3.9510984420776367 5.724140644073486 -2.347599983215332
-4.398876667022705 5.387651443481445 -2.347599983215332
-4.818139553070068 5.016215801239014 -2.347599983215332
-5.659189224243164 4.252602577209473 -2.3893067836761475
-6.254672527313232 3.955214738845825 -2.497785806655884
-6.55846643447876 3.442133665084839 -2.5
-6.814169883728027 2.903247117996216 -2.5
-7.025683403015137 2.345517635345459 -2.5
-7.191640377044678 1.7725830078125 -2.5
-7.310952186584473 1.188149333000183 -2.5
-7.382856369018555 0.5960009694099426 -2.5
7.144589900970459 -4.882812390860636e-06 -2.5
6.776904106140137 2.262460947036743 -2.5
6.326225280761719 3.320258617401123 -2.5
4.647529125213623 4.838579177856445 -2.347599983215332
3.3545262813568115 5.810204982757568 -2.347599983215332
1.3419872522354126 6.573461532592773 -2.347599983215332
0.19218261539936066 4.768945217132568 -1.6700817346572876
-0.8086913824081421 6.660131454467773 -2.347599983215332
-2.3790576457977295 6.273076057434082 -2.347599983215332
-2.8761279582977295 6.061298847198486 -2.347599983215332
-4.647519588470459 4.838588714599609 -2.347599983215332
-5.021796703338623 4.448930740356445 -2.347599983215332
-5.639003753662109 4.237436294555664 -2.468187093734741
-6.038046836853027 3.818227529525757 -2.4997966289520264
-6.326230525970459 3.320244073867798 -2.5
-6.5728759765625 2.8004345893859863 -2.5
-6.936977386474609 1.709814429283142 -2.5
6.876039981842041 0.5550878643989563 -2.5
6.80907678604126 1.1065820455551147 -2.5
6.697958946228027 1.6508984565734863 -2.5
6.108237266540527 3.2058496475219727 -2.5
5.514887809753418 4.1441650390625 -2.5
5.153852462768555 4.565922737121582 -2.4953134059906006
4.487387657165527 4.671860218048096 -2.347599983215332
3.6798582077026367 5.331191062927246 -2.347599983215332
3.2389402389526367 5.610009670257568 -2.347599983215332
2.7770166397094727 5.852450847625732 -2.347599983215332
1.8022607564926147 6.222124099731445 -2.347599983215332
1.2957470417022705 6.346972465515137 -2.347599983215332
0.1917089819908142 4.757270336151123 -1.7254472970962524
-0.2608398497104645 6.472626686096191 -2.347599983215332
-0.7808203101158142 6.430654048919678 -2.347599983215332
-1.8022656440734863 6.222124099731445 -2.347599983215332
-2.2970848083496094 6.056923866271973 -2.347599983215332
-2.777026414871216 5.852450847625732 -2.347599983215332
-4.096899509429932 5.017802715301514 -2.347599983215332
-4.487382888793945 4.671864986419678 -2.347599983215332
-4.848764419555664 4.295634746551514 -2.347599983215332
-5.501620769500732 4.134199142456055 -2.4939894676208496
-6.346396446228027 2.703935384750366 -2.5
-6.543393611907959 2.184501886367798 -2.5
-6.697958946228027 1.6508984565734863 -2.5
-6.80907678604126 1.1065820455551147 -2.5
6.666845321655273 0.0 -2.5
6.645219802856445 0.5364599227905273 -2.5
6.473114967346191 1.595483422279358 -2.5
4.983632564544678 4.415117263793945 -2.4967098236083984
4.336757659912109 4.515038967132568 -2.347599983215332
3.9593749046325684 4.849370002746582 -2.347599983215332
3.556328058242798 5.152235984802246 -2.347599983215332
3.1302196979522705 5.421694278717041 -2.347599983215332
2.683793783187866 5.655986309051514 -2.347599983215332
2.219980478286743 5.853608131408691 -2.347599983215332
1.2522557973861694 6.13390588760376 -2.347599983215332
0.19147948920726776 4.751498699188232 -1.7832121849060059
-0.7546093463897705 6.214780330657959 -2.347599983215332
-1.2522509098052979 6.13390588760376 -2.347599983215332
-1.741762638092041 6.013256549835205 -2.347599983215332
-3.1302146911621094 5.421689510345459 -2.347599983215332
-3.9593799114227295 4.849365234375 -2.347599983215332
-4.772226333618164 4.227827072143555 -2.3908004760742188
-6.645214557647705 0.5364550948143005 -2.5
6.448569297790527 4.882812390860636e-06 -2.5
6.427651405334473 0.5188964605331421 -2.5
6.365058422088623 1.034423828125 -2.5
6.116703987121582 2.042055606842041 -2.5
5.932548522949219 2.5276172161102295 -2.5
5.709926605224609 2.9967968463897705 -2.5
5.155258655548096 3.8739256858825684 -2.5
4.307373046875 4.484447956085205 -2.4106216430664062
3.0277295112609863 5.244174480438232 -2.347599983215332
2.5959227085113525 5.470800876617432 -2.347599983215332
1.6847411394119263 5.816376686096191 -2.347599983215332
1.2112499475479126 5.933081150054932 -2.347599983215332
0.7299023270606995 6.011298656463623 -2.347599983215332
0.19125975668430328 4.746059417724609 -1.8414607048034668
-0.729907214641571 6.011308670043945 -2.347599983215332
-1.2112499475479126 5.933085918426514 -2.347599983215332
-2.5959227085113525 5.470815181732178 -2.347599983215332
-3.0277295112609863 5.244179725646973 -2.347599983215332
-3.439887523651123 4.983540058135986 -2.347599983215332
-4.194770336151123 4.367211818695068 -2.347599983215332
-5.151713848114014 3.8712596893310547 -2.4982824325561523
-5.709917068481445 2.9967870712280273 -2.5
-5.932538986206055 2.5276172161102295 -2.5
-6.11669397354126 2.042050838470459 -2.5
-6.365053653717041 1.034423828125 -2.5
6.242421627044678 4.882812390860636e-06 -2.5
6.222177505493164 0.5023095607757568 -2.5
6.161586761474609 1.0013525485992432 -2.5
5.921162128448486 1.976782202720642 -2.5
5.276040077209473 3.33636212348938 -2.5
4.990463733673096 3.750077962875366 -2.5
4.671445369720459 4.138545036315918 -2.4994263648986816
4.290224552154541 4.466596603393555 -2.480315685272217
3.7073192596435547 4.540639400482178 -2.347599983215332
3.3299314975738525 4.824233055114746 -2.347599983215332
2.9309422969818115 5.0765380859375 -2.347599983215332
2.512944221496582 5.295917987823486 -2.347599983215332
0.1910400390625 4.740585803985596 -1.9000786542892456
-0.23603515326976776 5.857123851776123 -2.347599983215332
-1.1725292205810547 5.743417739868164 -2.347599983215332
-1.6308836936950684 5.630439281463623 -2.347599983215332
-2.512944221496582 5.295922756195068 -2.347599983215332
-4.063295841217041 4.230356216430664 -2.3491244316101074
-4.660712718963623 4.129033088684082 -2.493683338165283
-5.527387619018555 2.900991201400757 -2.5
-5.921156883239746 1.9767675399780273 -2.5
6.047377586364746 4.882812390860636e-06 -2.5
6.027763366699219 0.4866113066673279 -2.5
5.969067096710205 0.9700683355331421 -2.5
5.563461780548096 2.370371103286743 -2.5
5.111181735992432 3.23211407661438 -2.5
4.834531307220459 3.6329100131988525 -2.5
4.526523113250732 4.010151386260986 -2.5
4.178715705871582 4.350502967834473 -2.493765115737915
3.591484308242798 4.398769378662109 -2.347599983215332
3.22588849067688 4.673495769500732 -2.347599983215332
2.0137012004852295 5.309701919555664 -2.347599983215332
1.5799267292022705 5.454516410827637 -2.347599983215332
0.684497058391571 5.63732385635376 -2.347599983215332
0.19081541895866394 4.735083103179932 -1.9590831995010376
-0.22865721583366394 5.674125671386719 -2.347599983215332
-1.1358935832977295 5.56396484375 -2.347599983215332
-1.579921841621399 5.454516410827637 -2.347599983215332
-3.225883722305298 4.673501014709473 -2.347599983215332
-3.5914793014526367 4.398769378662109 -2.347599983215332
-5.563461780548096 2.370366096496582 -2.5
-5.736156940460205 1.915004849433899 -2.5
-6.027768611907959 0.4866064488887787 -2.5
5.862524509429932 4.882812390860636e-06 -2.5
5.692162990570068 1.4029881954193115 -2.5
5.191000938415527 2.724443197250366 -2.5
4.686743259429932 3.521865129470825 -2.5
4.388149261474609 3.8875732421875 -2.5
4.053574085235596 4.220219612121582 -2.495361804962158
3.526664972305298 4.319389343261719 -2.377922296524048
3.1272802352905273 4.5306396484375 -2.347599983215332
2.3600096702575684 4.973618030548096 -2.347599983215332
0.66357421875 5.464999675750732 -2.347599983215332
-0.22166991233825684 5.500673770904541 -2.347599983215332
-0.6635693311691284 5.46499490737915 -2.347599983215332
-1.5316308736801147 5.287787914276123 -2.347599983215332
-1.9521435499191284 5.147392272949219 -2.347599983215332
-2.7525634765625 4.767592430114746 -2.347599983215332
-3.481694221496582 4.264306545257568 -2.347599983215332
-4.034599304199219 4.20046854019165 -2.4836833477020264
-4.384145259857178 3.884023427963257 -2.497716188430786
-4.686752796173096 3.521865129470825 -2.5
-5.560810565948486 1.8564647436141968 -2.5
-5.786596775054932 0.9404101371765137 -2.5
5.687026023864746 0.0 -2.5
5.613379001617432 0.9122607111930847 -2.5
5.394345760345459 1.8008935451507568 -2.5
4.806621074676514 3.0395116806030273 -2.5
4.546454906463623 3.416435480117798 -2.5
4.256792068481445 3.771191358566284 -2.5
3.934814453125 4.096572399139404 -2.4970011711120605
3.0336668491363525 4.395009517669678 -2.347599983215332
1.485781192779541 5.129497051239014 -2.347599983215332
-0.21503417193889618 5.336010456085205 -2.347599983215332
-1.0682079792022705 5.232411861419678 -2.347599983215332
-1.485781192779541 5.129492282867432 -2.347599983215332
-3.4432373046875 4.217202186584473 -2.393310785293579
-4.256186485290527 3.7706494331359863 -2.4996376037597656
-5.035610198974609 2.642880916595459 -2.5
-5.613379001617432 0.9122607111930847 -2.5
5.448671817779541 0.885498046875 -2.5
5.078437328338623 2.1637158393859863 -2.5
4.413051605224609 3.3161914348602295 -2.5
3.821830987930298 3.97894024848938 -2.498612403869629
3.481157064437866 4.263652324676514 -2.4928090572357178
2.5918211936950684 4.489169597625732 -2.347599983215332
2.2221922874450684 4.683168888092041 -2.347599983215332
1.8381541967391968 4.846791744232178 -2.347599983215332
-0.6248193383216858 5.145854473114014 -2.347599983215332
-1.0368603467941284 5.078891277313232 -2.347599983215332
-2.2221875190734863 4.683173656463623 -2.347599983215332
-2.5918211936950684 4.489174842834473 -2.347599983215332
-4.131899356842041 3.6605420112609863 -2.5
-4.413051605224609 3.3161914348602295 -2.5
-4.665585994720459 2.9503369331359863 -2.5
-4.887861251831055 2.5653417110443115 -2.5
-5.359750747680664 1.3210546970367432 -2.5
-5.448676586151123 0.885498046875 -2.5
-5.502255916595459 0.4441894292831421 -2.5
5.361274242401123 4.882812390860636e-06 -2.5
5.343881607055664 0.4314062297344208 -2.5
5.085351467132568 1.6977392435073853 -2.5
4.932255744934082 2.101435422897339 -2.5
4.747168064117432 2.491503953933716 -2.5
4.531293869018555 2.865419864654541 -2.5
4.286025524139404 3.2207422256469727 -2.5
4.012963771820068 3.555180549621582 -2.5
3.383368968963623 4.143871784210205 -2.4945857524871826
1.7852392196655273 4.707289695739746 -2.347599983215332
1.4006688594818115 4.835673809051514 -2.347599983215332
-0.20270995795726776 5.030361175537109 -2.347599983215332
-0.6068407893180847 4.997739315032959 -2.347599983215332
-1.007021427154541 4.932700157165527 -2.347599983215332
-1.400673747062683 4.835669040679932 -2.347599983215332
-1.7852343320846558 4.707289695739746 -2.347599983215332
-2.1582324504852295 4.54836893081665 -2.347599983215332
-3.711010694503784 3.8635642528533936 -2.4980628490448
-4.012963771820068 3.555180549621582 -2.5
-4.286020278930664 3.2207422256469727 -2.5
-4.531289100646973 2.865419864654541 -2.5
-4.9322509765625 2.101435422897339 -2.5
-5.085361003875732 1.6977392435073853 -2.5
-5.205478191375732 1.2830370664596558 -2.5
-5.291835784912109 0.8600097298622131 -2.5
-5.343876838684082 0.4314062297344208 -2.5
